ply
format ascii 1.0
element vertex 1640
property float x
property float y
property float z
end_header
0.108809 -0.0328937 0.897366
0.11119 -0.0330424 0.897194
0.109751 -0.0339662 0.896606
0.106024 -0.0328566 0.893107
0.107675 -0.0344332 0.894285
0.103373 -0.032897 0.889182
0.105471 -0.0347978 0.8916
0.0929284 -0.0352887 0.873622
0.0915891 -0.036221 0.873197
0.0908211 -0.0375868 0.874365
0.0901128 -0.0390032 0.875712
0.0894653 -0.0404727 0.877238
0.0886836 -0.0418439 0.878396
0.0878316 -0.0431647 0.879363
0.0863124 -0.043959 0.878435
0.0847238 -0.0446932 0.8773
0.0829773 -0.045294 0.875701
0.0811353 -0.0458093 0.873812
0.0794486 -0.0464428 0.872359
0.0778454 -0.0471381 0.871136
0.0764142 -0.0479709 0.870407
0.0750737 -0.0488764 0.869935
0.0739703 -0.0499807 0.870155
0.0727495 -0.050985 0.870033
0.0715698 -0.0520239 0.870028
0.0703872 -0.0530598 0.870015
0.0693734 -0.0542435 0.870507
0.0683716 -0.0554398 0.871038
0.0673303 -0.056603 0.871452
0.0663589 -0.0578308 0.872082
0.0653745 -0.0590495 0.872677
0.0642792 -0.0601694 0.872938
0.0632152 -0.0613188 0.873294
0.0622624 -0.0625732 0.873999
0.0613476 -0.0638663 0.874823
0.0604129 -0.0651444 0.875593
0.0595505 -0.0664949 0.876596
0.0586555 -0.0678186 0.877504
0.0577351 -0.0691219 0.878337
0.0568123 -0.0704269 0.879171
0.0559138 -0.0717596 0.880089
0.0550143 -0.0730955 0.881011
0.0541124 -0.0744335 0.881931
0.0531816 -0.0757466 0.882767
0.0522449 -0.0770577 0.88359
0.0515275 -0.0785979 0.885133
0.05083 -0.0801665 0.886752
0.0500928 -0.0817015 0.888257
0.0493857 -0.0832762 0.889872
0.11239 -0.0342966 0.897121
0.110878 -0.0351707 0.896342
0.109371 -0.0360443 0.895572
0.107598 -0.0367226 0.894072
0.102629 -0.0346867 0.887147
0.105417 -0.0370971 0.891448
0.0968068 -0.0385584 0.881068
0.0953934 -0.0394533 0.880472
0.0945765 -0.0408007 0.88153
0.093773 -0.0421626 0.882635
0.093008 -0.0435591 0.883857
0.0920918 -0.0448426 0.88466
0.0910984 -0.0460684 0.885251
0.0894017 -0.0467366 0.883851
0.0876378 -0.0473442 0.882245
0.0856948 -0.0477989 0.880113
0.0836868 -0.04819 0.877778
0.0818346 -0.0486981 0.875871
0.0800982 -0.0492928 0.874285
0.0785722 -0.0500556 0.873298
0.0771706 -0.0509182 0.872664
0.0759657 -0.0519445 0.872602
0.0746485 -0.052874 0.87221
0.0733868 -0.0538492 0.871975
0.0720989 -0.0548001 0.871661
0.070954 -0.0558744 0.87177
0.0698583 -0.0569927 0.872028
0.0687505 -0.058101 0.872248
0.067693 -0.0592554 0.872622
0.0666512 -0.0604255 0.873047
0.0654955 -0.0614927 0.873128
0.0643693 -0.0625874 0.873299
0.0633879 -0.0638175 0.873914
0.0624766 -0.0651158 0.874751
0.0615443 -0.0663981 0.875529
0.0606875 -0.067756 0.876547
0.0597873 -0.0690768 0.877439
0.0588312 -0.0703477 0.878161
0.0578775 -0.0716241 0.878899
0.056928 -0.072908 0.879652
0.0559976 -0.0742144 0.880474
0.055066 -0.0755234 0.881298
0.054132 -0.0768339 0.882121
0.0531763 -0.0781261 0.882882
0.0524883 -0.079697 0.884511
0.0517948 -0.0812703 0.88614
0.0510577 -0.0828064 0.887639
0.113913 -0.0357797 0.897908
0.11227 -0.0365636 0.896785
0.110586 -0.0373128 0.895546
0.10871 -0.0379175 0.893777
0.106992 -0.0386293 0.892422
0.103234 -0.037458 0.8888
0.105381 -0.0394129 0.89135
0.101002 -0.0377704 0.885996
0.103707 -0.0401448 0.890093
0.0988623 -0.038139 0.883427
0.102097 -0.0409178 0.889003
0.100493 -0.0416904 0.887921
0.0990043 -0.0425453 0.88715
0.0975986 -0.0434599 0.8866
0.0962291 -0.0443994 0.886148
0.0948798 -0.045352 0.885747
0.0934268 -0.0462211 0.885052
0.0919706 -0.0470839 0.884343
0.0903966 -0.0478495 0.883293
0.0887945 -0.0485871 0.882154
0.0871211 -0.0492611 0.880803
0.0853604 -0.049857 0.879191
0.0836928 -0.0505218 0.877831
0.0820485 -0.051199 0.876528
0.0805695 -0.0520081 0.875694
0.0791064 -0.0528261 0.874898
0.0777795 -0.0537559 0.874493
0.0763677 -0.0546106 0.873834
0.0749852 -0.0554869 0.873256
0.0736056 -0.0563627 0.872681
0.0723694 -0.0573613 0.872527
0.0712384 -0.0584521 0.872684
0.0700663 -0.0595065 0.872719
0.0689762 -0.0606348 0.872999
0.0679258 -0.0618001 0.8734
0.0667125 -0.0628174 0.873312
0.0655572 -0.0638878 0.873397
0.0645695 -0.0651141 0.873997
0.0636558 -0.0664126 0.874826
0.0627046 -0.0676795 0.875546
0.0618459 -0.0690379 0.876559
0.0609164 -0.0703328 0.87736
0.0599289 -0.0715751 0.877986
0.0589193 -0.0727986 0.878546
0.0579131 -0.0740278 0.879122
0.0569548 -0.0753073 0.879854
0.0559965 -0.0765902 0.88059
0.0550685 -0.0779071 0.881428
0.054143 -0.0792306 0.882283
0.0534876 -0.0808358 0.884015
0.0528005 -0.0824169 0.885656
0.052032 -0.0839212 0.887048
0.115879 -0.0375757 0.899859
0.113756 -0.038024 0.897471
0.111909 -0.038659 0.895803
0.109946 -0.0392026 0.893809
0.108116 -0.0398343 0.892165
0.106438 -0.040569 0.890912
0.104733 -0.0412781 0.889579
0.103083 -0.0420226 0.888389
0.101471 -0.0427888 0.887288
0.100007 -0.0436627 0.886589
0.0986008 -0.044577 0.886043
0.0972631 -0.0455412 0.885681
0.0959127 -0.0464936 0.885281
0.0944571 -0.0473613 0.884583
0.0930021 -0.0482259 0.88388
0.0914641 -0.0490203 0.882939
0.0899284 -0.0498121 0.881993
0.0882973 -0.0505215 0.880771
0.0866554 -0.0512158 0.879508
0.08499 -0.0518845 0.878165
0.083402 -0.0526108 0.877035
0.0818903 -0.0533953 0.876114
0.0804705 -0.0542527 0.875452
0.0790839 -0.0551347 0.874881
0.0777262 -0.0560385 0.874388
0.0763154 -0.0568935 0.873735
0.0749365 -0.0577727 0.87317
0.0736749 -0.0587521 0.872946
0.0725132 -0.0598189 0.873016
0.0713076 -0.0608461 0.872957
0.070183 -0.0619457 0.873138
0.0691317 -0.0631125 0.87354
0.0679144 -0.0641288 0.873442
0.0667809 -0.0652214 0.873599
0.0657934 -0.0664508 0.874201
0.0648811 -0.0677534 0.875034
0.0639239 -0.0690173 0.875738
0.0630352 -0.0703495 0.87666
0.0620505 -0.0715938 0.877289
0.0610321 -0.0728082 0.877819
0.0599669 -0.0739789 0.878208
0.0588989 -0.0751486 0.878589
0.0579362 -0.0764244 0.879306
0.0569769 -0.0777072 0.880038
0.0560555 -0.0790317 0.880896
0.0551618 -0.0803882 0.881851
0.0545136 -0.0820023 0.883598
0.0537956 -0.0835524 0.885137
0.0530273 -0.0850579 0.886525
0.120635 -0.0393775 0.905902
0.118032 -0.0395063 0.902285
0.11552 -0.0396842 0.898882
0.113386 -0.0401176 0.896465
0.111269 -0.0405521 0.894074
0.109356 -0.0411244 0.892212
0.107575 -0.0417849 0.890691
0.105864 -0.0424908 0.889352
0.104179 -0.0432093 0.888071
0.102521 -0.0439416 0.886851
0.100985 -0.0447611 0.885958
0.0995396 -0.0456455 0.885308
0.0982007 -0.046609 0.884946
0.0968534 -0.0475639 0.884556
0.0954303 -0.048457 0.883951
0.0940082 -0.0493478 0.883344
0.0925327 -0.0501925 0.882584
0.0910401 -0.0510196 0.881767
0.0894728 -0.0517818 0.880731
0.087895 -0.0525301 0.879657
0.0862554 -0.053222 0.878398
0.084659 -0.0539434 0.877252
0.0831373 -0.0547216 0.87631
0.0817121 -0.0555765 0.875641
0.0802895 -0.0564302 0.874971
0.0789314 -0.0573355 0.874484
0.0775522 -0.0582199 0.87393
0.0762044 -0.0591287 0.873462
0.0749714 -0.0601358 0.87333
0.0738379 -0.0612304 0.873489
0.072636 -0.0622642 0.873444
0.0714807 -0.0633393 0.873538
0.0703959 -0.0644788 0.873845
0.0691469 -0.0654686 0.873657
0.0679923 -0.0665444 0.873754
0.0670053 -0.0677767 0.874358
0.0660636 -0.0690541 0.875106
0.0650719 -0.0702877 0.875705
0.0641526 -0.071593 0.876532
0.0631344 -0.0728069 0.877059
0.0620596 -0.0739679 0.877415
0.0609578 -0.0751039 0.87769
0.0598815 -0.0762662 0.878046
0.0589158 -0.0775399 0.878751
0.0579308 -0.0787976 0.879401
0.0570386 -0.0801521 0.880349
0.0561717 -0.081537 0.881387
0.0555252 -0.0831539 0.883133
0.0547808 -0.0846779 0.884582
0.0540374 -0.0862102 0.886047
0.124947 -0.040846 0.91068
0.122276 -0.0409465 0.906931
0.119826 -0.0411867 0.90374
0.117305 -0.0413613 0.900337
0.114983 -0.0416633 0.897435
0.112772 -0.0420326 0.894807
0.110734 -0.0425162 0.892625
0.108811 -0.0430744 0.890734
0.107062 -0.043753 0.889299
0.105304 -0.0444178 0.887827
0.103575 -0.0450976 0.886423
0.101964 -0.0458605 0.885329
0.100479 -0.0467148 0.884574
0.0991401 -0.0476784 0.884212
0.0977965 -0.0486361 0.883836
0.0964089 -0.0495572 0.883333
0.0950159 -0.050471 0.882812
0.0936058 -0.0513687 0.882237
0.0921742 -0.0522458 0.881596
0.0906748 -0.0530643 0.880759
0.0891256 -0.0538377 0.879775
0.0874796 -0.054526 0.878506
0.0858478 -0.0552197 0.877267
0.0842573 -0.0559417 0.876138
0.0828284 -0.0567949 0.875461
0.0813773 -0.0576254 0.874715
0.0800211 -0.0585337 0.874237
0.0786678 -0.0594417 0.873764
0.077347 -0.0603754 0.873381
0.0761491 -0.0614154 0.873354
0.0750476 -0.0625406 0.87361
0.0739025 -0.0636274 0.873739
0.0727754 -0.0647308 0.873922
0.0716644 -0.0658494 0.874153
0.0703841 -0.0668131 0.873877
0.06925 -0.0679106 0.874041
0.0682136 -0.0690998 0.874498
0.0672186 -0.0703296 0.875085
0.0662198 -0.0715585 0.875664
0.0652619 -0.072829 0.876372
0.0641837 -0.0739866 0.876718
0.0630777 -0.0751188 0.876978
0.0619429 -0.0762234 0.877152
0.0608628 -0.0773826 0.877496
0.05987 -0.0786301 0.878115
0.0588606 -0.0798637 0.878686
0.0579942 -0.0812448 0.879713
0.057181 -0.0826852 0.880915
0.0565377 -0.0843064 0.882668
0.0558217 -0.085861 0.884204
0.0551089 -0.0874266 0.885763
0.127462 -0.0406218 0.913996
0.130191 -0.0405282 0.917839
0.131133 -0.0416129 0.91698
0.128403 -0.0417038 0.913147
0.126204 -0.0421473 0.910671
0.123868 -0.0424833 0.90782
0.121593 -0.0428494 0.905105
0.119081 -0.0430338 0.901747
0.116654 -0.0432643 0.898588
0.114341 -0.0435625 0.895707
0.112123 -0.0439171 0.893057
0.11005 -0.0443666 0.890775
0.108258 -0.0450145 0.889233
0.106423 -0.0456227 0.887562
0.104624 -0.0462506 0.885978
0.102973 -0.0469828 0.884781
0.101452 -0.0478094 0.88393
0.100109 -0.0487706 0.883561
0.0987378 -0.049707 0.883111
0.0973535 -0.0506306 0.88262
0.0959892 -0.0515674 0.882181
0.0946102 -0.0524902 0.881695
0.0932103 -0.0533931 0.881149
0.0917767 -0.0542659 0.880501
0.09026 -0.0550669 0.879613
0.0885813 -0.0557292 0.878261
0.0869377 -0.056414 0.876996
0.0853122 -0.0571076 0.875772
0.0838547 -0.0579373 0.87502
0.0824366 -0.0587966 0.874374
0.0811093 -0.0597307 0.873984
0.0797523 -0.0606369 0.873502
0.0784285 -0.0615692 0.873114
0.0772584 -0.0626351 0.873171
0.0761659 -0.0637697 0.873457
0.0750565 -0.0648903 0.873693
0.0739609 -0.0660241 0.873972
0.0728722 -0.0671653 0.874272
0.0716143 -0.0681519 0.874069
0.0704776 -0.0692494 0.874228
0.069411 -0.0704128 0.874598
0.0683825 -0.0716137 0.875084
0.0673496 -0.0728123 0.875563
0.0663315 -0.0740271 0.876087
0.0651962 -0.0751312 0.876258
0.0640856 -0.0762597 0.876507
0.0629502 -0.0773647 0.876679
0.0618737 -0.0785284 0.877034
0.060885 -0.0797809 0.877666
0.0599061 -0.0810463 0.878333
0.059037 -0.0824261 0.879347
0.0582529 -0.0838974 0.880641
0.0575893 -0.0854995 0.882323
0.0568796 -0.0870621 0.883875
0.0561794 -0.0886424 0.88547
0.125334 -0.0439333 0.908366
0.123178 -0.0443858 0.90598
0.120705 -0.0445995 0.90274
0.118192 -0.0447708 0.899373
0.115756 -0.0449822 0.896184
0.113447 -0.0452716 0.893304
0.111225 -0.0456121 0.890638
0.109382 -0.0462232 0.888971
0.107507 -0.0468018 0.887202
0.105705 -0.0474274 0.885614
0.104051 -0.0481581 0.884417
0.102525 -0.0489821 0.883557
0.101146 -0.0499157 0.883095
0.0997397 -0.0508254 0.88255
0.0983525 -0.0517469 0.882055
0.0969584 -0.0526606 0.881535
0.0956073 -0.0536059 0.881132
0.094211 -0.0545123 0.880598
0.0928121 -0.0554136 0.880051
0.0913018 -0.0562205 0.879187
0.0896507 -0.0569062 0.877919
0.087969 -0.0575597 0.876555
0.0863361 -0.0582476 0.875315
0.0848763 -0.0590761 0.874561
0.0834618 -0.0599391 0.87393
0.082137 -0.0608762 0.87355
0.0808057 -0.0618054 0.873147
0.0794784 -0.0627355 0.872754
0.0783083 -0.0638025 0.872811
0.0772175 -0.0649399 0.873102
0.0761389 -0.0660893 0.873432
0.0750775 -0.0672557 0.873811
0.0739949 -0.0684039 0.874132
0.0727633 -0.0694164 0.874012
0.0716191 -0.0705089 0.874151
0.0705182 -0.0716422 0.87442
0.0694286 -0.072787 0.874723
0.0683607 -0.0739537 0.875096
0.0672829 -0.0751122 0.875441
0.0661182 -0.0761884 0.875524
0.0650105 -0.0773198 0.875779
0.063907 -0.0784563 0.876049
0.0628645 -0.0796544 0.876508
0.0619083 -0.0809403 0.877239
0.0609584 -0.0822358 0.877995
0.0600895 -0.0836173 0.87901
0.0593374 -0.0851228 0.8804
0.0586535 -0.0867056 0.882015
0.0579543 -0.0882805 0.883597
0.0572661 -0.0898751 0.885225
0.126444 -0.045133 0.907974
0.124461 -0.0457082 0.906051
0.122124 -0.0460209 0.903185
0.119538 -0.0461397 0.899641
0.117021 -0.0462933 0.896253
0.114631 -0.0465239 0.893177
0.112327 -0.0468044 0.890305
0.11047 -0.0474056 0.888608
0.108559 -0.0479576 0.886749
0.106726 -0.0485596 0.885089
0.105046 -0.0492708 0.883826
0.103512 -0.0500884 0.88295
0.102094 -0.0509921 0.882384
0.100651 -0.0518726 0.88174
0.0992597 -0.0527912 0.881236
0.0978623 -0.0537019 0.88071
0.0965106 -0.0546465 0.880307
0.095146 -0.0555783 0.879863
0.093782 -0.056508 0.879418
0.0922759 -0.0573186 0.878569
0.0906548 -0.0580291 0.877392
0.0889697 -0.0586802 0.876023
0.0873299 -0.0593624 0.874773
0.0858671 -0.0601887 0.874013
0.0844833 -0.0610786 0.873472
0.0831614 -0.0620188 0.873105
0.081834 -0.062952 0.872718
0.0805008 -0.063878 0.872309
0.0793256 -0.0649413 0.872356
0.0782316 -0.0660769 0.872637
0.0771553 -0.0672293 0.872973
0.0761247 -0.0684244 0.873443
0.0750467 -0.0695782 0.873779
0.0738198 -0.070596 0.873674
0.0726511 -0.0716671 0.873742
0.0715169 -0.0727702 0.873913
0.0703884 -0.0738791 0.874101
0.0692862 -0.0750136 0.87437
0.0681789 -0.0761444 0.874623
0.0670143 -0.0772206 0.874705
0.0659366 -0.0783814 0.875052
0.0648669 -0.0795513 0.875427
0.0638874 -0.0808121 0.876079
0.0629648 -0.0821327 0.876914
0.0620694 -0.0834845 0.877837
0.0612057 -0.0848731 0.878867
0.0604832 -0.0864108 0.880347
0.0598016 -0.0879984 0.881966
0.0591261 -0.0896002 0.883617
0.0584347 -0.0911937 0.885234
0.0563481 -0.0912352 0.886134
0.0575918 -0.0926356 0.886381
0.127008 -0.0459473 0.906163
0.12527 -0.0466936 0.904881
0.123159 -0.0471666 0.902615
0.120646 -0.0473379 0.899277
0.118196 -0.04754 0.896082
0.115798 -0.047765 0.892997
0.113485 -0.0480385 0.890116
0.111593 -0.0486143 0.888332
0.10971 -0.0491874 0.886559
0.107851 -0.0497707 0.884836
0.106168 -0.0504804 0.883573
0.1046 -0.0512727 0.882612
0.10314 -0.0521449 0.881937
0.101623 -0.0529681 0.881097
0.100195 -0.0538579 0.880497
0.0987662 -0.0547432 0.879885
0.097414 -0.0556872 0.879482
0.0960791 -0.0566429 0.879123
0.0947467 -0.0575986 0.878766
0.0932421 -0.0584102 0.877928
0.0916525 -0.059147 0.876844
0.0899666 -0.0597975 0.875479
0.0882983 -0.060456 0.874154
0.0868002 -0.0612525 0.873298
0.0854422 -0.0621645 0.872835
0.0841229 -0.0631074 0.872477
0.0828012 -0.0640459 0.872108
0.08147 -0.064974 0.871708
0.0802864 -0.0660304 0.871731
0.0791571 -0.0671349 0.871911
0.0780784 -0.0682855 0.872238
0.0770783 -0.0695086 0.872797
0.0760338 -0.0706936 0.87323
0.074839 -0.0717415 0.873224
0.0736715 -0.0728144 0.873297
0.0725071 -0.0738904 0.873379
0.0713459 -0.0749693 0.87347
0.0702115 -0.0760738 0.873641
0.0690744 -0.0771759 0.873806
0.0679097 -0.0782522 0.873888
0.0668615 -0.0794416 0.874324
0.0658251 -0.0806446 0.874797
0.0648796 -0.0819398 0.875553
0.0639902 -0.0832944 0.876486
0.0631532 -0.0847062 0.877589
0.0623202 -0.0861275 0.878713
0.0616275 -0.0876976 0.880282
0.0609452 -0.0892866 0.881896
0.0602906 -0.0909123 0.883609
0.0595973 -0.0925063 0.885216
0.0587737 -0.0939709 0.886424
0.127771 -0.0469016 0.904873
0.126036 -0.0476489 0.903602
0.123966 -0.0481492 0.90145
0.121589 -0.0484166 0.898479
0.119216 -0.0486731 0.895497
0.11686 -0.048929 0.892537
0.114584 -0.0492294 0.889765
0.112691 -0.0498049 0.887988
0.110839 -0.0504017 0.886305
0.108977 -0.0509835 0.884586
0.107291 -0.0516913 0.88332
0.105682 -0.052453 0.882254
0.104181 -0.053294 0.881471
0.102627 -0.0540883 0.880537
0.101166 -0.0549519 0.879849
0.0997035 -0.055811 0.879153
0.09835 -0.0567541 0.878747
0.0970123 -0.0577076 0.878382
0.0956489 -0.0586379 0.877942
0.0941437 -0.0594489 0.877105
0.0925845 -0.0602104 0.87611
0.0909004 -0.0608622 0.874757
0.0892326 -0.061521 0.873439
0.0877309 -0.0623143 0.872579
0.0863984 -0.0632483 0.872189
0.0850806 -0.0641927 0.871836
0.083791 -0.0651597 0.871562
0.0824621 -0.0660903 0.871171
0.0813037 -0.0671697 0.871268
0.0801439 -0.0682479 0.871361
0.0790332 -0.0693703 0.871595
0.0780037 -0.0705671 0.872069
0.0769856 -0.0717765 0.872577
0.0757927 -0.0728268 0.872576
0.0746281 -0.073903 0.872659
0.0734636 -0.0749791 0.872741
0.0722989 -0.0760553 0.872823
0.0711344 -0.0771314 0.872906
0.0699698 -0.0782075 0.872988
0.0688052 -0.0792837 0.87307
0.0677845 -0.0805002 0.873588
0.0668051 -0.0817595 0.874233
0.0659229 -0.083118 0.87518
0.0650956 -0.0845362 0.8763
0.0643216 -0.0860131 0.877596
0.0635166 -0.0874651 0.878806
0.0627738 -0.0889868 0.880216
0.0620316 -0.090516 0.88164
0.0613198 -0.092084 0.883171
0.0605735 -0.0936237 0.884608
0.0597023 -0.0950386 0.885661
0.128675 -0.0479552 0.903948
0.126897 -0.0486709 0.90257
0.124902 -0.0492242 0.900621
0.12257 -0.0495231 0.89778
0.120279 -0.0498386 0.895022
0.117965 -0.0501249 0.892188
0.115762 -0.0504798 0.889619
0.113864 -0.0510519 0.88784
0.11201 -0.051648 0.886159
0.110139 -0.052224 0.884423
0.10845 -0.052931 0.883162
0.106803 -0.0536643 0.881998
0.105232 -0.0544508 0.881032
0.103665 -0.0552359 0.880069
0.10214 -0.0560491 0.87921
0.100646 -0.0568835 0.878433
0.0992903 -0.0578247 0.878022
0.0979182 -0.0587503 0.877565
0.096519 -0.0596512 0.877029
0.0950123 -0.0604603 0.876189
0.0934824 -0.0612457 0.875281
0.0918015 -0.0618998 0.873942
0.0901625 -0.0625822 0.87271
0.088659 -0.0633739 0.871848
0.0873235 -0.0643055 0.871453
0.0860047 -0.0652491 0.8711
0.0847481 -0.0662449 0.870921
0.0834517 -0.0672044 0.870626
0.0823271 -0.0683145 0.870821
0.0811955 -0.0694188 0.870996
0.0800556 -0.0705161 0.871147
0.0790213 -0.0717097 0.871606
0.077973 -0.0728924 0.872027
0.0767477 -0.0739133 0.871933
0.075554 -0.0749629 0.87193
0.0743872 -0.0760371 0.872006
0.0731944 -0.0770868 0.872006
0.0720299 -0.0781629 0.872088
0.0708653 -0.0792391 0.87217
0.0697006 -0.0803153 0.872253
0.0686808 -0.0815326 0.87277
0.0677313 -0.0828215 0.873504
0.0669125 -0.0842433 0.874639
0.0661229 -0.0856998 0.875874
0.0654124 -0.0872421 0.877357
0.0646386 -0.0887275 0.87866
0.063865 -0.0902195 0.879975
0.0630935 -0.0917203 0.881306
0.0623484 -0.0932551 0.882728
0.0615456 -0.0947367 0.883985
0.0606498 -0.0961263 0.884958
0.0587241 -0.0963447 0.886386
0.0596886 -0.0974511 0.885732
0.127778 -0.0497075 0.901594
0.125803 -0.050274 0.899704
0.12361 -0.0506727 0.897233
0.121392 -0.0510413 0.894679
0.119087 -0.0513337 0.891877
0.116981 -0.0517612 0.889574
0.115075 -0.0523281 0.887783
0.113213 -0.0529195 0.886093
0.111307 -0.0534695 0.884274
0.109584 -0.0541514 0.882927
0.107866 -0.0548301 0.881582
0.106251 -0.055583 0.880503
0.104645 -0.0563382 0.879442
0.103086 -0.0571243 0.878495
0.101594 -0.0579603 0.877726
0.100232 -0.0588964 0.877302
0.0988221 -0.0597912 0.876743
0.0973849 -0.0606607 0.876105
0.0958754 -0.0614669 0.875262
0.0943469 -0.062253 0.874359
0.0926975 -0.0629328 0.873114
0.091092 -0.0636433 0.87198
0.0895883 -0.0644347 0.871122
0.0882513 -0.065365 0.870724
0.0869297 -0.0663063 0.870366
0.0856755 -0.0673043 0.870195
0.0844138 -0.0682945 0.87
0.0833293 -0.0694406 0.870309
0.0822299 -0.0705746 0.870577
0.0811202 -0.0717001 0.870817
0.080081 -0.0728906 0.871262
0.079 -0.0740446 0.871588
0.0777402 -0.0750345 0.871397
0.0765117 -0.0760524 0.871294
0.0753133 -0.0770974 0.871278
0.0740899 -0.0781185 0.871188
0.0729254 -0.0791945 0.87127
0.0717608 -0.0802707 0.871353
0.0705961 -0.0813469 0.871435
0.0695768 -0.0825648 0.871952
0.0686586 -0.0838846 0.872777
0.0679029 -0.0853695 0.874099
0.0671559 -0.0868695 0.875458
0.0664798 -0.0884478 0.877044
0.0657347 -0.0899638 0.878432
0.0649265 -0.091422 0.879637
0.0640944 -0.0928618 0.880778
0.0633142 -0.0943612 0.882088
0.0624771 -0.0958072 0.883233
0.0615725 -0.0971879 0.884175
0.0606273 -0.0985298 0.884998
0.130555 -0.0501143 0.902287
0.128588 -0.0506934 0.900437
0.126629 -0.051269 0.898591
0.124562 -0.0517581 0.896455
0.122494 -0.0522362 0.8943
0.120353 -0.0526497 0.891937
0.118308 -0.0531233 0.889806
0.116357 -0.0536581 0.887907
0.114482 -0.0542418 0.886195
0.112542 -0.0547671 0.884297
0.110782 -0.0554219 0.882861
0.108996 -0.0560494 0.881344
0.107332 -0.0567648 0.88014
0.105685 -0.0574874 0.878972
0.10409 -0.0582461 0.877937
0.102571 -0.0590599 0.877096
0.101207 -0.0599949 0.87667
0.0997575 -0.0608579 0.876007
0.0982492 -0.061669 0.875177
0.0967007 -0.0624424 0.874231
0.0951758 -0.0632306 0.873341
0.0935629 -0.0639401 0.872201
0.0919947 -0.0646816 0.871175
0.0905217 -0.065499 0.870406
0.0891825 -0.0664275 0.870004
0.087857 -0.0673656 0.869637
0.0866022 -0.0683632 0.869466
0.0853754 -0.0693842 0.869371
0.0843283 -0.0705642 0.869787
0.0832669 -0.071733 0.870164
0.0821857 -0.0728853 0.870486
0.0811494 -0.0740797 0.87094
0.0800346 -0.075204 0.871169
0.0787423 -0.0761648 0.870886
0.0774735 -0.0771458 0.870668
0.0762401 -0.0781585 0.870551
0.0749854 -0.0791501 0.87037
0.0738209 -0.0802262 0.870453
0.0726563 -0.0813023 0.870535
0.0715196 -0.0824056 0.8707
0.0705027 -0.0836262 0.871223
0.0696159 -0.0849773 0.87214
0.0688654 -0.086468 0.873473
0.0681499 -0.0880003 0.874923
0.0674514 -0.0895568 0.876436
0.0667334 -0.0911012 0.877901
0.0658987 -0.0925334 0.879022
0.0650307 -0.0939366 0.880049
0.0642158 -0.0954001 0.881248
0.0633444 -0.0968104 0.882281
0.0623844 -0.0981322 0.883047
0.0614258 -0.0994591 0.883824
0.129445 -0.051712 0.899399
0.12744 -0.0522538 0.897444
0.125492 -0.0528277 0.89562
0.123557 -0.0534021 0.893815
0.121552 -0.0539163 0.891816
0.119538 -0.0544148 0.88978
0.117611 -0.0549686 0.887954
0.115698 -0.0555245 0.886151
0.113715 -0.0560174 0.884148
0.111886 -0.0566202 0.882539
0.110052 -0.0572109 0.880903
0.108314 -0.0578682 0.879506
0.106657 -0.0585836 0.87832
0.105063 -0.0593424 0.87729
0.103547 -0.0601592 0.876463
0.102183 -0.0610946 0.876039
0.100695 -0.0619263 0.875276
0.0991153 -0.0626786 0.874256
0.0975273 -0.0634188 0.873205
0.0960017 -0.0642055 0.872316
0.0944263 -0.0649457 0.871283
0.0928976 -0.0657201 0.87037
0.0914607 -0.0665681 0.869704
0.0901158 -0.0674919 0.869289
0.0887852 -0.0684256 0.86891
0.0875267 -0.0694201 0.86873
0.0863332 -0.0704708 0.86873
0.0853196 -0.0716811 0.86924
0.0842927 -0.0728815 0.869714
0.0832434 -0.0740637 0.870129
0.082211 -0.0752628 0.870594
0.0810688 -0.0763631 0.870746
0.0797409 -0.0772921 0.870363
0.0784347 -0.0782388 0.870039
0.0771665 -0.0792192 0.869822
0.0758809 -0.0801817 0.869553
0.0747164 -0.0812578 0.869635
0.0735518 -0.0823339 0.869717
0.0724174 -0.0834394 0.869889
0.0714018 -0.0846614 0.870414
0.0705168 -0.0860144 0.871332
0.069765 -0.087504 0.872657
0.0690484 -0.0890354 0.874098
0.0683474 -0.0905898 0.875598
0.0676308 -0.0921359 0.877062
0.0667956 -0.0935673 0.878176
0.0659033 -0.0949457 0.879125
0.0650585 -0.096378 0.880227
0.0641554 -0.0977545 0.881158
0.0631989 -0.0990792 0.88193
0.0622942 -0.100463 0.88287
0.126437 -0.0539081 0.894824
0.124651 -0.0545923 0.893412
0.122775 -0.0552024 0.891755
0.120835 -0.0557561 0.889918
0.118906 -0.0563102 0.888098
0.11695 -0.0568348 0.886194
0.114921 -0.0572941 0.884083
0.113014 -0.057837 0.882275
0.111103 -0.0583684 0.880444
0.10929 -0.0589682 0.87886
0.107564 -0.0596284 0.877493
0.105938 -0.0603616 0.876382
0.104423 -0.0611782 0.87556
0.103063 -0.0621169 0.87515
0.101542 -0.062921 0.8743
0.0999846 -0.0636908 0.873343
0.0984196 -0.0644494 0.872359
0.0968919 -0.0652341 0.871468
0.095355 -0.0660063 0.870545
0.0938898 -0.0668344 0.869811
0.092457 -0.0676864 0.86916
0.09108 -0.0685831 0.868659
0.0897445 -0.0695128 0.868269
0.0884814 -0.0705037 0.868077
0.0873188 -0.071582 0.868166
0.0863398 -0.0728238 0.868772
0.0853449 -0.0740539 0.869337
0.0843257 -0.0752645 0.869837
0.0832921 -0.0764639 0.870299
0.0821216 -0.0775397 0.870373
0.080763 -0.078441 0.869905
0.079424 -0.0793581 0.86949
0.0781213 -0.0803067 0.869175
0.076805 -0.0812403 0.868818
0.075612 -0.0822895 0.868817
0.0744474 -0.0833656 0.8689
0.0733417 -0.084499 0.869156
0.0723295 -0.0857246 0.86969
0.0714471 -0.0870806 0.870613
0.0706605 -0.088536 0.871828
0.0699353 -0.0900592 0.873238
0.0692004 -0.0915794 0.87463
0.0684896 -0.093131 0.876105
0.0676618 -0.0945701 0.877237
0.0668005 -0.0959801 0.878276
0.0659588 -0.0974157 0.879383
0.0650578 -0.0987945 0.880317
0.0641318 -0.100152 0.881181
0.0632837 -0.101596 0.882293
0.127294 -0.0549247 0.893804
0.125684 -0.0557371 0.892846
0.12396 -0.0564601 0.891588
0.122089 -0.0570666 0.88994
0.1202 -0.0576519 0.888233
0.11824 -0.0581743 0.886328
0.116202 -0.0586285 0.884206
0.114241 -0.0591316 0.882268
0.112221 -0.0595786 0.88016
0.110333 -0.0601198 0.878384
0.108503 -0.0606984 0.87675
0.106869 -0.061425 0.875623
0.105321 -0.0622155 0.874718
0.103965 -0.0631561 0.874318
0.102445 -0.0639613 0.873475
0.100917 -0.0647553 0.872603
0.0993531 -0.0655142 0.871625
0.0978583 -0.0663263 0.870828
0.0963844 -0.0671519 0.870081
0.0949538 -0.0680101 0.869447
0.0935502 -0.068888 0.868881
0.0921399 -0.0697568 0.868292
0.0907977 -0.0706818 0.867887
0.089504 -0.0716468 0.867613
0.0883429 -0.0727273 0.867707
0.0873711 -0.0739766 0.868333
0.0863771 -0.0752086 0.8689
0.0853547 -0.0764172 0.869391
0.0842867 -0.0775865 0.869756
0.0831133 -0.0786602 0.869822
0.0817537 -0.0795613 0.869354
0.0804159 -0.0804799 0.868945
0.0790828 -0.0814004 0.868546
0.0777616 -0.08233 0.868177
0.0765643 -0.0833754 0.868165
0.0754016 -0.0844539 0.868253
0.0743281 -0.0856188 0.868604
0.0733185 -0.0868478 0.869144
0.0724034 -0.0881725 0.869969
0.0715556 -0.0895678 0.870999
0.0707665 -0.0910269 0.872212
0.0699758 -0.0924904 0.87343
0.0692656 -0.0940419 0.8749
0.0684734 -0.0955166 0.876134
0.067649 -0.0969642 0.87728
0.0668403 -0.0984338 0.878483
0.0659961 -0.0998722 0.879587
0.0651004 -0.101262 0.88054
0.0642876 -0.102744 0.881758
0.128067 -0.0558784 0.892567
0.126664 -0.0568431 0.892144
0.125144 -0.057718 0.891415
0.12331 -0.0583532 0.889871
0.12146 -0.0589684 0.888273
0.119504 -0.0594958 0.88639
0.117456 -0.0599429 0.884252
0.115418 -0.0603875 0.882124
0.113351 -0.0607993 0.879904
0.111389 -0.0612829 0.877944
0.109514 -0.0618259 0.876198
0.107868 -0.0625428 0.875043
0.106279 -0.0633005 0.874035
0.104892 -0.0642168 0.873556
0.103407 -0.0650498 0.872809
0.101886 -0.0658489 0.871958
0.100327 -0.0666131 0.871001
0.0988714 -0.0674579 0.870313
0.0974312 -0.0683123 0.869662
0.0960007 -0.0691713 0.869032
0.0946249 -0.0700738 0.868547
0.0931828 -0.0709164 0.867875
0.0918029 -0.0718092 0.867369
0.0905042 -0.0727705 0.867084
0.0893447 -0.0738531 0.867183
0.0883529 -0.0750855 0.867752
0.0873605 -0.0763196 0.868323
0.0863304 -0.077522 0.868792
0.0852217 -0.0786547 0.869041
0.0840462 -0.0797268 0.869102
0.082718 -0.0806572 0.868726
0.0813877 -0.081583 0.868341
0.0800509 -0.0825007 0.867934
0.078723 -0.0834242 0.867548
0.0775209 -0.0844656 0.867524
0.0763612 -0.0855473 0.867622
0.0753218 -0.086746 0.868071
0.0743153 -0.0879789 0.868621
0.0733981 -0.0893023 0.869437
0.0724861 -0.0906346 0.870274
0.0716357 -0.0920328 0.871301
0.0708125 -0.0934633 0.872418
0.0700783 -0.0949901 0.873809
0.069288 -0.0964661 0.875043
0.0684973 -0.097948 0.876285
0.0677214 -0.0994515 0.877581
0.066886 -0.100899 0.878708
0.0659904 -0.102289 0.879658
0.0652088 -0.103804 0.880967
0.129201 -0.0570982 0.892254
0.127789 -0.0580567 0.891809
0.126302 -0.0589566 0.891168
0.124498 -0.0596154 0.889711
0.122718 -0.0602848 0.888302
0.120736 -0.0607937 0.886363
0.118684 -0.0612385 0.884225
0.116635 -0.0616755 0.88208
0.114526 -0.0620552 0.879761
0.112494 -0.0624841 0.877626
0.110606 -0.0630173 0.875855
0.108915 -0.0636994 0.87459
0.107285 -0.0644244 0.873477
0.105867 -0.0653157 0.872918
0.104381 -0.0661478 0.872171
0.102892 -0.0669746 0.871414
0.101398 -0.0677924 0.870634
0.0999498 -0.0686444 0.869972
0.0985439 -0.0695287 0.869419
0.0971145 -0.0703898 0.868797
0.0957355 -0.071291 0.868308
0.0942264 -0.0720766 0.867457
0.0928117 -0.07294 0.866859
0.0914739 -0.0738675 0.866468
0.0902844 -0.0749242 0.866485
0.0892596 -0.0761274 0.86696
0.0882663 -0.077361 0.867527
0.0872337 -0.0785613 0.867987
0.0861219 -0.0796913 0.868227
0.0849756 -0.0807902 0.86837
0.0836821 -0.0817528 0.868096
0.0823856 -0.0827108 0.86781
0.0810818 -0.0836601 0.8675
0.0797766 -0.084606 0.867183
0.0785724 -0.0856466 0.867155
0.0774143 -0.086731 0.867259
0.0763544 -0.087911 0.86765
0.0753188 -0.0891165 0.868114
0.074367 -0.0904067 0.868827
0.0734198 -0.0917046 0.869558
0.0725078 -0.0930414 0.8704
0.0716828 -0.0944701 0.871506
0.0709435 -0.0959918 0.872877
0.0701562 -0.0974707 0.874114
0.0693967 -0.0989847 0.875445
0.0686535 -0.100522 0.876835
0.0678501 -0.102004 0.878054
0.0669848 -0.103426 0.879094
0.0662619 -0.105005 0.880579
0.130334 -0.0583167 0.891931
0.128909 -0.059267 0.891459
0.127414 -0.0601619 0.890802
0.125718 -0.0609021 0.889627
0.123914 -0.061555 0.888167
0.121927 -0.0620599 0.886222
0.119866 -0.062499 0.884073
0.11784 -0.0629545 0.881997
0.115696 -0.0633083 0.879602
0.113697 -0.0637635 0.877562
0.111814 -0.0643018 0.875814
0.110113 -0.0649775 0.874532
0.108446 -0.0656735 0.873326
0.106985 -0.0665313 0.872659
0.105495 -0.0673614 0.871907
0.104034 -0.0682123 0.87123
0.102575 -0.0690603 0.870549
0.101155 -0.0699375 0.869968
0.0997795 -0.0708496 0.869503
0.0983454 -0.0717087 0.868875
0.0969352 -0.0725849 0.868306
0.0953878 -0.0733392 0.867357
0.0939346 -0.0741705 0.866659
0.0925563 -0.0750639 0.866161
0.091299 -0.0760617 0.865993
0.0902376 -0.0772331 0.866367
0.0892108 -0.0784372 0.866839
0.0881461 -0.0796088 0.867208
0.0870126 -0.0807191 0.867386
0.0858997 -0.0818487 0.867624
0.0846422 -0.0828449 0.867453
0.0833517 -0.0838088 0.867186
0.0820513 -0.0847617 0.866889
0.080774 -0.0857347 0.866654
0.0795717 -0.0867778 0.866633
0.0784162 -0.0878656 0.866746
0.0774131 -0.0891016 0.867301
0.0764043 -0.0903347 0.867843
0.0754507 -0.0916245 0.86855
0.0745002 -0.0929209 0.869272
0.073585 -0.0942559 0.870103
0.0727006 -0.0956261 0.871031
0.07193 -0.0971169 0.872305
0.0711119 -0.098565 0.873447
0.070349 -0.100076 0.874763
0.0696137 -0.101623 0.876172
0.0688131 -0.103108 0.877397
0.067952 -0.104535 0.878446
0.0672253 -0.106111 0.879913
0.0656653 -0.106728 0.882463
0.066659 -0.107867 0.881884
0.131415 -0.0594979 0.891476
0.129992 -0.06045 0.89101
0.128496 -0.061345 0.890356
0.126874 -0.0621415 0.889376
0.1251 -0.0628171 0.887997
0.123143 -0.0633463 0.886141
0.12111 -0.0638077 0.884075
0.119104 -0.0642803 0.882064
0.116995 -0.064662 0.879769
0.115005 -0.0651268 0.877767
0.113158 -0.065695 0.876122
0.111461 -0.0663759 0.874858
0.109784 -0.0670661 0.873636
0.108251 -0.0678678 0.872786
0.106754 -0.0686944 0.872023
0.105223 -0.0694888 0.871164
0.10373 -0.0703101 0.870399
0.102305 -0.0711851 0.869811
0.100961 -0.0721249 0.869435
0.0994915 -0.0729557 0.868717
0.0981063 -0.0738548 0.868221
0.0965534 -0.0746058 0.867264
0.095063 -0.0754062 0.86647
0.0936187 -0.0762429 0.865795
0.0922891 -0.0771775 0.865431
0.0911244 -0.0782573 0.865519
0.0900585 -0.0794263 0.865881
0.0889691 -0.0805752 0.86618
0.087843 -0.0816917 0.866378
0.0867664 -0.0828543 0.866715
0.0855689 -0.083906 0.866714
0.084281 -0.0848727 0.866457
0.0830121 -0.0858553 0.86625
0.081771 -0.0868631 0.866121
0.0806 -0.0879369 0.866191
0.0794745 -0.0890546 0.866392
0.0784985 -0.0903184 0.867025
0.077491 -0.0915542 0.867572
0.0765375 -0.0928458 0.868279
0.0755886 -0.0941451 0.869005
0.074648 -0.0954564 0.869761
0.0737621 -0.0968264 0.870683
0.0729619 -0.0982883 0.871866
0.0721395 -0.0997333 0.872993
0.0713491 -0.101217 0.874223
0.0705837 -0.102733 0.875538
0.0697577 -0.104192 0.876682
0.0688929 -0.105616 0.877716
0.0681413 -0.107165 0.879103
0.0676037 -0.108952 0.881153
0.130948 -0.0615392 0.89024
0.129462 -0.0624412 0.889613
0.127904 -0.0632862 0.8888
0.126178 -0.0639989 0.887552
0.124259 -0.064557 0.8858
0.122218 -0.0650125 0.883723
0.120249 -0.0655144 0.881817
0.118204 -0.0659462 0.879697
0.116287 -0.0664694 0.877894
0.114514 -0.0670991 0.876454
0.11282 -0.067784 0.875205
0.111135 -0.0684702 0.873972
0.109526 -0.0692124 0.872929
0.107984 -0.0700044 0.872056
0.10642 -0.0707732 0.871116
0.104955 -0.0716199 0.870433
0.103497 -0.0724687 0.869762
0.102146 -0.0734037 0.86937
0.100674 -0.0742342 0.868652
0.0992561 -0.0751069 0.868072
0.0977016 -0.0758578 0.867118
0.0962073 -0.0766562 0.866319
0.0947607 -0.0774922 0.865643
0.0933625 -0.0783676 0.865095
0.0921264 -0.0793846 0.864988
0.0909867 -0.0804878 0.865147
0.0898608 -0.081604 0.865344
0.0887068 -0.0826949 0.865463
0.0876347 -0.0838613 0.865812
0.0864669 -0.0849405 0.865895
0.0852069 -0.0859331 0.865717
0.0839686 -0.086945 0.865599
0.0827876 -0.0880102 0.865642
0.0816512 -0.0891181 0.865812
0.0805613 -0.0902712 0.866116
0.0795886 -0.0915398 0.866758
0.0785824 -0.0927784 0.867309
0.0776341 -0.0940767 0.868031
0.0766906 -0.0953832 0.868773
0.0757508 -0.0966969 0.869531
0.0748394 -0.0980428 0.870377
0.0740075 -0.0994739 0.871464
0.0731217 -0.100855 0.872401
0.0722997 -0.102307 0.873534
0.0715033 -0.103791 0.874752
0.0706473 -0.105219 0.875801
0.0697532 -0.106611 0.876744
0.0689643 -0.108121 0.878011
0.0683997 -0.109878 0.87997
0.131895 -0.0626216 0.889446
0.13038 -0.0635015 0.888748
0.128892 -0.064399 0.888115
0.127213 -0.0651474 0.886993
0.125368 -0.0657627 0.885438
0.123371 -0.0662525 0.883483
0.121476 -0.0668117 0.881773
0.119463 -0.0672707 0.879749
0.117608 -0.0678442 0.878116
0.11587 -0.0685035 0.876775
0.114173 -0.0691885 0.875529
0.112485 -0.0698751 0.874299
0.110861 -0.0706073 0.873225
0.109249 -0.0713435 0.872174
0.107643 -0.0720797 0.871131
0.106175 -0.0729254 0.870445
0.104716 -0.073775 0.869777
0.103364 -0.0747114 0.869388
0.101921 -0.0755686 0.868755
0.100501 -0.0764414 0.868175
0.098978 -0.0772215 0.867312
0.0975193 -0.0780533 0.866617
0.0960428 -0.0788656 0.865868
0.0945782 -0.0796843 0.865145
0.0932674 -0.0806367 0.864837
0.0920516 -0.0816728 0.864788
0.0908581 -0.0827285 0.864799
0.089701 -0.0838174 0.864911
0.0886291 -0.084985 0.865261
0.0874587 -0.0860623 0.865337
0.0861945 -0.0870516 0.86515
0.0849855 -0.0880917 0.865116
0.0838706 -0.0892207 0.865347
0.0827764 -0.0903705 0.865639
0.0817469 -0.0915838 0.866117
0.0808038 -0.0928835 0.866846
0.0798004 -0.0941273 0.867406
0.0787949 -0.0953715 0.867965
0.0778775 -0.096706 0.868782
0.0769399 -0.0980241 0.869547
0.0759979 -0.0993414 0.870304
0.0751379 -0.100746 0.871309
0.0742169 -0.102093 0.87214
0.0733284 -0.103478 0.873074
0.0724722 -0.1049 0.874112
0.0715801 -0.106291 0.87505
0.0706522 -0.107647 0.875887
0.069834 -0.109126 0.877062
0.0692386 -0.11085 0.87892
0.131237 -0.0645164 0.887731
0.129834 -0.0654778 0.887316
0.128176 -0.0662415 0.886249
0.126437 -0.0669378 0.88497
0.12452 -0.0674892 0.883226
0.122667 -0.068083 0.881636
0.120722 -0.0685951 0.879793
0.118929 -0.0692201 0.878331
0.117185 -0.0698765 0.876984
0.115489 -0.0705643 0.875749
0.113826 -0.0712722 0.87459
0.112163 -0.0719751 0.873424
0.11054 -0.0727044 0.872352
0.108896 -0.073411 0.871217
0.107395 -0.0742313 0.87045
0.105936 -0.0750824 0.869788
0.104582 -0.0760193 0.869399
0.103168 -0.076903 0.868848
0.101752 -0.0777811 0.868285
0.100294 -0.0786206 0.867607
0.0988676 -0.0794829 0.867006
0.0973943 -0.0803007 0.866273
0.0958659 -0.0810656 0.865383
0.0944803 -0.0819534 0.864877
0.093189 -0.0829236 0.864625
0.0919235 -0.0839154 0.86444
0.0907366 -0.084978 0.864472
0.0896348 -0.0861191 0.864739
0.0884608 -0.0871937 0.864806
0.0871621 -0.0881513 0.864525
0.0859539 -0.0891928 0.864495
0.0848798 -0.0903612 0.864841
0.0838533 -0.0915768 0.865325
0.0828939 -0.0928594 0.866003
0.082009 -0.0942178 0.866898
0.0810272 -0.0954851 0.867522
0.0800163 -0.0967265 0.868066
0.0790969 -0.0980616 0.868879
0.0781558 -0.0993788 0.869635
0.0771835 -0.100668 0.870305
0.0762589 -0.102009 0.87112
0.0752721 -0.10329 0.871758
0.0742909 -0.10458 0.872417
0.0733671 -0.105932 0.873251
0.0724182 -0.107263 0.874016
0.0714599 -0.108587 0.87476
0.0706125 -0.110033 0.875841
0.0700111 -0.11175 0.877671
0.0687361 -0.112685 0.881075
0.0694799 -0.113553 0.879729
0.132118 -0.0655496 0.886778
0.130707 -0.0665035 0.88634
0.12915 -0.0673441 0.885533
0.127498 -0.0681065 0.884478
0.125698 -0.0687493 0.88304
0.123856 -0.0693526 0.881486
0.121975 -0.0699166 0.879818
0.120175 -0.070537 0.878346
0.118428 -0.071192 0.876998
0.116699 -0.0718552 0.875687
0.115067 -0.0725899 0.874616
0.113401 -0.0732914 0.873448
0.11174 -0.0739918 0.872287
0.110094 -0.0746981 0.871154
0.108617 -0.0755398 0.870456
0.107125 -0.0763652 0.869713
0.105739 -0.0772766 0.869244
0.104358 -0.0781893 0.868784
0.102941 -0.0790687 0.868225
0.101486 -0.0799114 0.867558
0.100096 -0.0808076 0.86706
0.0986511 -0.0816529 0.866412
0.0971164 -0.0824143 0.865513
0.0956892 -0.0832671 0.864899
0.0943578 -0.084203 0.864542
0.0930555 -0.0851632 0.864261
0.0918411 -0.0862021 0.864219
0.0906799 -0.0872897 0.864324
0.0894713 -0.0883332 0.864296
0.0881614 -0.089281 0.863986
0.0869808 -0.0903491 0.864035
0.0859465 -0.0915566 0.864494
0.0849942 -0.0928448 0.865187
0.0841004 -0.0941927 0.866051
0.0832425 -0.0955797 0.867023
0.0822324 -0.0968219 0.867568
0.0812157 -0.09806 0.868097
0.0802646 -0.0993658 0.868819
0.0792885 -0.10065 0.869475
0.0782861 -0.10191 0.870058
0.0773268 -0.103218 0.870771
0.0762746 -0.104433 0.871217
0.0752226 -0.10565 0.871668
0.0742341 -0.106935 0.872308
0.0732514 -0.10823 0.87297
0.0722683 -0.109528 0.873636
0.0713957 -0.110946 0.874637
0.0707657 -0.112631 0.876373
0.0701986 -0.114394 0.878312
0.132989 -0.0665742 0.885797
0.131566 -0.0675191 0.885333
0.130097 -0.0684257 0.884747
0.128498 -0.0692295 0.883832
0.126809 -0.0699578 0.882679
0.125001 -0.0705882 0.881219
0.123156 -0.0711814 0.879651
0.121386 -0.0718265 0.878264
0.119639 -0.0724828 0.876924
0.117903 -0.0731413 0.875602
0.116239 -0.0738519 0.874457
0.114603 -0.0745794 0.873375
0.112915 -0.0752579 0.872148
0.111295 -0.0759873 0.871091
0.109818 -0.0768308 0.870399
0.108351 -0.0776786 0.869727
0.106961 -0.0785889 0.869254
0.10564 -0.0795556 0.86896
0.104225 -0.0804381 0.86841
0.102802 -0.0813114 0.867836
0.101438 -0.082233 0.867415
0.0999901 -0.0830784 0.866765
0.0984504 -0.0838379 0.865861
0.0970195 -0.0846902 0.865245
0.0956547 -0.0855986 0.864802
0.0943188 -0.0865309 0.864435
0.0930709 -0.0875416 0.864306
0.0918444 -0.0885711 0.864234
0.0905683 -0.0895534 0.864023
0.0892187 -0.0904653 0.863607
0.0880352 -0.0915317 0.863649
0.0870643 -0.0928009 0.864286
0.0861541 -0.0941314 0.865097
0.0853262 -0.0955451 0.866147
0.0845043 -0.0969698 0.86722
0.0834895 -0.0982101 0.867754
0.0824154 -0.0993942 0.868123
0.081432 -0.10067 0.868753
0.0803967 -0.101897 0.869238
0.0793273 -0.103091 0.869629
0.0783048 -0.104335 0.870157
0.0771892 -0.105485 0.870419
0.0761007 -0.106665 0.870761
0.0751076 -0.107945 0.871385
0.0741233 -0.109238 0.87204
0.0731442 -0.110539 0.872715
0.0723018 -0.11199 0.873801
0.0716452 -0.113647 0.875451
0.0710165 -0.115342 0.877197
0.0698846 -0.116443 0.881032
0.0706071 -0.117287 0.879618
0.131016 -0.0694865 0.883893
0.12946 -0.0703222 0.883086
0.127871 -0.0711287 0.882192
0.126114 -0.0717988 0.880866
0.124337 -0.0724462 0.879479
0.122566 -0.0730919 0.878098
0.120816 -0.0737467 0.876757
0.119044 -0.0743776 0.875352
0.11737 -0.0750812 0.874188
0.115732 -0.075808 0.873108
0.114045 -0.0764882 0.87189
0.112431 -0.0772233 0.870853
0.11095 -0.0780642 0.870155
0.109513 -0.0789391 0.869569
0.108123 -0.0798508 0.8691
0.106834 -0.0808459 0.868892
0.10548 -0.081784 0.868512
0.104088 -0.0826861 0.868026
0.102722 -0.0836082 0.867605
0.10127 -0.0844524 0.866952
0.0997272 -0.0852112 0.866046
0.0982715 -0.0860435 0.865369
0.0969075 -0.086955 0.864935
0.0955685 -0.0878867 0.864565
0.0943092 -0.0888892 0.864409
0.0930446 -0.0898858 0.864236
0.0917284 -0.0908328 0.86392
0.090342 -0.0917117 0.863406
0.0891543 -0.0927759 0.863439
0.088188 -0.0940512 0.864089
0.0872832 -0.0953884 0.864915
0.0864887 -0.0968366 0.866057
0.085669 -0.0982655 0.867136
0.0846244 -0.0994786 0.867587
0.0835229 -0.100637 0.867879
0.082532 -0.101907 0.868488
0.0814635 -0.103102 0.868879
0.0803599 -0.104263 0.869172
0.0793031 -0.105473 0.869601
0.0781535 -0.106589 0.869764
0.0770082 -0.10771 0.86994
0.0759862 -0.10896 0.870478
0.0750025 -0.110253 0.871132
0.0740547 -0.111588 0.871896
0.0732483 -0.113077 0.873085
0.0726232 -0.114768 0.874822
0.0719646 -0.116432 0.876474
0.0714861 -0.118301 0.878678
0.0702166 -0.119265 0.882116
0.0709686 -0.12014 0.880783
0.131935 -0.0705468 0.883037
0.130368 -0.0713739 0.882207
0.128878 -0.072257 0.881564
0.127193 -0.0729835 0.880426
0.125525 -0.0737178 0.879322
0.123758 -0.0743674 0.877957
0.122031 -0.0750419 0.876683
0.120214 -0.0756378 0.875172
0.11853 -0.0763338 0.873988
0.116861 -0.0770363 0.872834
0.115167 -0.0777121 0.871606
0.113584 -0.0784743 0.870657
0.112135 -0.0793431 0.870047
0.110704 -0.0802246 0.869481
0.109349 -0.0811679 0.869109
0.10813 -0.082225 0.86909
0.10678 -0.0831691 0.868726
0.105389 -0.0840746 0.868249
0.10399 -0.0849698 0.867745
0.102531 -0.0858096 0.867078
0.100954 -0.0865402 0.866089
0.0994955 -0.0873722 0.865411
0.0981357 -0.0882895 0.864994
0.0968252 -0.0892494 0.864706
0.0955296 -0.090221 0.864456
0.0942567 -0.0912119 0.864265
0.0929317 -0.0921529 0.86393
0.091545 -0.0930336 0.863421
0.0903257 -0.0940699 0.86337
0.0893577 -0.0953456 0.864015
0.0884507 -0.0966828 0.864836
0.0876267 -0.0981045 0.865894
0.0867438 -0.0994737 0.866794
0.0856662 -0.100656 0.867152
0.0845526 -0.101803 0.86741
0.0835046 -0.103017 0.867857
0.0823731 -0.104149 0.868067
0.0812347 -0.105275 0.868259
0.0801708 -0.106477 0.868667
0.0789924 -0.107563 0.868745
0.0778808 -0.108719 0.869018
0.0768938 -0.110006 0.869656
0.0759456 -0.111336 0.870411
0.0750259 -0.112701 0.871256
0.0742531 -0.114227 0.87254
0.0736102 -0.1159 0.874219
0.0729254 -0.117536 0.875787
0.0724098 -0.119365 0.877872
0.0717925 -0.121094 0.87967
0.131245 -0.0724019 0.881252
0.129874 -0.0733766 0.880907
0.12825 -0.0741515 0.879928
0.12664 -0.0749315 0.878973
0.124917 -0.0756168 0.877727
0.123219 -0.0763158 0.876535
0.121353 -0.0768734 0.874908
0.119629 -0.0775379 0.873629
0.117985 -0.0782614 0.872545
0.116293 -0.0789397 0.871329
0.11474 -0.0797274 0.870462
0.113323 -0.080625 0.869941
0.111928 -0.0815383 0.869473
0.110581 -0.0824904 0.869127
0.109399 -0.0835816 0.869209
0.108052 -0.0845303 0.868858
0.106662 -0.085439 0.868389
0.105261 -0.0863346 0.867886
0.103794 -0.0871694 0.867204
0.102208 -0.0878948 0.866201
0.100777 -0.0887527 0.8656
0.0994138 -0.0896698 0.86518
0.0981045 -0.0906332 0.864901
0.0968085 -0.091607 0.864655
0.0955348 -0.0925997 0.864467
0.094183 -0.0935182 0.864064
0.0927937 -0.0943988 0.863554
0.0915445 -0.0954092 0.863425
0.0905419 -0.0966541 0.863976
0.0895939 -0.0979541 0.864682
0.0887337 -0.0993425 0.865638
0.0877835 -0.100648 0.86635
0.0866676 -0.101793 0.866601
0.0855121 -0.1029 0.866741
0.0844306 -0.104081 0.867092
0.0832705 -0.105184 0.867221
0.0821318 -0.106309 0.867411
0.0810665 -0.10751 0.867813
0.0798849 -0.108593 0.867883
0.0788087 -0.109785 0.868257
0.0778292 -0.11108 0.868914
0.0769116 -0.112443 0.869757
0.076027 -0.113846 0.870701
0.0752877 -0.115409 0.872081
0.0746229 -0.117059 0.87369
0.073938 -0.118696 0.875253
0.0733631 -0.120461 0.877154
0.0726829 -0.12212 0.878757
0.130819 -0.074457 0.880122
0.129295 -0.0753102 0.879397
0.127764 -0.0761532 0.878646
0.126057 -0.0768526 0.877448
0.124402 -0.0775867 0.87637
0.122491 -0.078108 0.874635
0.120733 -0.0787461 0.873278
0.119057 -0.0794439 0.872118
0.117399 -0.0801504 0.870994
0.11584 -0.0809346 0.870119
0.114424 -0.0818342 0.869605
0.113064 -0.082778 0.869231
0.11172 -0.0837338 0.868896
0.110571 -0.0848547 0.869066
0.109254 -0.0858312 0.868798
0.107894 -0.0867677 0.868413
0.106488 -0.0876616 0.867904
0.10502 -0.0884974 0.867225
0.103423 -0.0892139 0.866197
0.101985 -0.0900686 0.865587
0.100621 -0.0909858 0.865167
0.0993151 -0.0919547 0.864903
0.0980554 -0.092964 0.864759
0.0968144 -0.0939895 0.864665
0.0954637 -0.0949113 0.86427
0.0940786 -0.0957985 0.863778
0.0927954 -0.0967792 0.863561
0.0917509 -0.0979868 0.863999
0.0907317 -0.0992205 0.864509
0.0898037 -0.100545 0.865276
0.0887588 -0.101759 0.865723
0.0876304 -0.102892 0.865939
0.0864403 -0.103965 0.865983
0.0853282 -0.105116 0.866246
0.0841705 -0.106222 0.866382
0.0830615 -0.107377 0.866656
0.0819668 -0.108548 0.866974
0.0808172 -0.109664 0.867135
0.0797739 -0.11089 0.867603
0.0788286 -0.112222 0.868357
0.0779481 -0.113625 0.869305
0.0771192 -0.115087 0.87041
0.0764118 -0.116686 0.87188
0.0757787 -0.118372 0.873578
0.0750959 -0.120013 0.875144
0.0744894 -0.121746 0.876948
0.073748 -0.12334 0.878366
0.130238 -0.0763883 0.878608
0.128783 -0.0772919 0.878052
0.127108 -0.0780162 0.876937
0.125485 -0.0787774 0.875948
0.123632 -0.0793458 0.874367
0.12187 -0.0799811 0.873006
0.12016 -0.0806524 0.871768
0.118503 -0.0813609 0.870654
0.116947 -0.082148 0.869791
0.115529 -0.0830473 0.869277
0.114163 -0.0839873 0.868891
0.112814 -0.0849391 0.868544
0.111662 -0.086059 0.868708
0.110372 -0.08706 0.868515
0.109013 -0.087998 0.868134
0.107639 -0.0889219 0.867715
0.106173 -0.0897603 0.867046
0.104575 -0.0904775 0.866022
0.103103 -0.0913026 0.865325
0.101734 -0.092218 0.864901
0.100431 -0.0931899 0.864645
0.0992031 -0.09423 0.86459
0.0979975 -0.0952899 0.864594
0.0966809 -0.0962457 0.864297
0.0953213 -0.0971588 0.86388
0.093972 -0.0980791 0.863486
0.0928563 -0.0992206 0.86373
0.0917961 -0.100416 0.864129
0.0907723 -0.101649 0.86463
0.0896353 -0.102773 0.864821
0.0885033 -0.103903 0.865025
0.087312 -0.104974 0.865066
0.0861741 -0.106099 0.865255
0.0850504 -0.107239 0.865486
0.084003 -0.108456 0.865934
0.0829425 -0.109663 0.866348
0.0818278 -0.110815 0.86661
0.0808145 -0.112074 0.867163
0.0799 -0.113438 0.868005
0.0790497 -0.114875 0.869039
0.0782561 -0.116377 0.870245
0.0775562 -0.117985 0.871732
0.0769212 -0.119671 0.873422
0.0762358 -0.121312 0.874977
0.0755682 -0.12298 0.876596
0.0747651 -0.124507 0.877828
0.129789 -0.0784204 0.877423
0.128095 -0.0791295 0.876267
0.126474 -0.0798924 0.875287
0.124672 -0.080502 0.873841
0.12294 -0.0811622 0.872563
0.121294 -0.0818867 0.871493
0.119667 -0.082621 0.870462
0.118142 -0.0834356 0.869684
0.116723 -0.0843353 0.869171
0.115389 -0.0853035 0.86887
0.114033 -0.0862516 0.868511
0.112841 -0.0873392 0.868576
0.111514 -0.0883096 0.868288
0.110155 -0.0892493 0.867913
0.108757 -0.0901532 0.867434
0.107261 -0.0909663 0.866691
0.105661 -0.091683 0.86567
0.104184 -0.0925043 0.864964
0.102787 -0.0933951 0.864467
0.10148 -0.094364 0.864203
0.100282 -0.0954333 0.864232
0.0991071 -0.0965226 0.86432
0.0977912 -0.0974803 0.864029
0.0964333 -0.0983964 0.86362
0.0950435 -0.0992797 0.863121
0.0938584 -0.100356 0.863176
0.0927294 -0.101486 0.863385
0.0916399 -0.102655 0.863704
0.0904699 -0.103747 0.863803
0.0893389 -0.104877 0.864009
0.0881844 -0.105985 0.864151
0.0870547 -0.107117 0.864363
0.0859626 -0.108288 0.864682
0.0849773 -0.109569 0.865304
0.0839533 -0.110814 0.86582
0.0828768 -0.112006 0.866191
0.0819253 -0.11333 0.866921
0.0810717 -0.11476 0.867936
0.0802232 -0.116201 0.868975
0.0794683 -0.117746 0.870291
0.0787982 -0.119389 0.871863
0.0781397 -0.121053 0.873482
0.077423 -0.122662 0.874943
0.0767196 -0.124293 0.876454
0.0758503 -0.125749 0.877488
0.128916 -0.08011 0.875182
0.127276 -0.0808563 0.874157
0.125563 -0.0815374 0.872939
0.123868 -0.0822272 0.871759
0.122292 -0.0830092 0.87087
0.120725 -0.0837933 0.869995
0.119237 -0.0846391 0.869315
0.117821 -0.0855428 0.868815
0.116521 -0.086541 0.868605
0.11513 -0.0874606 0.86816
0.113867 -0.0884885 0.868044
0.112538 -0.0894573 0.867753
0.111175 -0.0903947 0.867371
0.109783 -0.0913037 0.86691
0.108284 -0.0921153 0.866165
0.106715 -0.0928593 0.865228
0.105228 -0.0936728 0.864501
0.103798 -0.0945336 0.863918
0.102488 -0.0955015 0.863651
0.10132 -0.0965979 0.863759
0.100148 -0.097692 0.863859
0.0988016 -0.0986215 0.863487
0.0974401 -0.0995348 0.863071
0.0960137 -0.100384 0.862476
0.0947619 -0.101397 0.862351
0.0935647 -0.102461 0.862373
0.092438 -0.103594 0.862589
0.0912651 -0.104682 0.862678
0.0901382 -0.105815 0.862894
0.0890212 -0.106959 0.863139
0.0879271 -0.108127 0.863449
0.0868965 -0.10936 0.863938
0.0859761 -0.110707 0.86474
0.0849922 -0.111994 0.865369
0.0839855 -0.113259 0.865938
0.0830687 -0.114621 0.866767
0.0822453 -0.116085 0.867867
0.0814315 -0.117564 0.869004
0.0807395 -0.119178 0.8705
0.0800816 -0.120837 0.872106
0.0794532 -0.122536 0.87381
0.0787284 -0.12414 0.875246
0.0779622 -0.125706 0.876573
0.0797736 -0.130122 0.885482
0.126447 -0.0825668 0.87202
0.124784 -0.0832819 0.870923
