ply
format ascii 1.0
element vertex 1715
property float x
property float y
property float z
end_header
0.113425 0.019852 0.517714
0.115275 0.01943 0.522983
0.116673 0.0189149 0.52615
0.117833 0.0183514 0.528215
0.118668 0.0177296 0.528802
0.11956 0.0171148 0.529637
0.120467 0.0164997 0.530528
0.121376 0.0158822 0.531417
0.122261 0.0152586 0.532186
0.12302 0.0146164 0.532402
0.123714 0.0139653 0.532336
0.124408 0.013314 0.532268
0.125027 0.0126543 0.531882
0.133539 0.0090943 0.54941
0.134115 0.00841084 0.548762
0.134719 0.0077311 0.548233
0.135197 0.00704404 0.547199
0.13579 0.00636601 0.546636
0.136415 0.00569116 0.546207
0.137009 0.00501529 0.545661
0.13763 0.00434231 0.545222
0.138307 0.00367199 0.545012
0.138966 0.00300111 0.544729
0.139737 0.0023341 0.544889
0.140621 0.00166898 0.545485
0.141501 0.00100276 0.546058
0.142378 0.000334057 0.546614
0.143299 -0.000335446 0.547333
0.144175 -0.00100684 0.547871
0.145061 -0.00168032 0.548438
0.146017 -0.00235526 0.549267
0.147 -0.00303271 0.550185
0.147837 -0.00371061 0.55055
0.148636 -0.00438948 0.550769
0.149288 -0.00506534 0.550436
0.0889514 0.0409542 0.507222
0.0896246 0.0403471 0.507257
0.0902484 0.0397176 0.507015
0.0908714 0.0390884 0.50677
0.0914764 0.038452 0.506429
0.0920472 0.0378023 0.505904
0.0925944 0.0371446 0.505257
0.0931366 0.0364866 0.504591
0.0936657 0.0358255 0.503863
0.0941785 0.0351604 0.503057
0.094739 0.0345152 0.502512
0.0953223 0.0338796 0.502093
0.0959162 0.0332488 0.501732
0.0965091 0.0326186 0.501371
0.0971276 0.0319978 0.501144
0.0977267 0.0313711 0.50082
0.0983378 0.0307489 0.500559
0.098959 0.0301304 0.500353
0.0996007 0.0295185 0.500249
0.100265 0.0289132 0.500258
0.100964 0.0283179 0.50044
0.10169 0.0277289 0.500746
0.102426 0.0271418 0.501101
0.103195 0.0265617 0.501603
0.103956 0.025978 0.502065
0.104698 0.025388 0.50243
0.105429 0.0247936 0.502733
0.106111 0.0241866 0.502803
0.106745 0.0235681 0.502644
0.107376 0.0229489 0.50247
0.10819 0.0223697 0.503147
0.1095 0.0218924 0.506109
0.111181 0.0214816 0.510736
0.113111 0.0211062 0.516446
0.115018 0.0207099 0.521981
0.116687 0.0202541 0.526379
0.11787 0.0196994 0.528545
0.118815 0.0190976 0.529623
0.119624 0.0184701 0.530081
0.120491 0.0178503 0.530792
0.121364 0.0172291 0.53152
0.122237 0.0166057 0.532239
0.12307 0.0159745 0.532777
0.123817 0.0153299 0.532933
0.12448 0.0146737 0.532728
0.134475 0.00983169 0.550386
0.135025 0.00914422 0.549626
0.135541 0.00845545 0.548738
0.13601 0.00776585 0.547665
0.136575 0.0070848 0.54699
0.1372 0.0064091 0.546562
0.137795 0.00573189 0.546016
0.1384 0.00505661 0.545515
0.139065 0.00438496 0.545255
0.139721 0.0037135 0.544961
0.140508 0.00304681 0.545176
0.141412 0.00238257 0.545844
0.142329 0.00171708 0.546557
0.143265 0.00105014 0.547331
0.144225 0.000381061 0.548188
0.145106 -0.000290931 0.548738
0.145995 -0.00096449 0.54931
0.146952 -0.00164012 0.550133
0.147906 -0.00231721 0.550933
0.148739 -0.00299602 0.551275
0.149522 -0.00367467 0.551427
0.150133 -0.00435202 0.550943
0.0902372 0.0410103 0.507172
0.0908729 0.0403859 0.506996
0.0914997 0.0397579 0.506772
0.0921109 0.0391237 0.506465
0.0926989 0.0384804 0.506034
0.0932697 0.0378313 0.505516
0.0938127 0.0371725 0.504855
0.0943431 0.0365106 0.504135
0.0948525 0.0358429 0.503312
0.0954114 0.0351959 0.502758
0.0959828 0.034555 0.502276
0.096568 0.0339203 0.50187
0.0971597 0.0332889 0.501502
0.0977791 0.0326677 0.501278
0.0983704 0.0320377 0.500914
0.0989827 0.0314153 0.500658
0.0996039 0.0307962 0.50045
0.100254 0.0301865 0.500389
0.10094 0.0295873 0.500501
0.101665 0.0289988 0.500802
0.102414 0.0284163 0.50122
0.103176 0.0278355 0.501689
0.103945 0.0272551 0.50219
0.104706 0.0266706 0.502641
0.10545 0.0260802 0.503006
0.106171 0.0254828 0.503259
0.106844 0.0248727 0.503279
0.107478 0.0242529 0.503113
0.108335 0.0236844 0.503988
0.109425 0.0231644 0.505926
0.111024 0.0227479 0.510181
0.114957 0.022025 0.521868
0.116641 0.0215832 0.526338
0.118061 0.0210786 0.529566
0.119016 0.0204798 0.530681
0.119746 0.0198383 0.530787
0.120541 0.019207 0.531173
0.12138 0.0185816 0.531748
0.122238 0.0179576 0.532404
0.123087 0.0173299 0.533007
0.123914 0.0166971 0.533507
0.124671 0.0160529 0.533703
0.125352 0.0153977 0.533568
0.135491 0.0105789 0.551675
0.135993 0.00988446 0.550719
0.136426 0.00918694 0.549489
0.136862 0.0084925 0.548288
0.13741 0.00780844 0.54754
0.138006 0.00712948 0.546994
0.138598 0.00645092 0.546437
0.139188 0.00577375 0.545875
0.139854 0.00510109 0.545614
0.140496 0.00442781 0.545265
0.141314 0.00376218 0.545597
0.14224 0.00309927 0.546343
0.143183 0.0024344 0.547145
0.144161 0.00176824 0.548075
0.145162 0.0011002 0.549077
0.146049 0.000427718 0.549643
0.146951 -0.000246348 0.550253
0.147908 -0.000921616 0.551065
0.148825 -0.00159919 0.551719
0.14964 -0.00227865 0.551988
0.150402 -0.00295843 0.552056
0.152038 -0.0036482 0.555333
0.0921415 0.0404336 0.506845
0.0927652 0.0398041 0.506605
0.093375 0.0391694 0.506293
0.0939709 0.0385295 0.505908
0.094527 0.0378745 0.505316
0.0950478 0.0372073 0.504544
0.0955447 0.036533 0.503656
0.0960727 0.0358731 0.502941
0.0966225 0.0352232 0.502347
0.0972066 0.0345875 0.501935
0.0977989 0.0339556 0.50157
0.0984202 0.0333346 0.501355
0.0990216 0.0327073 0.501042
0.0996346 0.0320845 0.500789
0.100258 0.0314653 0.500588
0.100931 0.0308624 0.500639
0.101641 0.03027 0.500866
0.10239 0.0296882 0.501278
0.103165 0.0291125 0.501813
0.10394 0.0285347 0.502339
0.104711 0.0279542 0.502839
0.105473 0.0273692 0.503287
0.106217 0.026778 0.503645
0.10693 0.0261775 0.50385
0.107604 0.0255667 0.503873
0.108237 0.0249456 0.5037
0.109316 0.0244284 0.505591
0.1107 0.0239742 0.508856
0.112584 0.0236197 0.514366
0.116534 0.0228999 0.526018
0.117979 0.0224088 0.52936
0.119137 0.0218525 0.531384
0.11988 0.0212126 0.531542
0.120609 0.0205695 0.531634
0.121388 0.0199347 0.531947
0.122199 0.019304 0.532391
0.123031 0.0186751 0.532919
0.123866 0.0180451 0.533458
0.124699 0.0174129 0.533976
0.125488 0.0167727 0.534301
0.136124 0.0120408 0.554406
0.136526 0.0113317 0.55303
0.137006 0.0106323 0.551979
0.137377 0.00992625 0.550497
0.137793 0.00922724 0.549212
0.138306 0.00853841 0.548324
0.138866 0.00785493 0.547633
0.139456 0.00717513 0.547065
0.140015 0.00649413 0.546379
0.14065 0.0058187 0.545996
0.141275 0.00514389 0.545579
0.14211 0.00447873 0.545973
0.143042 0.00381593 0.546735
0.144026 0.00315314 0.547687
0.145058 0.00248924 0.548812
0.146094 0.00182179 0.549937
0.146985 0.00114908 0.550508
0.147871 0.000474331 0.551051
0.148793 -0.000201591 0.551722
0.149656 -0.000879403 0.552169
0.150453 -0.00155905 0.552366
0.151183 -0.00223958 0.552311
0.0934017 0.0404775 0.506645
0.0940344 0.0398519 0.506454
0.0946419 0.039216 0.506131
0.095214 0.0385664 0.505624
0.0957432 0.0379011 0.504897
0.0962303 0.0372215 0.50396
0.096735 0.0365513 0.503124
0.0972724 0.0358959 0.502467
0.0978451 0.0352551 0.501997
0.0984384 0.0346229 0.501637
0.0990609 0.0340018 0.501427
0.0996822 0.0333806 0.501213
0.100305 0.0327605 0.50101
0.10095 0.0321476 0.500914
0.101639 0.0315488 0.501036
0.102364 0.0309607 0.501333
0.103128 0.0303828 0.501811
0.103916 0.0298103 0.502399
0.104682 0.0292295 0.502875
0.105446 0.0286462 0.503332
0.106209 0.0280609 0.503777
0.106943 0.0274666 0.504084
0.107646 0.0268629 0.504237
0.108331 0.0262539 0.504303
0.108976 0.0256347 0.504182
0.110299 0.0251762 0.507177
0.111979 0.024791 0.511768
0.11592 0.0241056 0.523409
0.117826 0.0237237 0.528839
0.119007 0.0231779 0.530968
0.119918 0.0225723 0.531872
0.120673 0.0219339 0.532076
0.121401 0.02129 0.532163
0.122168 0.0206523 0.532414
0.122964 0.0200186 0.532788
0.123771 0.0193855 0.533202
0.124594 0.0187534 0.533678
0.125435 0.0181227 0.53423
0.126252 0.0174864 0.534667
0.127016 0.0168412 0.534879
0.137362 0.0128219 0.556571
0.137672 0.0120984 0.554815
0.138062 0.0113872 0.553394
0.138385 0.0106733 0.551723
0.138765 0.00996831 0.550292
0.139229 0.0092732 0.549209
0.139767 0.00858581 0.548428
0.140338 0.00790241 0.547781
0.140895 0.00721977 0.547085
0.141561 0.00654493 0.546819
0.142232 0.00587031 0.546575
0.143072 0.00520459 0.54698
0.144008 0.0045419 0.547747
0.144992 0.00387866 0.548687
0.145992 0.00321317 0.549678
0.146984 0.00254512 0.550628
0.147858 0.00187152 0.551126
0.148712 0.00119577 0.551546
0.149601 0.000519498 0.552088
0.150433 -0.000158646 0.552413
0.151228 -0.00083838 0.552598
0.153004 -0.0015166 0.556368
0.0946832 0.0405303 0.506555
0.0952846 0.0398912 0.5062
0.0958557 0.0392404 0.505688
0.0963797 0.0385721 0.504937
0.0968679 0.0378918 0.504008
0.0973397 0.0372079 0.503007
0.0978649 0.0365473 0.50229
0.0984245 0.0359013 0.501756
0.0990205 0.0352699 0.501411
0.0996534 0.0346524 0.501254
0.100295 0.0340382 0.501142
0.100938 0.0334244 0.501037
0.101615 0.0328219 0.5011
0.102339 0.032234 0.501389
0.103091 0.0316535 0.501808
0.103867 0.031079 0.50234
0.104665 0.0305089 0.502967
0.105432 0.0299276 0.503438
0.106187 0.0293411 0.503844
0.106941 0.028753 0.504243
0.107676 0.0281582 0.504545
0.108368 0.0275506 0.504638
0.109043 0.0269384 0.504656
0.109919 0.0263758 0.505596
0.111501 0.0259807 0.509749
0.117411 0.0249785 0.527139
0.119061 0.0245413 0.531372
0.120003 0.023944 0.532414
0.120692 0.0232922 0.532322
0.121448 0.0226534 0.532525
0.122177 0.0220089 0.532612
0.122933 0.0213686 0.532808
0.123705 0.0207303 0.533071
0.124499 0.0200947 0.533424
0.125323 0.0194628 0.533902
0.126187 0.0188358 0.534542
0.127037 0.0182046 0.535119
0.128153 0.0176108 0.536801
0.129437 0.0170359 0.539165
0.138454 0.0135921 0.558119
0.138786 0.0128671 0.556452
0.139118 0.0121459 0.554797
0.139425 0.0114265 0.553059
0.139767 0.0107144 0.551477
0.140195 0.0100135 0.550249
0.140686 0.00932001 0.549278
0.141257 0.00863512 0.548631
0.14183 0.00795133 0.547996
0.142531 0.00727682 0.547859
0.143238 0.00660272 0.547749
0.144098 0.00593687 0.54822
0.145003 0.0052716 0.548858
0.145968 0.00460736 0.549714
0.146914 0.00393997 0.550492
0.147853 0.00326986 0.551235
0.148678 0.00259439 0.551543
0.149533 0.00191888 0.551957
0.150375 0.00124188 0.552321
0.151173 0.000562823 0.552517
0.15297 -0.000106013 0.556364
0.0953367 0.0412112 0.506678
0.0959232 0.040565 0.506243
0.0964788 0.0399071 0.505652
0.0969723 0.0392256 0.504746
0.0974518 0.0385411 0.503778
0.0979141 0.0378529 0.502733
0.0984421 0.0371928 0.502035
0.0989909 0.0365426 0.501449
0.0995967 0.0359147 0.501156
0.100232 0.0352981 0.50101
0.100896 0.0346919 0.501012
0.101551 0.034082 0.500965
0.102263 0.0334911 0.501197
0.103023 0.0329146 0.501654
0.103799 0.0323415 0.502184
0.104576 0.0317668 0.502711
0.105382 0.0311992 0.503373
0.106138 0.0306142 0.503783
0.106883 0.0300245 0.504138
0.107628 0.0294335 0.504487
0.108352 0.0288352 0.504731
0.10903 0.0282238 0.504762
0.109945 0.0276735 0.50588
0.111092 0.0271783 0.508042
0.112961 0.0268539 0.51346
0.116972 0.0262199 0.525332
0.118675 0.0258078 0.529811
0.120064 0.0253135 0.532845
0.120761 0.0246627 0.532789
0.121426 0.0240052 0.53259
0.122171 0.0233639 0.532742
0.122892 0.0227171 0.532786
0.123649 0.0220768 0.532983
0.124422 0.0214386 0.533249
0.125227 0.020805 0.533647
0.12608 0.0201781 0.534242
0.126964 0.0195543 0.534959
0.127805 0.0189215 0.535488
0.129182 0.0183685 0.538248
0.130726 0.0178322 0.541672
0.139079 0.0150839 0.560796
0.139483 0.0143591 0.559397
0.139828 0.0136319 0.557781
0.140128 0.0129038 0.555997
0.14043 0.0121803 0.554242
0.140738 0.0114616 0.552527
0.141142 0.0107554 0.551204
0.1416 0.0100567 0.550105
0.142158 0.00936842 0.549402
0.142754 0.00868465 0.548851
0.143493 0.00801122 0.548858
0.144246 0.00733876 0.548916
0.145116 0.00667205 0.549414
0.146004 0.00600527 0.54998
0.146924 0.00533829 0.550656
0.147815 0.00466808 0.551216
0.148686 0.00399504 0.551697
0.14946 0.00331792 0.551809
0.150278 0.00264124 0.552083
0.152119 0.00198878 0.556115
0.0971133 0.0405789 0.505673
0.0975841 0.0398869 0.504653
0.098031 0.0391884 0.503523
0.09847 0.0384904 0.502367
0.0990088 0.0378343 0.501728
0.0995672 0.0371874 0.501194
0.100178 0.0365615 0.500928
0.100824 0.0359488 0.500839
0.101511 0.0353505 0.500949
0.102173 0.0347427 0.500932
0.102919 0.0341634 0.501327
0.103703 0.0335951 0.501899
0.104483 0.0330232 0.502443
0.105272 0.0324521 0.503021
0.106079 0.0318844 0.503675
0.106813 0.0312924 0.503977
0.107559 0.0307029 0.504332
0.108293 0.0301087 0.504627
0.108994 0.0295036 0.504758
0.109669 0.0288913 0.504773
0.110844 0.0284105 0.50707
0.112281 0.0279901 0.510535
0.116266 0.0273879 0.522325
0.118195 0.027045 0.527832
0.119602 0.0265652 0.530954
0.120722 0.026012 0.532779
0.121433 0.0253639 0.53278
0.122113 0.0247091 0.532647
0.122873 0.0240707 0.53286
0.123606 0.0234261 0.532953
0.124364 0.0227858 0.533153
0.125138 0.0221477 0.533419
0.125944 0.0215142 0.533816
0.126799 0.0208878 0.534412
0.127686 0.0202648 0.535136
0.12879 0.0196749 0.536758
0.130436 0.0191652 0.540615
0.132233 0.0186672 0.54505
0.137662 0.0164647 0.561137
0.136582 0.0177397 0.556869
0.138528 0.0172209 0.561754
0.138592 0.0158018 0.561865
0.139385 0.0165484 0.562179
0.139917 0.0158345 0.561289
0.140363 0.0151123 0.560064
0.14074 0.0143854 0.558577
0.141042 0.0136543 0.556805
0.141376 0.012931 0.555179
0.141694 0.0122099 0.553504
0.142092 0.0114999 0.552158
0.142549 0.0107987 0.551054
0.143108 0.0101083 0.550351
0.143707 0.00942267 0.549811
0.144488 0.00875089 0.549969
0.145297 0.00808067 0.550233
0.146159 0.00741237 0.550692
0.147017 0.00674276 0.551134
0.147916 0.00607364 0.551721
0.148752 0.00540009 0.552067
0.149544 0.00472338 0.552247
0.150282 0.00404383 0.55222
0.15106 0.00336549 0.552343
0.15401 0.00132748 0.56029
0.153971 0.00274901 0.560269
0.0985828 0.0398245 0.50313
0.0990268 0.0391279 0.502007
0.0995779 0.0384765 0.501434
0.100143 0.037832 0.500937
0.100781 0.0372159 0.500804
0.101446 0.03661 0.500806
0.10214 0.0360143 0.500951
0.102812 0.03541 0.500984
0.103821 0.0349205 0.502644
0.10486 0.0344355 0.504426
0.105916 0.0339497 0.506263
0.10695 0.0334513 0.507978
0.107762 0.0328778 0.508622
0.108226 0.0321961 0.507625
0.108693 0.0315181 0.506655
0.109152 0.0308404 0.505656
0.109613 0.0301661 0.504678
0.110517 0.0296166 0.505737
0.111971 0.0292114 0.509287
0.113722 0.0288727 0.514133
0.117777 0.0282882 0.526126
0.11943 0.0278783 0.530355
0.120551 0.0273306 0.532183
0.121419 0.0267194 0.532878
0.12212 0.0260689 0.532836
0.122814 0.0254166 0.53276
0.123572 0.0247777 0.532963
0.124316 0.0241352 0.533104
0.125077 0.0234951 0.533309
0.125853 0.0228571 0.533578
0.126662 0.0222243 0.533984
0.127516 0.021598 0.534573
0.128405 0.0209758 0.535299
0.129787 0.0204336 0.538067
0.13169 0.0199674 0.542956
0.133699 0.0195038 0.548225
0.135882 0.0190514 0.554152
0.137924 0.0185625 0.559445
0.139392 0.0179787 0.562353
0.140208 0.0173002 0.562604
0.140773 0.0165888 0.561849
0.141252 0.0158684 0.560759
0.141644 0.0151408 0.559333
0.141937 0.0144052 0.557529
0.142289 0.0136808 0.555976
0.142609 0.0129568 0.554312
0.142993 0.0122429 0.552911
0.143445 0.0115386 0.551784
0.144001 0.0108458 0.55107
0.144631 0.0101611 0.550647
0.145446 0.00949093 0.550928
0.146306 0.00882288 0.551375
0.147159 0.00815327 0.551795
0.148017 0.0074825 0.552225
0.1489 0.00681189 0.552745
0.149691 0.00613469 0.552912
0.150418 0.00545371 0.552846
0.151137 0.00477263 0.552747
0.151858 0.00409167 0.552658
0.100105 0.0391019 0.500931
0.100689 0.0384649 0.500533
0.101369 0.037865 0.500608
0.102068 0.0372718 0.500776
0.102772 0.0366796 0.500966
0.103447 0.036076 0.501011
0.104751 0.0356897 0.504075
0.106109 0.0353116 0.507358
0.107492 0.0349311 0.510722
0.111227 0.0311142 0.509149
0.112149 0.0305637 0.510258
0.113639 0.0301643 0.513917
0.115424 0.0298321 0.518864
0.117482 0.0295555 0.524972
0.119237 0.0291835 0.52966
0.120595 0.0286996 0.532537
0.121444 0.0280853 0.533148
0.122085 0.0274205 0.532843
0.122776 0.0267674 0.532753
0.123471 0.0261153 0.532684
0.124229 0.0254764 0.532883
0.124986 0.0248365 0.533073
0.125747 0.0241967 0.533281
0.126528 0.0235597 0.533567
0.127352 0.0229299 0.534032
0.128206 0.022304 0.534615
0.12908 0.0216796 0.535273
0.130747 0.0211891 0.539204
0.13297 0.0207794 0.545376
0.137339 0.0198959 0.55721
0.13933 0.0194006 0.562248
0.140481 0.0187707 0.563852
0.141019 0.0180519 0.562979
0.14159 0.0173396 0.562247
0.142067 0.0166174 0.561151
0.142471 0.0158886 0.559776
0.142767 0.0151508 0.557989
0.143155 0.0144275 0.556576
0.143493 0.0137024 0.554985
0.143895 0.0129878 0.553657
0.144346 0.0122813 0.55253
0.144916 0.011588 0.551867
0.145545 0.0109012 0.551433
0.146328 0.0102278 0.55159
0.147172 0.00955825 0.55197
0.14802 0.00888734 0.552361
0.148883 0.00821664 0.552803
0.149786 0.00754675 0.553389
0.150613 0.00687091 0.55369
0.15136 0.00619019 0.55369
0.152076 0.00550718 0.553574
0.15284 0.00482694 0.553635
0.101999 0.0385304 0.500621
0.102699 0.0379375 0.500791
0.103403 0.0373449 0.500975
0.104434 0.0368686 0.502728
0.106142 0.0366236 0.507693
0.107854 0.0363634 0.512612
0.115621 0.0312134 0.51991
0.117178 0.030815 0.523774
0.118938 0.0304579 0.528491
0.12039 0.0300072 0.531794
0.12147 0.0294533 0.533424
0.122096 0.0287836 0.533047
0.122751 0.0281216 0.532801
0.123455 0.0274714 0.532769
0.124164 0.0268221 0.532757
0.124923 0.0261834 0.532958
0.125682 0.0255439 0.533156
0.126445 0.0249043 0.533368
0.127215 0.0242651 0.533604
0.128039 0.0236356 0.534065
0.12888 0.0230074 0.534586
0.129739 0.0223808 0.535177
0.131675 0.0219418 0.540195
0.138412 0.0206861 0.558677
0.140418 0.0201963 0.563741
0.141307 0.0195277 0.564277
0.14184 0.0188065 0.563387
0.142362 0.018086 0.562459
0.142802 0.0173569 0.561219
0.143189 0.0166243 0.559783
0.143498 0.0158857 0.558052
0.143933 0.015166 0.556829
0.144339 0.0144464 0.555507
0.144793 0.0137347 0.55438
0.145295 0.013031 0.553448
0.145895 0.0123381 0.552897
0.14651 0.0116482 0.552407
0.147278 0.0109723 0.552497
0.148137 0.0103031 0.552927
0.148984 0.00963145 0.553307
0.149847 0.00895945 0.553742
0.150777 0.00829091 0.554416
0.151613 0.0076145 0.55474
0.152363 0.00693248 0.554745
0.153112 0.00624959 0.554745
0.153901 0.00556849 0.55489
0.104574 0.0382105 0.503579
0.106115 0.0379156 0.507736
0.116151 0.0326966 0.52246
0.117404 0.0322182 0.524946
0.11864 0.0317274 0.52733
0.120087 0.0312854 0.530616
0.121253 0.0307597 0.532628
0.122095 0.0301453 0.533201
0.122736 0.0294792 0.532894
0.123405 0.0288205 0.532711
0.124123 0.0281732 0.532734
0.124847 0.0275274 0.532788
0.12561 0.0268893 0.533
0.126384 0.0262529 0.533257
0.127134 0.0256104 0.533411
0.127902 0.0249709 0.533637
0.128712 0.0243389 0.534036
0.129526 0.023706 0.534444
0.13037 0.0230773 0.534968
0.139411 0.0214683 0.55983
0.14142 0.0209827 0.564875
0.142031 0.0202705 0.564293
0.142561 0.0195477 0.563393
0.143061 0.0188227 0.562381
0.143497 0.0180918 0.56113
0.143882 0.0173571 0.559689
0.14422 0.0166203 0.558081
0.144705 0.0159052 0.557054
0.145178 0.015191 0.555994
0.145689 0.0144836 0.555085
0.146246 0.0137831 0.554361
0.146886 0.0130925 0.553959
0.147519 0.0124018 0.553531
0.148272 0.0117232 0.553559
0.149114 0.0110515 0.553916
0.149947 0.0103778 0.554234
0.150798 0.00970417 0.554619
0.151734 0.00903571 0.55531
0.152558 0.00835766 0.555582
0.15331 0.00767402 0.555588
0.154097 0.00699235 0.555721
0.154947 0.00631321 0.556077
0.156902 0.00498127 0.563018
0.156758 0.00567837 0.559883
0.158726 0.00504023 0.564216
0.118147 0.0337792 0.528435
0.119108 0.0332104 0.529575
0.120038 0.032629 0.530562
0.121191 0.032105 0.532517
0.122086 0.0315064 0.533322
0.122707 0.0308341 0.532924
0.123365 0.0301722 0.532694
0.124065 0.0295208 0.53264
0.124811 0.0288803 0.532784
0.125551 0.0282377 0.532902
0.12633 0.0276035 0.533183
0.127119 0.0269701 0.533498
0.127868 0.0263269 0.533641
0.128619 0.0256836 0.533795
0.129428 0.0250511 0.534181
0.130213 0.0244128 0.534468
0.131058 0.0237845 0.534992
0.140151 0.02221 0.559932
0.14217 0.0217311 0.564992
0.142779 0.0210175 0.564399
0.143273 0.0202879 0.563359
0.143736 0.0195566 0.562208
0.144167 0.0188235 0.56094
0.144534 0.0180849 0.559438
0.144891 0.0173489 0.557909
0.145412 0.0166373 0.557028
0.145939 0.015928 0.556175
0.146493 0.0152242 0.555433
0.147124 0.01453 0.554987
0.14782 0.0138437 0.554792
0.14849 0.0131555 0.554503
0.149247 0.0124754 0.554537
0.150071 0.0118009 0.554821
0.15089 0.0111253 0.555083
0.151744 0.0104512 0.555467
0.152682 0.00978213 0.556157
0.153505 0.00910309 0.556419
0.154274 0.00841944 0.55648
0.155081 0.00773789 0.556679
0.155933 0.00705803 0.557035
0.156639 0.00636944 0.556868
0.11408 0.0385611 0.532444
0.114546 0.0400908 0.534793
0.115451 0.0395105 0.535692
0.115261 0.0380745 0.534632
0.116247 0.0388896 0.536072
0.115846 0.0373855 0.534053
0.116744 0.0381682 0.535083
0.116164 0.0366119 0.532251
0.11728 0.0374621 0.534278
0.116554 0.0358666 0.530802
0.117915 0.0367896 0.533928
0.116747 0.0350651 0.528475
0.118377 0.0360643 0.532806
0.117205 0.0343497 0.527365
0.119081 0.0354156 0.532776
0.119789 0.0347679 0.532763
0.120479 0.0341147 0.532673
0.121127 0.0334498 0.532397
0.122012 0.0328504 0.533156
0.122671 0.032188 0.532928
0.123321 0.0315232 0.532658
0.124009 0.0308688 0.532552
0.124738 0.0302248 0.532626
0.125514 0.0295916 0.532897
0.126285 0.0289561 0.533142
0.12708 0.0283252 0.533485
0.127871 0.0276919 0.533804
0.128619 0.0270481 0.533941
0.129355 0.026401 0.534024
0.130149 0.0257654 0.534348
0.130921 0.0251242 0.534575
0.132028 0.0245471 0.536162
0.141127 0.0229929 0.560971
0.142837 0.0224665 0.564773
0.143393 0.0217438 0.563973
0.143849 0.0210076 0.562789
0.144273 0.0202697 0.561493
0.144722 0.0195387 0.560304
0.145139 0.0188062 0.559004
0.145551 0.0180762 0.557693
0.146108 0.0173681 0.556951
0.146689 0.0166648 0.55631
0.147291 0.015965 0.555753
0.14798 0.0152767 0.555524
0.148733 0.0145952 0.555541
0.149442 0.0139093 0.555391
0.150216 0.0132298 0.555485
0.151043 0.0125545 0.555769
0.151844 0.0118761 0.555958
0.15268 0.0111997 0.55627
0.153602 0.0105292 0.556893
0.154407 0.00984798 0.557082
0.155172 0.00916309 0.557126
0.155979 0.00848065 0.55732
0.156775 0.00779712 0.557469
0.157459 0.00710646 0.557218
0.157391 0.00568321 0.556861
0.158183 0.00641805 0.557112
0.159219 0.0050422 0.56067
0.158895 0.0057291 0.556961
0.115322 0.0417462 0.538589
0.11593 0.0410553 0.538086
0.116464 0.0403397 0.537246
0.116955 0.0396121 0.536222
0.117431 0.0388821 0.535137
0.117937 0.0381649 0.534196
0.118543 0.0374828 0.533719
0.11921 0.0368211 0.533519
0.119917 0.036172 0.533499
0.120617 0.0355207 0.533448
0.121303 0.0348646 0.533329
0.121949 0.0341976 0.533041
0.12261 0.0335352 0.532818
0.123285 0.032877 0.532658
0.123961 0.0322192 0.532501
0.124676 0.0315719 0.532515
0.125423 0.0309321 0.53266
0.126217 0.0303033 0.533002
0.127003 0.0296715 0.533309
0.127801 0.0290411 0.53366
0.128579 0.0284047 0.533922
0.12933 0.0277613 0.534066
0.130053 0.027111 0.534094
0.130833 0.0264727 0.534358
0.131589 0.0258281 0.534517
0.132747 0.0252626 0.536299
0.141907 0.023744 0.561223
0.143538 0.0232076 0.564688
0.144036 0.0224747 0.563666
0.144465 0.0217329 0.562381
0.144872 0.0209916 0.561025
0.145323 0.0202596 0.559847
0.14578 0.0195319 0.558709
0.146245 0.0188082 0.557611
0.146821 0.0181014 0.556942
0.147434 0.0174014 0.556423
0.148069 0.0167048 0.555988
0.148792 0.0160195 0.555888
0.149585 0.0153421 0.556049
0.150335 0.0146597 0.556049
0.151129 0.013981 0.556211
0.151954 0.0133049 0.556483
0.152734 0.0126235 0.556588
0.153535 0.0119434 0.556766
0.154405 0.0112686 0.557194
0.155158 0.0105827 0.557193
0.155885 0.00989501 0.557098
0.156673 0.00921149 0.55722
0.157393 0.00852289 0.557097
0.158051 0.00783061 0.556757
0.158771 0.00714253 0.556634
0.159503 0.00645487 0.556555
0.15957 0.00503876 0.556682
0.160169 0.00576424 0.556249
0.114669 0.0424216 0.538887
0.115206 0.043084 0.538225
0.11591 0.0424284 0.538173
0.116556 0.0417511 0.537846
0.117131 0.0410497 0.537201
0.117653 0.0403315 0.536319
0.118155 0.0396091 0.535356
0.118647 0.0388859 0.534356
0.119224 0.0381933 0.533747
0.119847 0.037517 0.533349
0.120512 0.0368548 0.533142
0.121187 0.0361962 0.532982
0.121873 0.0355408 0.532869
0.122522 0.0348747 0.532594
0.123184 0.0342128 0.532378
0.123871 0.0335582 0.53227
0.12456 0.0329041 0.532169
0.125278 0.0322578 0.532195
0.12604 0.0316224 0.532403
0.126849 0.0309979 0.532808
0.127634 0.0303662 0.533109
0.128433 0.0297363 0.533458
0.129225 0.0291038 0.533779
0.129991 0.0284638 0.533984
0.13073 0.027817 0.534075
0.131512 0.0271791 0.534342
0.132267 0.0265343 0.534494
0.133464 0.0259785 0.536426
0.142702 0.0244986 0.561524
0.144258 0.0239521 0.564676
0.14468 0.0232049 0.563358
0.145067 0.0224555 0.561918
0.145474 0.021713 0.560568
0.145946 0.0209835 0.55948
0.146443 0.0202606 0.558498
0.146974 0.0195451 0.557656
0.147569 0.0188404 0.557065
0.148196 0.0181411 0.556597
0.148846 0.0174456 0.556218
0.149601 0.0167635 0.556235
0.150384 0.0160847 0.556357
0.151153 0.0154035 0.556423
0.151949 0.0147248 0.55659
0.152741 0.0140447 0.556734
0.153467 0.0133579 0.556639
0.154247 0.0126759 0.556739
0.155063 0.0119965 0.556966
0.155779 0.0113078 0.556832
0.156467 0.0106172 0.556598
0.157197 0.0099301 0.556514
0.157861 0.00923856 0.556196
0.158496 0.00854541 0.555779
0.159216 0.00785791 0.555662
0.159954 0.00717151 0.555605
0.160643 0.00648291 0.555383
0.161828 0.00511605 0.559397
0.16137 0.00579604 0.555288
0.114992 0.0443826 0.537406
0.115711 0.0437338 0.537425
0.116443 0.0430895 0.537502
0.117121 0.0424246 0.537328
0.117745 0.0417406 0.536908
0.118298 0.0410329 0.536173
0.118832 0.0403204 0.535357
0.119336 0.0396005 0.534418
0.119909 0.0389055 0.53379
0.120489 0.038215 0.533206
0.121137 0.0375471 0.532923
0.121799 0.0368842 0.532703
0.122486 0.0362292 0.532594
0.123135 0.0355631 0.532322
0.123796 0.0349009 0.532101
0.124481 0.0342458 0.531985
0.125169 0.0335916 0.531882
0.125888 0.032946 0.531914
0.126639 0.032308 0.532073
0.127459 0.0316871 0.532525
0.128243 0.0310554 0.532816
0.129039 0.0304255 0.533152
0.129833 0.0297938 0.533478
0.130628 0.029161 0.5338
0.131385 0.0285186 0.533967
0.132183 0.0278842 0.534295
0.132939 0.0272398 0.534451
0.134144 0.0266875 0.536403
0.143523 0.0252594 0.561926
0.145035 0.0247077 0.564886
0.145381 0.0239456 0.563279
0.145711 0.0231847 0.561622
0.146099 0.0224377 0.560205
0.146594 0.0217115 0.559212
0.147159 0.0209979 0.558493
0.147723 0.0202859 0.55778
0.148337 0.0195828 0.557256
0.148963 0.0188825 0.556787
0.149613 0.0181862 0.556408
0.150369 0.0175037 0.556425
0.151168 0.0168263 0.556603
0.151939 0.0161449 0.556674
0.152718 0.015464 0.556774
0.153491 0.0147819 0.556846
0.154162 0.014089 0.55655
0.154887 0.0134018 0.55645
0.155646 0.0127174 0.556471
0.156337 0.0120272 0.556248
0.156987 0.0113339 0.555881
0.157695 0.0106455 0.555719
0.158323 0.00995177 0.55528
0.158973 0.00925994 0.554918
0.159695 0.0085739 0.554812
0.160453 0.00788955 0.554828
0.161164 0.00720228 0.554683
0.161927 0.00651817 0.554716
0.162128 0.0051103 0.555304
0.162668 0.00583249 0.554677
0.16289 0.00442485 0.555331
0.163409 0.0051466 0.554631
0.164621 0.0037711 0.55867
0.16415 0.0044602 0.554586
0.114713 0.0456517 0.536284
0.115466 0.0450179 0.536462
0.116198 0.0443755 0.536545
0.116933 0.0437334 0.536638
0.117624 0.0430747 0.536531
0.118278 0.042402 0.53625
0.118875 0.0417103 0.53572
0.119466 0.0410175 0.535165
0.120015 0.0403119 0.53443
0.1206 0.0396204 0.53386
0.121176 0.0389274 0.533255
0.121807 0.0382535 0.532896
0.12244 0.0375813 0.532553
0.123114 0.0369221 0.532386
0.123762 0.0362555 0.532109
0.124407 0.0355888 0.531825
0.125089 0.0349329 0.531696
0.125776 0.0342786 0.53159
0.126497 0.0336335 0.531626
0.127235 0.0329924 0.53173
0.128039 0.032368 0.532111
0.128805 0.0317327 0.53233
0.129574 0.0310968 0.532553
0.130341 0.0304596 0.532768
0.131123 0.029825 0.533039
0.131923 0.0291934 0.533379
0.13274 0.0285643 0.533785
0.133528 0.0279276 0.53407
0.13473 0.0273769 0.536001
0.144303 0.0260136 0.56216
0.145833 0.0254679 0.565174
0.146121 0.0246931 0.563344
0.146442 0.0239286 0.56166
0.146813 0.023177 0.560183
0.14731 0.0224496 0.559202
0.147924 0.0217429 0.558672
0.148525 0.0210355 0.558097
0.149124 0.0203287 0.557518
0.149754 0.0196277 0.557061
0.150404 0.0189307 0.556682
0.151144 0.0182457 0.556637
0.151911 0.017564 0.556692
0.152679 0.0168822 0.556753
0.153437 0.0161984 0.556769
0.154188 0.0155137 0.556763
0.154822 0.0148168 0.556334
0.155506 0.0141252 0.556083
0.156207 0.0134358 0.555899
0.156841 0.012741 0.555476
0.157434 0.012043 0.554909
0.158105 0.0113524 0.55462
0.15873 0.0106591 0.554175
0.15938 0.00996834 0.553819
0.160138 0.00928549 0.553841
0.160933 0.00860467 0.55399
0.161663 0.00791969 0.553912
0.162423 0.00723583 0.553939
0.163179 0.00655148 0.55395
0.163901 0.00586544 0.553844
0.164626 0.00517988 0.553749
0.164912 0.00377479 0.554613
0.165386 0.00449498 0.55377
0.166655 0.00311765 0.55795
0.16615 0.00381021 0.553803
0.115211 0.0462941 0.535458
0.11595 0.0456563 0.535577
0.116666 0.0450086 0.535585
0.117391 0.0443644 0.535639
0.118086 0.0437082 0.535551
0.11878 0.0430514 0.535457
0.119432 0.04238 0.53518
0.12008 0.0417074 0.534884
0.120673 0.0410164 0.534344
0.121276 0.0403304 0.533856
0.121852 0.0396366 0.533253
0.122468 0.0389575 0.532832
0.123084 0.0382792 0.532412
0.123742 0.0376153 0.532181
0.124389 0.0369481 0.5319
0.125021 0.0362772 0.531558
0.125703 0.0356212 0.531428
0.126387 0.0349664 0.531313
0.127095 0.0343177 0.531291
0.127817 0.033673 0.531334
0.128606 0.0330454 0.531649
0.129356 0.0324063 0.531798
0.130109 0.0317674 0.531959
0.130875 0.0311309 0.532169
0.131656 0.0304969 0.532436
0.132497 0.029876 0.532943
0.133322 0.0292496 0.53338
0.134118 0.0286151 0.533692
0.135038 0.028006 0.534494
0.144809 0.026716 0.561323
0.146667 0.0262358 0.565596
0.146945 0.0254563 0.563733
0.147246 0.0246861 0.561977
0.147599 0.0239291 0.560433
0.14808 0.0231973 0.559391
0.148696 0.0224902 0.558872
0.149298 0.0217812 0.558298
0.149899 0.021074 0.55773
0.150529 0.0203722 0.557273
0.151177 0.0196737 0.556883
0.151914 0.0189878 0.556827
0.152648 0.0183018 0.556759
0.153398 0.0176173 0.556748
0.15412 0.0169293 0.556636
0.154832 0.01624 0.556485
0.155426 0.015538 0.555912
0.156071 0.0148429 0.555528
0.156715 0.0141481 0.555138
0.157324 0.013451 0.554632
0.157878 0.0127499 0.553932
0.158514 0.0120574 0.553527
0.159117 0.0113628 0.55301
0.159766 0.0106727 0.552655
0.160507 0.00999022 0.552621
0.161306 0.00931139 0.552787
0.16205 0.00862819 0.552764
0.162828 0.00794683 0.552853
0.163602 0.00726515 0.55293
0.164341 0.00658068 0.552885
0.165101 0.00589758 0.552912
0.165882 0.00521467 0.553006
0.166682 0.00453174 0.55316
0.167941 0.0031552 0.557271
0.167505 0.00384964 0.553392
0.114977 0.0475741 0.534544
0.115685 0.0469255 0.534524
0.116407 0.0462825 0.53457
0.117111 0.0456316 0.53453
0.117814 0.0449805 0.534488
0.11852 0.0443298 0.534453
0.119239 0.0436839 0.534477
0.119932 0.0430282 0.534386
0.120623 0.0423718 0.534286
0.12126 0.0416965 0.533946
0.121894 0.041021 0.533596
0.122484 0.0403316 0.533058
0.123098 0.0396517 0.532632
0.123712 0.0389725 0.532206
0.124344 0.0383 0.53186
0.124951 0.0376205 0.53141
0.12554 0.036937 0.530891
0.126192 0.0362732 0.53064
0.12685 0.0356113 0.530413
0.127557 0.0349638 0.530395
0.128292 0.0343237 0.530491
0.129105 0.0337039 0.530908
0.129881 0.0330727 0.531165
0.13066 0.0324414 0.531435
0.131441 0.0318093 0.531704
0.132233 0.0311789 0.532017
0.133074 0.0305588 0.532522
0.133885 0.0299299 0.532898
0.134672 0.0292943 0.533177
0.135877 0.0287491 0.535103
0.145873 0.0275269 0.562654
0.147484 0.0270018 0.565944
0.147762 0.0262197 0.564088
0.14806 0.0254464 0.562327
0.148393 0.0246836 0.560711
0.14887 0.0239494 0.559658
0.149485 0.0232405 0.559128
0.150087 0.0225312 0.55856
0.150705 0.0218252 0.558053
0.151351 0.0211243 0.557651
0.151979 0.0204218 0.557189
0.152699 0.0197332 0.557066
0.153392 0.0190408 0.556848
0.15409 0.0183496 0.556648
0.154758 0.0176548 0.556336
0.155434 0.0169613 0.556057
0.15599 0.0162547 0.555351
0.156599 0.0155558 0.55484
0.157219 0.0148587 0.554372
0.157826 0.0141618 0.553861
0.15836 0.0134587 0.553095
0.158972 0.0127642 0.552612
0.159571 0.0120699 0.552084
0.160217 0.0113803 0.551723
0.160923 0.0106961 0.551574
0.161703 0.0100174 0.551679
0.162449 0.00933559 0.551662
0.163207 0.00865431 0.551689
0.163981 0.00797386 0.551766
0.16474 0.0072919 0.551794
0.165524 0.00661122 0.551904
0.166342 0.00593112 0.552125
0.167181 0.00525102 0.552412
0.168044 0.00457165 0.552777
0.168389 0.00316797 0.553823
0.16897 0.00389256 0.553347
0.114256 0.0482171 0.534505
0.114794 0.0488724 0.533872
0.1155 0.0482244 0.533849
0.116199 0.0475729 0.53379
0.116895 0.0469202 0.533718
0.117575 0.0462611 0.533573
0.118261 0.0456043 0.533455
0.118963 0.0449538 0.533409
0.119684 0.0443099 0.533445
0.120392 0.0436612 0.533425
0.121098 0.0430112 0.533393
0.121761 0.042346 0.533173
0.122407 0.0416755 0.532883
0.123013 0.0409918 0.532418
0.123641 0.0403167 0.532052
0.124257 0.0396386 0.531641
0.124873 0.0389615 0.531232
0.125462 0.038277 0.530711
0.126033 0.0375879 0.530115
0.126667 0.0369196 0.529795
0.127322 0.0362579 0.529562
0.128043 0.0356154 0.529605
0.128794 0.0349809 0.529769
0.129624 0.0343669 0.530255
0.13043 0.0337448 0.530637
0.131242 0.0331226 0.531035
0.132028 0.0324925 0.531327
0.132822 0.0318632 0.531644
0.13366 0.0312433 0.532136
0.134451 0.0306105 0.532433
0.135219 0.0299712 0.532635
0.136389 0.0294208 0.534415
0.146146 0.0281825 0.560921
0.147913 0.0276933 0.5648
0.148582 0.0269847 0.564448
0.148901 0.0262126 0.562771
0.149277 0.025455 0.561322
0.149732 0.0247151 0.560186
0.150342 0.0240038 0.55964
0.150909 0.023287 0.558938
0.15151 0.022577 0.558364
0.152122 0.0218701 0.55784
0.152698 0.0211589 0.557183
0.153363 0.0204623 0.55686
0.154017 0.0197644 0.556498
0.154674 0.0190679 0.556153
0.155303 0.0183679 0.555703
0.155975 0.0176744 0.555413
0.156511 0.0169655 0.554641
0.1571 0.0162643 0.554063
0.157705 0.0155663 0.553546
0.158309 0.0148692 0.553029
0.158824 0.0141644 0.552202
0.159435 0.0134702 0.551719
0.160033 0.0127764 0.551192
0.160656 0.0120855 0.55076
0.161339 0.0114001 0.550532
0.162096 0.010721 0.55056
0.162819 0.0100388 0.550471
0.163577 0.00935894 0.550498
0.164392 0.0086826 0.55072
0.165191 0.00800407 0.550886
0.166015 0.00732664 0.551129
0.166874 0.00665002 0.551489
0.167736 0.00597174 0.551853
0.168621 0.00529384 0.55229
0.169571 0.00461742 0.552937
0.170008 0.00321519 0.554276
0.170643 0.00394228 0.553976
0.115388 0.049551 0.533502
0.11608 0.0488973 0.533414
0.116753 0.0482355 0.533238
0.117428 0.0475749 0.533073
0.118075 0.0469034 0.532783
0.118722 0.046232 0.532491
0.119383 0.0455671 0.532268
0.120087 0.0449186 0.532234
0.120783 0.0442671 0.532167
0.121477 0.0436147 0.532089
0.122149 0.0429545 0.531916
0.122804 0.0422886 0.53167
0.123409 0.041606 0.53121
0.124053 0.0409374 0.530918
0.124697 0.0402698 0.530633
0.125326 0.0395976 0.530282
0.125911 0.0389125 0.529751
0.126485 0.0382255 0.529178
0.127113 0.0375563 0.528837
0.127769 0.0368957 0.52861
0.128505 0.0362591 0.528721
0.129287 0.0356345 0.529015
0.130137 0.0350274 0.529582
0.130964 0.0344121 0.530047
0.13181 0.0337999 0.530584
0.132615 0.0331756 0.530952
0.133414 0.032548 0.531288
0.134236 0.0319249 0.531711
0.135004 0.0312874 0.531917
0.135746 0.0306428 0.532017
0.136882 0.0300873 0.533659
0.146541 0.0288599 0.559673
0.14865 0.0284445 0.564843
0.149486 0.0277674 0.565124
0.149874 0.0270052 0.563709
0.150288 0.0262516 0.562406
0.150703 0.0255016 0.561119
0.151227 0.0247733 0.560245
0.151739 0.0240456 0.559337
0.152285 0.0233255 0.558564
0.15286 0.0226117 0.557901
0.153382 0.0218913 0.55705
0.153989 0.0211855 0.556516
0.154584 0.0204794 0.555943
0.155215 0.0197794 0.555503
0.155808 0.0190753 0.554931
0.15646 0.0183798 0.554575
0.157013 0.0176732 0.553869
0.157619 0.0169741 0.553353
0.158223 0.016276 0.552836
0.158829 0.0155793 0.552331
0.159361 0.014876 0.551571
0.159956 0.0141803 0.551033
0.160552 0.0134863 0.550506
0.16114 0.0127925 0.549952
0.161799 0.0121059 0.549647
0.162511 0.011424 0.549525
0.163209 0.0107409 0.549353
0.16393 0.0100603 0.549264
0.164761 0.00938621 0.549541
0.165603 0.00871229 0.549851
0.166469 0.00803858 0.550238
0.167388 0.00736651 0.550797
0.168325 0.00669355 0.551411
0.169254 0.00601877 0.551991
0.170224 0.00534333 0.552698
0.171333 0.00467165 0.553853
0.11595 0.050216 0.532992
0.116639 0.0495615 0.532892
0.117298 0.048894 0.53265
0.117971 0.0482334 0.532482
0.118604 0.0475565 0.53213
0.119208 0.046869 0.531654
0.119826 0.046188 0.53124
0.120486 0.0455245 0.531021
0.121141 0.044859 0.530774
0.121766 0.0441835 0.530405
0.122408 0.0435145 0.530107
0.123043 0.0428441 0.529786
0.123646 0.0421631 0.529326
0.124317 0.0415067 0.529166
0.125017 0.0408596 0.529123
0.125687 0.0402028 0.528956
0.126296 0.0395268 0.528534
0.126899 0.0388497 0.528087
0.127527 0.0381818 0.527754
0.128183 0.0375227 0.527534
0.128934 0.0368915 0.527704
0.129731 0.0362729 0.528063
0.130598 0.0356725 0.528702
0.131469 0.0350708 0.529347
0.132375 0.034476 0.530123
0.133226 0.0338645 0.530674
0.134071 0.0332492 0.53119
0.134879 0.0326229 0.531556
0.135614 0.0319777 0.531633
0.136323 0.0313257 0.531603
0.137438 0.0307671 0.533152
0.138813 0.0297026 0.538379
0.139078 0.0303222 0.536723
0.150266 0.0285275 0.565322
0.150642 0.0277612 0.563868
0.151065 0.0270071 0.562598
0.151475 0.0262542 0.561296
0.151969 0.0255196 0.560316
0.152453 0.0247859 0.559309
0.152974 0.0240603 0.558441
0.153524 0.0233419 0.557689
0.154006 0.0226147 0.5567
0.154573 0.0219027 0.556021
0.155159 0.021195 0.555421
0.155769 0.020492 0.554909
0.156327 0.0197832 0.554215
0.156965 0.0190862 0.553809
0.157531 0.0183811 0.553154
0.158121 0.0176804 0.552588
0.158709 0.0169807 0.552022
0.159332 0.0162863 0.551578
0.159882 0.0155848 0.550885
0.160461 0.0148879 0.550297
0.161059 0.0141942 0.549781
0.161642 0.0134999 0.549216
0.162263 0.0128103 0.548784
0.162934 0.012126 0.548524
0.163624 0.0114432 0.54833
0.164358 0.0107643 0.548286
0.165193 0.0100925 0.548579
0.166074 0.00942219 0.549022
0.16698 0.00875245 0.549542
0.167939 0.00808396 0.550233
0.16892 0.00741521 0.55099
0.16989 0.00674323 0.551703
0.170863 0.00606889 0.552416
0.171935 0.00539692 0.553443
0.115892 0.0515649 0.532895
0.116558 0.0509004 0.532692
0.117235 0.0502409 0.532538
0.117859 0.0495589 0.532142
0.118519 0.0488931 0.531915
0.119136 0.0482102 0.531497
0.119688 0.0475023 0.530793
0.120233 0.0467937 0.530065
0.120829 0.0461068 0.529567
0.121408 0.0454147 0.528999
0.121963 0.0447155 0.528336
0.122571 0.0440374 0.527906
0.123214 0.0433726 0.527627
0.123827 0.0426982 0.527227
0.124529 0.0420551 0.527204
0.125271 0.0414249 0.527348
0.125986 0.0407856 0.527381
0.126615 0.0401179 0.527051
0.127249 0.0394525 0.526745
0.127895 0.0387915 0.526489
0.128566 0.0381384 0.526338
0.129342 0.0375166 0.526616
0.130165 0.0369072 0.52708
0.131059 0.0363164 0.527829
0.131959 0.0357243 0.528589
0.132908 0.0351429 0.529536
0.133789 0.0345406 0.530206
0.13468 0.0339384 0.530906
0.135479 0.0333102 0.531231
0.136214 0.0326653 0.531307
0.136905 0.0320091 0.531206
0.137992 0.0314459 0.532639
0.139228 0.0309125 0.534636
0.151084 0.029296 0.565658
0.151439 0.0285232 0.564127
0.151848 0.027765 0.562813
0.152246 0.0270078 0.561466
0.152705 0.0262654 0.560359
0.153173 0.0255275 0.559296
0.15365 0.0247935 0.558273
0.15416 0.0240676 0.557378
0.154603 0.0233334 0.55625
0.155133 0.0226152 0.555444
0.1557 0.0219046 0.554777
0.156275 0.0211969 0.554144
0.156831 0.0204878 0.55345
0.157471 0.0197917 0.553055
0.158039 0.0190869 0.552412
0.158626 0.0183861 0.55184
0.15923 0.0176882 0.55133
0.159834 0.0169917 0.550825
0.160384 0.0162906 0.550138
0.160978 0.0155951 0.549605
0.161593 0.0149033 0.549151
0.162178 0.0142096 0.548597
0.162816 0.0135219 0.548226
0.163484 0.0128373 0.547961
0.164157 0.0121536 0.547712
0.164889 0.011475 0.547662
0.165723 0.0108038 0.54795
0.166624 0.0101367 0.548459
0.16755 0.00946898 0.549045
0.168553 0.00880495 0.54988
0.169558 0.00813816 0.550709
0.170551 0.0074688 0.551493
0.171509 0.00679469 0.552155
0.172523 0.00612189 0.552994
0.11654 0.0522671 0.532778
0.117215 0.0516063 0.532616
0.117888 0.0509447 0.532442
0.118486 0.0502515 0.531933
0.11912 0.0495746 0.53159
0.119684 0.0488697 0.530937
0.120151 0.0481275 0.529862
0.120597 0.0473806 0.528709
0.12109 0.0466551 0.527769
0.121603 0.0459403 0.526928
0.122109 0.0452255 0.526067
0.122688 0.0445396 0.525524
0.123341 0.0438821 0.525304
0.123992 0.043224 0.525074
0.12471 0.0425897 0.52513
0.125496 0.0419779 0.52547
0.126281 0.0413646 0.525803
0.126982 0.0407223 0.52578
0.127677 0.0400779 0.525732
0.12837 0.0394326 0.525673
0.129068 0.0387888 0.525637
0.129842 0.0381674 0.525906
0.130649 0.0375548 0.526308
0.131529 0.0369616 0.526999
0.132415 0.0363675 0.527703
0.133406 0.0357997 0.528817
0.134336 0.0352118 0.529677
0.135279 0.0346243 0.530576
0.136112 0.0340057 0.531038
0.137457 0.0335138 0.533489
0.138798 0.033013 0.535897
0.15292 0.0277438 0.561276
0.153377 0.0270001 0.560169
0.153827 0.0262577 0.55904
0.154266 0.0255162 0.557884
0.154739 0.0247837 0.556861
0.155164 0.0240456 0.555672
0.155677 0.0233246 0.554811
0.156245 0.022614 0.55415
0.156819 0.0219059 0.553517
0.157392 0.0211994 0.55289
0.15803 0.0205029 0.55249
0.158598 0.0197983 0.551852
0.159183 0.0190969 0.551275
0.159785 0.0183993 0.550765
0.160385 0.0177024 0.55025
0.160933 0.0170005 0.549557
0.161527 0.0163052 0.549031
0.16214 0.015613 0.548571
0.162726 0.0149194 0.548023
0.163365 0.0142317 0.547658
0.164057 0.01355 0.547475
0.164751 0.0128682 0.547298
0.165505 0.0121915 0.54732
0.166357 0.0115225 0.547669
0.167295 0.0108589 0.548299
0.168242 0.0101939 0.548952
0.169267 0.00953201 0.549852
0.170295 0.00886749 0.550753
0.171289 0.00819846 0.551537
0.17223 0.00752468 0.552138
0.117152 0.0529531 0.532496
0.117832 0.0522948 0.532358
0.118505 0.0516331 0.532185
0.119074 0.0509271 0.531549
0.11967 0.0502342 0.531037
0.120174 0.0495048 0.530127
0.120555 0.0487277 0.528682
0.120887 0.047936 0.527041
0.121289 0.0471768 0.525722
0.121727 0.0464355 0.524571
0.122202 0.0457116 0.523589
0.122767 0.0450245 0.523006
0.123447 0.0443803 0.522912
0.124127 0.043736 0.522817
0.124871 0.0431144 0.522995
0.125698 0.0425201 0.523513
0.126538 0.0419282 0.524078
0.127296 0.0413074 0.524301
0.128049 0.0406835 0.524495
0.128784 0.0400535 0.524617
0.129495 0.0394152 0.524638
0.130255 0.038791 0.524852
0.131045 0.0381751 0.525186
0.13191 0.0375796 0.525817
0.132782 0.0369838 0.526466
0.133762 0.0364156 0.527535
0.135311 0.0359989 0.530834
0.136897 0.0355817 0.534245
0.153545 0.0284707 0.560907
0.154014 0.0277281 0.559845
0.154463 0.0269846 0.558722
0.154883 0.0262387 0.5575
0.155319 0.025499 0.55635
0.155744 0.0247603 0.555167
0.156259 0.0240394 0.554318
0.156829 0.0233288 0.553668
0.1574 0.0226201 0.55303
0.157987 0.0219153 0.552453
0.158591 0.021214 0.551937
0.159158 0.0205089 0.551299
0.159724 0.0198052 0.550661
0.160303 0.0191046 0.550074
0.160885 0.0184054 0.549498
0.161448 0.0177056 0.548866
0.162043 0.0170106 0.548346
0.162675 0.0163207 0.547953
0.163296 0.0156307 0.547527
0.163955 0.0149454 0.547233
0.164687 0.0142673 0.547184
0.165424 0.0135897 0.547151
0.166201 0.012915 0.54725
0.167056 0.0122464 0.547604
0.168012 0.0115847 0.548289
0.16898 0.0109222 0.549008
0.17001 0.0102613 0.549919
0.17106 0.00959914 0.550885
0.172054 0.00893118 0.551663
0.172968 0.00825622 0.552176
0.117762 0.0536383 0.532209
0.118452 0.052984 0.532111
0.11903 0.0522806 0.531514
0.119526 0.0515432 0.530558
0.120037 0.0508155 0.529681
0.120447 0.0500481 0.528369
0.120765 0.0492469 0.526667
0.121072 0.0484467 0.524933
0.12143 0.0476723 0.523441
0.121849 0.0469262 0.522225
0.122334 0.0462092 0.521304
0.122902 0.0455261 0.520748
0.123599 0.0448914 0.520734
0.124318 0.0442648 0.520818
0.125075 0.0436506 0.521054
0.125914 0.0430639 0.52163
0.126765 0.0424792 0.522249
0.127552 0.0418709 0.522595
0.128321 0.0412549 0.522861
0.129071 0.0406322 0.523052
0.129781 0.0399958 0.523075
0.130521 0.039368 0.523214
0.131306 0.0387531 0.523533
0.132155 0.038156 0.524105
0.133025 0.0375626 0.524751
0.133975 0.0369894 0.525703
0.136213 0.0367687 0.531698
0.138398 0.0351314 0.537287
0.138548 0.0365552 0.538004
0.153373 0.0298766 0.560396
0.154023 0.0291681 0.56
0.154577 0.0284417 0.559255
0.155071 0.0277059 0.558299
0.155527 0.026966 0.557216
0.155944 0.0262218 0.556
0.156366 0.0254814 0.554812
0.156878 0.0247594 0.553957
0.15743 0.0240456 0.553247
0.157983 0.0233339 0.552548
0.158586 0.0226314 0.552032
0.15917 0.021927 0.55145
0.159719 0.0212191 0.550751
0.160263 0.0205121 0.550042
0.160822 0.019809 0.549388
0.161383 0.0191073 0.548746
0.161947 0.0184074 0.54812
0.162565 0.0177156 0.547683
0.163216 0.0170281 0.547357
0.16389 0.0163441 0.547113
0.164587 0.0156626 0.546947
0.165378 0.0149908 0.547097
0.166175 0.0143187 0.547263
0.167031 0.0136513 0.547622
0.167909 0.0129843 0.548047
0.168886 0.0123243 0.548793
0.169858 0.0116616 0.549516
0.170873 0.0110001 0.550372
0.171868 0.0103349 0.551156
0.172839 0.00966519 0.55185
0.173709 0.00898775 0.552219
0.119462 0.0528864 0.530439
0.119821 0.0520903 0.528889
0.120236 0.051323 0.527601
0.120564 0.0505234 0.525948
0.120863 0.0497168 0.524183
0.121181 0.0489239 0.522523
0.121553 0.0481574 0.521106
0.121985 0.0474195 0.519967
0.122509 0.0467201 0.519227
0.123091 0.0460447 0.518738
0.123816 0.0454236 0.518854
0.124562 0.0448094 0.519055
0.125315 0.0441972 0.519287
0.126149 0.0436117 0.519844
0.126997 0.0430291 0.520455
0.127783 0.0424234 0.520805
0.128554 0.0418109 0.521084
0.129317 0.0411949 0.521331
0.130024 0.0405601 0.521349
0.130744 0.0399292 0.521421
0.131525 0.0393158 0.521729
0.132356 0.0387164 0.522234
0.133211 0.0381217 0.522823
0.134125 0.0375421 0.52364
0.154753 0.0307577 0.562792
0.155307 0.0300257 0.562035
0.15571 0.0292658 0.560735
0.156077 0.0285028 0.559318
0.156429 0.0277407 0.557858
0.15675 0.0269766 0.556299
0.157097 0.0262218 0.554851
0.157553 0.0254888 0.553796
0.158068 0.0247683 0.552959
0.158599 0.0240524 0.552188
0.1592 0.023349 0.551661
0.159767 0.0226419 0.551024
0.160281 0.0219287 0.550209
0.160818 0.0212204 0.549478
0.161372 0.0205165 0.548814
0.161912 0.019812 0.548105
0.162498 0.0191151 0.547557
0.163153 0.0184276 0.547248
0.163828 0.017743 0.547004
0.164541 0.0170632 0.546894
0.165296 0.0163882 0.546921
0.166148 0.0157225 0.54727
0.167008 0.0150562 0.54764
0.167909 0.0143929 0.548142
0.16881 0.013728 0.548639
0.169789 0.0130681 0.549385
0.170742 0.0124037 0.550041
0.171722 0.0117397 0.550775
0.172697 0.0110728 0.551486
0.173644 0.0104025 0.552103
0.120308 0.0517727 0.524985
0.120625 0.0509713 0.523305
0.12096 0.0501829 0.521721
0.121325 0.0494114 0.520279
0.121706 0.0486512 0.518922
0.122178 0.0479316 0.517969
0.12274 0.0472494 0.517403
0.123335 0.0465814 0.51698
0.124073 0.0459681 0.51716
0.124843 0.0453653 0.517464
0.125594 0.0447546 0.517691
0.12641 0.044166 0.518183
0.127254 0.0435848 0.518778
0.128036 0.0429807 0.519119
0.128817 0.0423742 0.519445
0.129578 0.0417604 0.519693
0.130283 0.0411272 0.519708
0.130986 0.040493 0.519714
0.131735 0.0398729 0.519905
0.132521 0.039263 0.520237
0.133332 0.0386587 0.52066
0.13418 0.0380639 0.521225
0.156952 0.0301152 0.56259
0.157252 0.0293348 0.56093
0.157501 0.0285492 0.559098
0.15772 0.027763 0.557179
0.157963 0.0269863 0.55536
0.158321 0.0262343 0.553963
0.158777 0.0255026 0.55292
0.159287 0.0247823 0.552078
0.159871 0.0240758 0.551496
0.160436 0.0233676 0.550853
0.160946 0.0226528 0.550028
0.161465 0.0219413 0.549236
0.162014 0.0212359 0.548555
0.162572 0.0205336 0.547913
0.163176 0.019838 0.547426
0.163855 0.0191537 0.547199
0.164551 0.0184713 0.547028
0.165303 0.0177954 0.547045
0.166102 0.0171249 0.547216
0.167002 0.0164642 0.547719
0.167908 0.0158024 0.548238
0.168855 0.0151435 0.548884
0.169777 0.0144798 0.549441
0.170739 0.0138179 0.550125
0.171671 0.0131515 0.550704
0.172665 0.0124883 0.551475
0.173638 0.0118211 0.552175
0.120197 0.052139 0.521599
0.120631 0.0513921 0.520453
0.121092 0.0506597 0.519429
0.121505 0.049911 0.518215
0.121928 0.0491702 0.517055
0.122429 0.0484636 0.516232
0.123015 0.0477931 0.515777
0.123622 0.047132 0.515416
0.12436 0.0465213 0.515602
0.125128 0.0459205 0.515907
0.125876 0.0453111 0.516125
0.126676 0.0447194 0.516554
0.127504 0.0441355 0.517088
0.128282 0.0435327 0.517418
0.129059 0.0429281 0.517739
0.129819 0.0423163 0.517982
0.130535 0.0416894 0.518052
0.131238 0.0410576 0.518065
