ply
format ascii 1.0
element vertex 1670
property float x
property float y
property float z
end_header
-0.233178 -0.168173 0.705571
-0.232392 -0.168618 0.705648
-0.231544 -0.169041 0.705596
-0.230831 -0.16951 0.705815
-0.230048 -0.169955 0.705892
-0.229249 -0.170392 0.705933
-0.228445 -0.170827 0.705965
-0.227731 -0.171295 0.70618
-0.226863 -0.171705 0.706074
-0.225943 -0.172094 0.70586
-0.225052 -0.172493 0.705701
-0.224142 -0.172883 0.705498
-0.223271 -0.173287 0.705375
-0.222505 -0.17373 0.705471
-0.221854 -0.174217 0.705806
-0.221247 -0.174722 0.706237
-0.220667 -0.175239 0.706726
-0.220069 -0.175748 0.707177
-0.219469 -0.176258 0.707624
-0.21886 -0.176765 0.708054
-0.218207 -0.177253 0.708392
-0.217486 -0.177714 0.708582
-0.216739 -0.178163 0.708712
-0.215982 -0.178608 0.708822
-0.215229 -0.179053 0.708939
-0.214504 -0.179511 0.709116
-0.213939 -0.180037 0.709644
-0.213469 -0.180606 0.710387
-0.213032 -0.18119 0.711205
-0.2127 -0.181824 0.712263
-0.212497 -0.182518 0.713617
-0.212355 -0.183243 0.715115
-0.212289 -0.184007 0.716794
-0.212263 -0.184794 0.718576
-0.212202 -0.18557 0.720289
-0.212202 -0.186379 0.722153
-0.212104 -0.187147 0.723801
-0.211921 -0.187879 0.725269
-0.211671 -0.188583 0.726589
-0.211334 -0.189249 0.727715
-0.248159 -0.151037 0.686601
-0.247322 -0.151464 0.686571
-0.246485 -0.151889 0.686538
-0.245459 -0.152264 0.686156
-0.244409 -0.15263 0.685727
-0.243404 -0.153007 0.685377
-0.242397 -0.153381 0.685018
-0.241403 -0.153756 0.684679
-0.240559 -0.154172 0.684613
-0.239798 -0.15461 0.684703
-0.23914 -0.155077 0.684981
-0.238511 -0.155551 0.685314
-0.238088 -0.156086 0.686037
-0.237684 -0.156627 0.686797
-0.237293 -0.157174 0.687587
-0.236914 -0.157725 0.688403
-0.236473 -0.15826 0.689102
-0.235909 -0.158758 0.68957
-0.235292 -0.159242 0.689938
-0.234703 -0.159733 0.69036
-0.234092 -0.160219 0.690739
-0.23494 -0.161163 0.693955
-0.235875 -0.162144 0.697362
-0.236796 -0.16313 0.700761
-0.237551 -0.164072 0.703857
-0.238076 -0.164947 0.706521
-0.237151 -0.165352 0.706334
-0.236233 -0.165758 0.706157
-0.235368 -0.16618 0.706082
-0.234458 -0.166587 0.705916
-0.233571 -0.166999 0.705792
-0.23275 -0.167433 0.705798
-0.231918 -0.167863 0.70578
-0.231046 -0.168277 0.705678
-0.230308 -0.168738 0.705846
-0.229498 -0.169172 0.705867
-0.228649 -0.169592 0.705806
-0.227842 -0.170025 0.705829
-0.227153 -0.170502 0.706092
-0.226293 -0.170915 0.706003
-0.225403 -0.171316 0.705848
-0.224537 -0.171724 0.705739
-0.223627 -0.172114 0.705535
-0.22278 -0.172527 0.705461
-0.22206 -0.172988 0.705652
-0.221453 -0.173492 0.70608
-0.22089 -0.174015 0.706606
-0.220353 -0.174548 0.707186
-0.219757 -0.175059 0.707643
-0.219156 -0.175568 0.708091
-0.218569 -0.176084 0.70857
-0.217939 -0.176582 0.708957
-0.217247 -0.177056 0.709211
-0.216507 -0.177509 0.709359
-0.215752 -0.177955 0.709474
-0.214996 -0.1784 0.709585
-0.214251 -0.17885 0.709719
-0.213644 -0.179358 0.710156
-0.213171 -0.179926 0.710896
-0.212708 -0.180499 0.711659
-0.212307 -0.181101 0.712564
-0.212075 -0.181781 0.713855
-0.211926 -0.182502 0.71534
-0.211839 -0.183254 0.716976
-0.211792 -0.18403 0.718714
-0.21173 -0.184803 0.720426
-0.211726 -0.185609 0.722286
-0.211604 -0.186364 0.723884
-0.211398 -0.187084 0.725299
-0.211167 -0.187796 0.726665
-0.21085 -0.18847 0.727839
-0.24765 -0.150291 0.686658
-0.246807 -0.150716 0.686615
-0.245941 -0.151134 0.686527
-0.244911 -0.151509 0.686137
-0.243833 -0.151868 0.685655
-0.242802 -0.152238 0.685254
-0.241801 -0.152614 0.684904
-0.240834 -0.152998 0.684611
-0.239973 -0.153409 0.684513
-0.239214 -0.153847 0.684604
-0.238532 -0.154306 0.684837
-0.237877 -0.154773 0.685121
-0.23743 -0.155299 0.685797
-0.23702 -0.155838 0.686547
-0.236623 -0.156381 0.687322
-0.236244 -0.156931 0.688138
-0.2358 -0.157464 0.688833
-0.235211 -0.157954 0.68925
-0.234572 -0.158429 0.689573
-0.233953 -0.158911 0.689937
-0.233249 -0.159367 0.690134
-0.233871 -0.160235 0.692914
-0.234936 -0.161251 0.696577
-0.235992 -0.162274 0.700245
-0.236891 -0.163257 0.703629
-0.237591 -0.164185 0.706641
-0.236922 -0.164674 0.706959
-0.235925 -0.165056 0.706626
-0.235006 -0.165461 0.706444
-0.234049 -0.165852 0.706182
-0.233114 -0.166249 0.705962
-0.232292 -0.166683 0.705963
-0.231436 -0.167104 0.705896
-0.230564 -0.167519 0.705794
-0.229803 -0.167972 0.705915
-0.228969 -0.168398 0.705885
-0.228091 -0.168807 0.705761
-0.227281 -0.16924 0.705776
-0.226571 -0.169708 0.705997
-0.225721 -0.170124 0.705924
-0.22488 -0.170544 0.705869
-0.224041 -0.170962 0.705817
-0.223158 -0.171363 0.705667
-0.222341 -0.171787 0.705655
-0.221667 -0.172266 0.705943
-0.22109 -0.172782 0.706437
-0.220554 -0.173315 0.707018
-0.22004 -0.173858 0.707651
-0.219464 -0.174376 0.708152
-0.218857 -0.174884 0.708588
-0.218267 -0.175398 0.709062
-0.217635 -0.175896 0.709446
-0.216968 -0.17638 0.709755
-0.216249 -0.176843 0.709951
-0.215519 -0.1773 0.71012
-0.214783 -0.177755 0.710277
-0.214059 -0.178214 0.710459
-0.213451 -0.178723 0.710897
-0.21296 -0.179283 0.711598
-0.212472 -0.179846 0.712308
-0.212023 -0.180427 0.713111
-0.21172 -0.181075 0.714246
-0.211499 -0.181762 0.715572
-0.211364 -0.182491 0.717102
-0.211295 -0.183255 0.718791
-0.211274 -0.184045 0.720601
-0.21129 -0.184858 0.72251
-0.211189 -0.185621 0.72416
-0.210979 -0.186338 0.72557
-0.210768 -0.187058 0.726983
-0.210457 -0.187734 0.728174
-0.247226 -0.149567 0.686869
-0.246352 -0.149984 0.686768
-0.245443 -0.150392 0.686601
-0.244382 -0.150759 0.686151
-0.243281 -0.151113 0.685624
-0.242229 -0.151478 0.685182
-0.241255 -0.151862 0.684879
-0.240316 -0.152253 0.684638
-0.239457 -0.152665 0.684542
-0.238694 -0.153102 0.684624
-0.237988 -0.153554 0.684812
-0.237287 -0.154008 0.685007
-0.236815 -0.154526 0.685637
-0.236359 -0.15505 0.686297
-0.235914 -0.155578 0.686982
-0.235505 -0.156118 0.68774
-0.235037 -0.156642 0.688386
-0.234425 -0.157124 0.688759
-0.233804 -0.157604 0.689115
-0.233185 -0.158084 0.689475
-0.232501 -0.158546 0.689709
-0.232827 -0.159318 0.691914
-0.233975 -0.160354 0.695743
-0.235099 -0.161392 0.699548
-0.236124 -0.16241 0.703184
-0.236936 -0.163369 0.706423
-0.23662 -0.163972 0.70744
-0.235569 -0.164337 0.706999
-0.234599 -0.164726 0.706714
-0.233613 -0.165108 0.706394
-0.232651 -0.165497 0.706117
-0.231831 -0.165932 0.706123
-0.230973 -0.166353 0.706051
-0.230128 -0.166778 0.706002
-0.229342 -0.167222 0.706071
-0.228488 -0.167641 0.705998
-0.227584 -0.168041 0.705821
-0.22675 -0.168466 0.705785
-0.226017 -0.168925 0.705957
-0.225165 -0.169341 0.705879
-0.22435 -0.16977 0.705877
-0.223538 -0.170198 0.705878
-0.222661 -0.170602 0.70574
-0.221888 -0.171043 0.70582
-0.221267 -0.171542 0.706219
-0.220724 -0.172071 0.706787
-0.220221 -0.172616 0.707439
-0.21973 -0.173167 0.708123
-0.219126 -0.173675 0.708565
-0.218494 -0.174173 0.708948
-0.217879 -0.174677 0.709368
-0.217244 -0.175174 0.709748
-0.216616 -0.175674 0.710141
-0.21594 -0.176154 0.710432
-0.215254 -0.176631 0.7107
-0.214583 -0.177114 0.711
-0.213903 -0.177593 0.711282
-0.213299 -0.178104 0.711732
-0.212784 -0.178654 0.712384
-0.21227 -0.179206 0.713039
-0.211754 -0.179758 0.713692
-0.211382 -0.180375 0.714674
-0.21109 -0.181029 0.715843
-0.210926 -0.181744 0.71731
-0.210829 -0.182494 0.71894
-0.210809 -0.183283 0.720757
-0.210809 -0.184086 0.72263
-0.210728 -0.184857 0.724331
-0.210499 -0.185564 0.725698
-0.210308 -0.186292 0.727161
-0.246797 -0.148841 0.687069
-0.24588 -0.149248 0.686889
-0.244946 -0.14965 0.686676
-0.243883 -0.150018 0.68622
-0.242755 -0.150366 0.685641
-0.241707 -0.150733 0.685204
-0.240739 -0.151118 0.68491
-0.239803 -0.151511 0.684673
-0.238942 -0.151922 0.684571
-0.238175 -0.152358 0.684645
-0.237441 -0.152803 0.684779
-0.236737 -0.153255 0.684968
-0.236243 -0.153766 0.685555
-0.23574 -0.154276 0.686127
-0.23527 -0.154796 0.686763
-0.234812 -0.15532 0.687427
-0.234318 -0.155835 0.688023
-0.233682 -0.15631 0.688347
-0.233087 -0.156796 0.688751
-0.232451 -0.15727 0.689076
-0.231792 -0.157738 0.689356
-0.23181 -0.158413 0.690961
-0.233001 -0.159455 0.694879
-0.234147 -0.160494 0.698732
-0.235306 -0.161548 0.702637
-0.236191 -0.162526 0.706024
-0.236223 -0.163239 0.707735
-0.235146 -0.163596 0.707239
-0.234146 -0.163977 0.706895
-0.233159 -0.164359 0.706569
-0.232218 -0.164756 0.706334
-0.231399 -0.165191 0.706342
-0.230543 -0.165613 0.706272
-0.2297 -0.166039 0.706226
-0.228892 -0.166476 0.70625
-0.228015 -0.166887 0.706128
-0.227087 -0.167279 0.705901
-0.226228 -0.167695 0.705813
-0.225471 -0.168146 0.705932
-0.224615 -0.16856 0.705846
-0.223819 -0.168996 0.70588
-0.22303 -0.169433 0.705928
-0.222181 -0.169847 0.705847
-0.221432 -0.170297 0.705978
-0.220856 -0.170813 0.706473
-0.220335 -0.17135 0.707088
-0.21984 -0.171898 0.70776
-0.219351 -0.17245 0.708448
-0.218743 -0.172956 0.708883
-0.218087 -0.173444 0.709214
-0.217449 -0.173939 0.709585
-0.216815 -0.174436 0.709966
-0.216206 -0.174944 0.710403
-0.215556 -0.175435 0.710749
-0.214897 -0.175923 0.711078
-0.214277 -0.176427 0.711493
-0.213644 -0.176926 0.711877
-0.213041 -0.177438 0.712333
-0.212543 -0.177996 0.713025
-0.212047 -0.178556 0.713722
-0.211505 -0.179097 0.71432
-0.211088 -0.179694 0.715205
-0.210765 -0.180334 0.716306
-0.210549 -0.181025 0.717658
-0.210407 -0.181753 0.719187
-0.210369 -0.182532 0.720967
-0.210351 -0.183325 0.722805
-0.210274 -0.184096 0.724517
-0.210039 -0.184799 0.725873
-0.209845 -0.185524 0.727334
-0.246326 -0.148105 0.687193
-0.245345 -0.148497 0.686896
-0.244393 -0.148895 0.686647
-0.243341 -0.149265 0.686209
-0.242191 -0.149609 0.685586
-0.241169 -0.149983 0.685196
-0.240226 -0.150376 0.684945
-0.239293 -0.150769 0.684711
-0.238429 -0.15118 0.684604
-0.237659 -0.151616 0.684671
-0.236879 -0.152047 0.684717
-0.236151 -0.152493 0.684859
-0.23563 -0.152996 0.685395
-0.235078 -0.153491 0.685873
-0.234558 -0.153995 0.686413
-0.234072 -0.15451 0.687021
-0.233554 -0.155017 0.687569
-0.232898 -0.155484 0.687851
-0.23233 -0.155977 0.688305
-0.231721 -0.156459 0.688681
-0.231116 -0.156942 0.689067
-0.230842 -0.157526 0.6901
-0.231729 -0.158468 0.693424
-0.234134 -0.160578 0.701385
-0.235092 -0.161572 0.704919
-0.235509 -0.162404 0.707397
-0.234762 -0.162868 0.707559
-0.233718 -0.163235 0.707124
-0.232708 -0.163611 0.706751
-0.23177 -0.164009 0.70652
-0.230953 -0.164445 0.706531
-0.230103 -0.16487 0.706473
-0.229302 -0.16531 0.706512
-0.228497 -0.165748 0.706542
-0.227637 -0.166166 0.706455
-0.226709 -0.16656 0.706226
-0.225848 -0.166975 0.706131
-0.225066 -0.167417 0.7062
-0.224207 -0.167831 0.706105
-0.223409 -0.168266 0.706136
-0.222621 -0.168704 0.706187
-0.221774 -0.169119 0.70611
-0.221003 -0.169562 0.706192
-0.22044 -0.170082 0.706717
-0.21992 -0.170619 0.707333
-0.219399 -0.171157 0.707951
-0.218908 -0.171707 0.708635
-0.218318 -0.17222 0.70911
-0.21764 -0.172699 0.709393
-0.216982 -0.173187 0.709722
-0.216372 -0.173693 0.710154
-0.215767 -0.174202 0.710599
-0.215166 -0.174713 0.711054
-0.214558 -0.175222 0.711496
-0.213989 -0.175747 0.712025
-0.213382 -0.176258 0.712471
-0.212822 -0.176789 0.713024
-0.212303 -0.177337 0.71367
-0.211782 -0.177886 0.714314
-0.211218 -0.178418 0.714864
-0.210778 -0.179005 0.715698
-0.210391 -0.179617 0.716658
-0.210126 -0.180285 0.717901
-0.209955 -0.180999 0.719368
-0.209895 -0.181766 0.7211
-0.209855 -0.182547 0.72289
-0.209794 -0.183324 0.724642
-0.209575 -0.184033 0.726039
-0.209381 -0.184756 0.727501
-0.244779 -0.147739 0.686844
-0.243822 -0.148135 0.686583
-0.24282 -0.148519 0.686236
-0.241695 -0.14887 0.685657
-0.240701 -0.149252 0.685316
-0.23976 -0.149646 0.685069
-0.238848 -0.150046 0.684873
-0.23796 -0.150451 0.684719
-0.237171 -0.150881 0.684748
-0.236347 -0.151301 0.684709
-0.235593 -0.151739 0.684802
-0.235021 -0.152227 0.68524
-0.234419 -0.152707 0.68562
-0.233869 -0.153203 0.686104
-0.233335 -0.153703 0.686617
-0.232815 -0.154207 0.68716
-0.23216 -0.154674 0.687444
-0.231639 -0.15518 0.687988
-0.23106 -0.155669 0.688419
-0.230529 -0.156173 0.688947
-0.229967 -0.156669 0.689417
-0.230497 -0.157498 0.69204
-0.232958 -0.159611 0.700119
-0.234007 -0.160627 0.703836
-0.234794 -0.161571 0.707053
-0.234424 -0.162154 0.70797
-0.233379 -0.162522 0.707532
-0.232348 -0.162892 0.707116
-0.231418 -0.163294 0.7069
-0.230601 -0.163731 0.706911
-0.229773 -0.164163 0.706899
-0.22895 -0.164597 0.706892
-0.228123 -0.165028 0.706877
-0.227241 -0.165439 0.706743
-0.226311 -0.165833 0.706509
-0.225449 -0.166248 0.706414
-0.224669 -0.166692 0.706486
-0.223813 -0.167107 0.706397
-0.223037 -0.167551 0.706473
-0.222273 -0.167998 0.706573
-0.221426 -0.168414 0.706498
-0.220633 -0.168848 0.706533
-0.220064 -0.169366 0.707044
-0.219509 -0.16989 0.707589
-0.218964 -0.170418 0.708154
-0.21845 -0.170959 0.708791
-0.217859 -0.171472 0.709263
-0.217158 -0.171942 0.709498
-0.2165 -0.172429 0.709825
-0.215892 -0.172936 0.710262
-0.215314 -0.173455 0.710765
-0.214782 -0.173993 0.711373
-0.214243 -0.17453 0.711968
-0.213701 -0.175067 0.71256
-0.213116 -0.175587 0.713057
-0.212576 -0.176126 0.713655
-0.212036 -0.176666 0.714258
-0.211496 -0.177208 0.714862
-0.210954 -0.177749 0.715462
-0.210513 -0.178335 0.716298
-0.210104 -0.178938 0.71721
-0.209815 -0.179594 0.718401
-0.209639 -0.180305 0.719861
-0.20955 -0.181058 0.721531
-0.209484 -0.181826 0.723265
-0.209397 -0.18259 0.724962
-0.209175 -0.183296 0.726354
-0.208939 -0.183999 0.72772
-0.244207 -0.14698 0.686779
-0.243259 -0.147379 0.686533
-0.242288 -0.147771 0.686242
-0.241199 -0.148132 0.685727
-0.240232 -0.148521 0.685434
-0.239296 -0.148917 0.685194
-0.238384 -0.149317 0.684996
-0.237518 -0.149729 0.684884
-0.236709 -0.150154 0.684873
-0.235839 -0.150562 0.684748
-0.235058 -0.150993 0.684788
-0.23441 -0.151459 0.685079
-0.233733 -0.151918 0.685318
-0.233136 -0.152399 0.685707
-0.232578 -0.152891 0.686174
-0.232035 -0.153388 0.686669
-0.23138 -0.153854 0.686951
-0.230884 -0.154365 0.687541
-0.230351 -0.154867 0.688061
-0.229892 -0.155391 0.688729
-0.229408 -0.155909 0.68935
-0.229613 -0.156636 0.691336
-0.231663 -0.158529 0.695938
-0.230799 -0.157667 0.695279
-0.232063 -0.158733 0.699404
-0.233194 -0.159769 0.70329
-0.234056 -0.160732 0.706662
-0.234075 -0.161437 0.708361
-0.233026 -0.161804 0.707912
-0.232016 -0.162182 0.707538
-0.231084 -0.162584 0.70732
-0.230249 -0.163016 0.707293
-0.229441 -0.163456 0.70732
-0.228616 -0.163889 0.70731
-0.227766 -0.164313 0.707248
-0.226887 -0.164726 0.70712
-0.225977 -0.165127 0.706926
-0.225119 -0.165545 0.70684
-0.224342 -0.16599 0.706918
-0.223535 -0.166424 0.706931
-0.222763 -0.166869 0.707017
-0.222023 -0.167326 0.707169
-0.221178 -0.167744 0.707098
-0.220381 -0.168178 0.707126
-0.219743 -0.168671 0.707492
-0.219139 -0.169176 0.707931
-0.218524 -0.169677 0.708348
-0.217964 -0.170201 0.708886
-0.217332 -0.170697 0.709268
-0.216629 -0.171166 0.709497
-0.215971 -0.171652 0.709823
-0.215383 -0.172166 0.710303
-0.214829 -0.172695 0.710861
-0.214341 -0.173251 0.711566
-0.213849 -0.173806 0.712267
-0.213351 -0.17436 0.712957
-0.212787 -0.174889 0.713502
-0.212264 -0.175435 0.714139
-0.211723 -0.175975 0.714741
-0.211185 -0.176517 0.715352
-0.210662 -0.177067 0.716001
-0.210224 -0.177655 0.716843
-0.209816 -0.178257 0.71776
-0.209503 -0.178903 0.718902
-0.209301 -0.179601 0.720305
-0.209144 -0.180323 0.721822
-0.209031 -0.181068 0.72345
-0.208918 -0.181818 0.72509
-0.208697 -0.182523 0.726485
-0.243461 -0.146179 0.686393
-0.242568 -0.146592 0.686246
-0.241683 -0.147005 0.68611
-0.240656 -0.147382 0.685708
-0.239745 -0.147786 0.685518
-0.238833 -0.148188 0.685322
-0.237922 -0.14859 0.685125
-0.237057 -0.149002 0.685012
-0.236202 -0.149415 0.684914
-0.235283 -0.14981 0.684693
-0.234449 -0.150227 0.684631
-0.233727 -0.150673 0.68478
-0.233002 -0.151118 0.684923
-0.23238 -0.151591 0.685264
-0.231799 -0.152075 0.685684
-0.231279 -0.152577 0.686222
-0.230646 -0.153048 0.686544
-0.230175 -0.153566 0.687181
-0.229669 -0.154074 0.687754
-0.229234 -0.154604 0.688469
-0.228796 -0.155135 0.68918
-0.228642 -0.155752 0.690455
-0.229884 -0.156793 0.694515
-0.231199 -0.157868 0.698747
-0.232433 -0.15893 0.702845
-0.233365 -0.159909 0.706363
-0.23378 -0.160735 0.70886
-0.232702 -0.161095 0.708353
-0.231689 -0.161473 0.707972
-0.230736 -0.161869 0.707708
-0.229877 -0.162294 0.707633
-0.229063 -0.162732 0.707648
-0.228235 -0.163165 0.707632
-0.227363 -0.163583 0.707523
-0.226505 -0.164004 0.707441
-0.225621 -0.164414 0.707301
-0.224809 -0.164849 0.707308
-0.224039 -0.165297 0.7074
-0.223279 -0.165748 0.707514
-0.22253 -0.166202 0.70765
-0.221814 -0.166668 0.707853
-0.220992 -0.167095 0.707831
-0.220176 -0.167524 0.70782
-0.219514 -0.168008 0.708136
-0.218882 -0.168503 0.708518
-0.218239 -0.168995 0.708877
-0.217636 -0.169502 0.709323
-0.217022 -0.170005 0.709745
-0.216318 -0.170474 0.709972
-0.215655 -0.170959 0.71029
-0.215045 -0.171465 0.710722
-0.214468 -0.171984 0.711231
-0.213959 -0.172531 0.711891
-0.21347 -0.173088 0.712599
-0.212952 -0.173634 0.713246
-0.212388 -0.174162 0.713791
-0.211883 -0.174715 0.714472
-0.21136 -0.175263 0.715116
-0.210823 -0.175805 0.71573
-0.210324 -0.176365 0.716434
-0.209886 -0.176952 0.717279
-0.209478 -0.177554 0.718198
-0.209144 -0.17819 0.719294
-0.208918 -0.178877 0.720646
-0.208734 -0.179585 0.722103
-0.208618 -0.180328 0.723727
-0.208484 -0.181066 0.725321
-0.208263 -0.181771 0.726721
-0.241912 -0.145815 0.686021
-0.241043 -0.146232 0.685913
-0.240103 -0.14663 0.68567
-0.239255 -0.14705 0.685594
-0.238393 -0.147466 0.685491
-0.237462 -0.147863 0.685257
-0.236574 -0.148269 0.685098
-0.235666 -0.148669 0.684899
-0.234673 -0.149045 0.684535
-0.233763 -0.149442 0.684326
-0.232991 -0.149874 0.684377
-0.232263 -0.150317 0.684512
-0.231622 -0.150784 0.684814
-0.231044 -0.151268 0.685236
-0.230522 -0.151768 0.685772
-0.229914 -0.152245 0.68614
-0.229424 -0.152756 0.686738
-0.228943 -0.15327 0.687358
-0.228532 -0.153806 0.688117
-0.228118 -0.154342 0.688874
-0.227628 -0.154857 0.689486
-0.231951 -0.158864 0.704604
-0.232811 -0.159824 0.708
-0.232107 -0.1603 0.708246
-0.231433 -0.160787 0.708552
-0.23043 -0.161167 0.708185
-0.229524 -0.161578 0.708015
-0.228687 -0.162009 0.707981
-0.227876 -0.162449 0.708001
-0.227004 -0.162866 0.70789
-0.226173 -0.163297 0.707863
-0.225336 -0.163725 0.707822
-0.224574 -0.164177 0.707935
-0.223828 -0.164634 0.708078
-0.223109 -0.165101 0.708281
-0.222383 -0.165564 0.708467
-0.221692 -0.16604 0.708725
-0.220893 -0.166477 0.708755
-0.22006 -0.1669 0.708707
-0.219348 -0.167367 0.708918
-0.218666 -0.167845 0.709195
-0.217951 -0.168311 0.709399
-0.217281 -0.168793 0.7097
-0.216664 -0.169295 0.710118
-0.215961 -0.169765 0.710348
-0.215302 -0.170251 0.710673
-0.21469 -0.170756 0.711105
-0.214107 -0.171273 0.7116
-0.213592 -0.171818 0.71225
-0.213099 -0.172372 0.712949
-0.212565 -0.172911 0.71356
-0.212001 -0.17344 0.714109
-0.211515 -0.174001 0.714834
-0.210974 -0.17454 0.715437
-0.210417 -0.175074 0.716007
-0.209938 -0.175642 0.716758
-0.2095 -0.176228 0.717604
-0.209091 -0.176829 0.718525
-0.208754 -0.177463 0.719615
-0.208526 -0.178148 0.720964
-0.208321 -0.178846 0.722377
-0.208182 -0.179577 0.723951
-0.208025 -0.180304 0.725494
-0.20778 -0.180995 0.72684
-0.240416 -0.145463 0.685737
-0.239562 -0.145883 0.685653
-0.238741 -0.146309 0.685627
-0.237882 -0.146726 0.685528
-0.236928 -0.147117 0.685248
-0.23597 -0.147506 0.684955
-0.235009 -0.147892 0.684652
-0.233983 -0.14826 0.684222
-0.233048 -0.14865 0.683962
-0.232279 -0.149083 0.684017
-0.231575 -0.149532 0.684196
-0.230956 -0.150004 0.684538
-0.23038 -0.150487 0.684963
-0.22986 -0.150987 0.6855
-0.229255 -0.151464 0.685873
-0.228767 -0.151974 0.686475
-0.228287 -0.152487 0.687095
-0.227852 -0.153015 0.687809
-0.227434 -0.153548 0.688556
-0.226922 -0.154056 0.689122
-0.228557 -0.155798 0.692926
-0.227494 -0.154886 0.691855
-0.229558 -0.15677 0.696531
-0.228101 -0.155733 0.694674
-0.230707 -0.157877 0.703179
-0.231753 -0.158887 0.706953
-0.231538 -0.159514 0.708188
-0.231275 -0.16013 0.709334
-0.230219 -0.160495 0.708858
-0.22924 -0.160884 0.708538
-0.228353 -0.1613 0.708403
-0.227498 -0.161725 0.708329
-0.226625 -0.162143 0.708217
-0.225799 -0.162576 0.708201
-0.225014 -0.163022 0.708266
-0.22428 -0.163484 0.708439
-0.223556 -0.16395 0.708631
-0.22286 -0.164425 0.708882
-0.222154 -0.164896 0.70911
-0.221466 -0.165373 0.709377
-0.220715 -0.165828 0.70951
-0.219921 -0.166267 0.70955
-0.219187 -0.166727 0.709715
-0.218474 -0.167194 0.709926
-0.217729 -0.16765 0.710068
-0.217008 -0.168114 0.710259
-0.216371 -0.168609 0.710634
-0.215671 -0.16908 0.710873
-0.214995 -0.169561 0.711161
-0.214362 -0.170058 0.711546
-0.213771 -0.170572 0.712027
-0.213208 -0.171097 0.712569
-0.21269 -0.171641 0.713215
-0.212153 -0.172179 0.713821
-0.211611 -0.172716 0.714419
-0.211108 -0.173269 0.715107
-0.210567 -0.173809 0.715713
-0.21003 -0.17435 0.716328
-0.209571 -0.174926 0.717126
-0.209132 -0.175512 0.717975
-0.208745 -0.176122 0.718945
-0.208406 -0.176754 0.720034
-0.208155 -0.177428 0.721334
-0.207907 -0.178106 0.72265
-0.207722 -0.178815 0.724119
-0.207519 -0.179521 0.725558
-0.207249 -0.180199 0.726845
-0.239677 -0.144668 0.685352
-0.238925 -0.145112 0.685455
-0.23813 -0.145545 0.685477
-0.237272 -0.145962 0.685376
-0.236293 -0.146347 0.685047
-0.235306 -0.146729 0.684697
-0.234294 -0.147103 0.684294
-0.233244 -0.147464 0.683814
-0.232292 -0.147849 0.683517
-0.231506 -0.148277 0.683536
-0.230832 -0.148733 0.68377
-0.230218 -0.149205 0.68412
-0.229664 -0.149694 0.684589
-0.229166 -0.150199 0.685166
-0.228583 -0.150681 0.685581
-0.228072 -0.151183 0.686137
-0.22759 -0.151695 0.686752
-0.227128 -0.152213 0.687408
-0.226663 -0.152732 0.688064
-0.226152 -0.153238 0.688628
-0.226349 -0.153953 0.690614
-0.226538 -0.154671 0.692595
-0.229783 -0.157675 0.70405
-0.23014 -0.158473 0.70644
-0.230351 -0.159232 0.70855
-0.229678 -0.159718 0.708857
-0.229029 -0.160212 0.709213
-0.228048 -0.160599 0.708883
-0.227142 -0.161009 0.708707
-0.226292 -0.161435 0.70864
-0.22549 -0.161877 0.708673
-0.224757 -0.162341 0.70885
-0.224074 -0.162821 0.70913
-0.223353 -0.163288 0.70933
-0.222674 -0.163769 0.709618
-0.221968 -0.164241 0.709849
-0.221281 -0.16472 0.710121
-0.220557 -0.165186 0.710313
-0.219788 -0.165634 0.710405
-0.219031 -0.166087 0.710525
-0.218287 -0.166544 0.710671
-0.217492 -0.166983 0.710705
-0.216723 -0.167429 0.710792
-0.216082 -0.167923 0.711161
-0.215405 -0.168404 0.711451
-0.214713 -0.168879 0.711706
-0.214056 -0.169367 0.71204
-0.213439 -0.169871 0.712463
-0.212828 -0.170378 0.7129
-0.212268 -0.170905 0.713453
-0.21173 -0.171442 0.714058
-0.211207 -0.171986 0.714699
-0.210704 -0.172539 0.715388
-0.210184 -0.173087 0.716042
-0.209668 -0.173637 0.716708
-0.20921 -0.174213 0.717508
-0.208751 -0.17479 0.718312
-0.208362 -0.175399 0.719283
-0.208023 -0.17603 0.720372
-0.207753 -0.176695 0.721632
-0.207479 -0.177361 0.72289
-0.207244 -0.178046 0.724244
-0.207029 -0.178745 0.725657
-0.206732 -0.17941 0.726884
-0.239097 -0.143913 0.685261
-0.238352 -0.144358 0.685376
-0.237606 -0.144803 0.685488
-0.23672 -0.145213 0.685334
-0.235692 -0.145587 0.684908
-0.234634 -0.145951 0.684419
-0.233576 -0.146313 0.683926
-0.232506 -0.14667 0.683405
-0.231561 -0.147057 0.683119
-0.230806 -0.147492 0.683195
-0.23016 -0.147955 0.68348
-0.229569 -0.148432 0.683874
-0.229018 -0.148921 0.684345
-0.228519 -0.149424 0.684922
-0.227937 -0.149906 0.685335
-0.227424 -0.150406 0.685886
-0.226916 -0.15091 0.686449
-0.226429 -0.15142 0.687056
-0.225937 -0.151929 0.687656
-0.2254 -0.152427 0.688168
-0.225195 -0.153021 0.689348
-0.225006 -0.153624 0.690566
-0.228703 -0.157425 0.704604
-0.229052 -0.158222 0.706993
-0.228809 -0.158839 0.708179
-0.228522 -0.159446 0.70928
-0.227426 -0.159797 0.708709
-0.22643 -0.160177 0.708341
-0.225936 -0.160719 0.709017
-0.225134 -0.161161 0.70905
-0.224407 -0.161627 0.709238
-0.22375 -0.162116 0.709574
-0.223053 -0.162592 0.709825
-0.222372 -0.163073 0.710111
-0.221686 -0.163553 0.710386
-0.221022 -0.16404 0.710708
-0.220345 -0.164522 0.711001
-0.219604 -0.164982 0.711156
-0.21887 -0.165444 0.711327
-0.218128 -0.165903 0.711479
-0.217324 -0.166339 0.711495
-0.216531 -0.166778 0.711532
-0.21589 -0.167273 0.711902
-0.215192 -0.167747 0.712147
-0.214475 -0.168213 0.712348
-0.213789 -0.168691 0.71262
-0.213147 -0.169186 0.712989
-0.212495 -0.169676 0.713335
-0.211914 -0.170196 0.713842
-0.211351 -0.170723 0.714393
-0.210826 -0.171266 0.715031
-0.210302 -0.17181 0.715674
-0.209806 -0.172367 0.716382
-0.209311 -0.172926 0.717098
-0.208873 -0.17351 0.717949
-0.208438 -0.174096 0.718809
-0.20807 -0.174713 0.71983
-0.207732 -0.175345 0.720927
-0.207437 -0.175998 0.722131
-0.207135 -0.176651 0.723327
-0.20687 -0.177323 0.724615
-0.206648 -0.178017 0.726015
-0.206353 -0.178683 0.727248
-0.238631 -0.143185 0.685382
-0.23787 -0.143627 0.685466
-0.23711 -0.144068 0.68555
-0.236177 -0.144467 0.685307
-0.235098 -0.144829 0.684781
-0.233991 -0.145182 0.684196
-0.232912 -0.145539 0.68366
-0.231825 -0.145893 0.683102
-0.230906 -0.146286 0.682863
-0.230196 -0.146732 0.683023
-0.229552 -0.147195 0.683312
-0.228962 -0.147672 0.683707
-0.22843 -0.148165 0.684215
-0.227912 -0.148662 0.684751
-0.227308 -0.149137 0.685123
-0.226775 -0.149631 0.685634
-0.226242 -0.150126 0.686146
-0.225708 -0.150622 0.686658
-0.22517 -0.151117 0.687163
-0.224629 -0.151612 0.687667
-0.224047 -0.152095 0.688086
-0.223486 -0.152586 0.68855
-0.225641 -0.154474 0.693456
-0.223718 -0.15331 0.690623
-0.226687 -0.156888 0.703236
-0.226573 -0.157539 0.704676
-0.226334 -0.158154 0.705864
-0.225559 -0.158602 0.705947
-0.224936 -0.159098 0.706344
-0.22486 -0.159771 0.707887
-0.22442 -0.160329 0.708674
-0.224048 -0.16091 0.709609
-0.223393 -0.161401 0.709951
-0.222719 -0.161884 0.71025
-0.222037 -0.162365 0.710535
-0.22137 -0.162852 0.710851
-0.220732 -0.163348 0.711228
-0.220102 -0.163847 0.711625
-0.21939 -0.164318 0.711846
-0.21866 -0.164783 0.712025
-0.217875 -0.165227 0.712084
-0.217049 -0.165656 0.712052
-0.216234 -0.166088 0.712043
-0.215573 -0.166575 0.712369
-0.214853 -0.167041 0.712567
-0.214107 -0.167497 0.712705
-0.213393 -0.167965 0.712915
-0.212745 -0.168457 0.713269
-0.212093 -0.168948 0.713618
-0.211515 -0.169469 0.714133
-0.210992 -0.170011 0.714773
-0.210485 -0.170561 0.715454
-0.209961 -0.171105 0.716098
-0.209488 -0.171671 0.716864
-0.209037 -0.172248 0.717682
-0.208605 -0.172834 0.718549
-0.20819 -0.173429 0.719458
-0.207841 -0.174053 0.720527
-0.207482 -0.174676 0.72158
-0.207164 -0.175319 0.722733
-0.206859 -0.17597 0.723925
-0.206569 -0.176631 0.725158
-0.206328 -0.177316 0.726518
-0.206037 -0.177982 0.727763
-0.238184 -0.142462 0.685538
-0.237401 -0.142898 0.685581
-0.236631 -0.143337 0.685645
-0.23565 -0.143726 0.685309
-0.234546 -0.144082 0.684732
-0.233389 -0.144424 0.68405
-0.232284 -0.144776 0.68346
-0.231199 -0.14513 0.682902
-0.230281 -0.145524 0.682663
-0.229574 -0.14597 0.682828
-0.228927 -0.146431 0.68311
-0.228335 -0.146907 0.683498
-0.227781 -0.147393 0.683962
-0.227262 -0.147889 0.684496
-0.226659 -0.148363 0.684867
-0.226124 -0.148856 0.685374
-0.225591 -0.14935 0.685884
-0.225035 -0.149839 0.686352
-0.224472 -0.150326 0.686806
-0.223908 -0.150813 0.687261
-0.223304 -0.151289 0.687635
-0.222744 -0.151779 0.688101
-0.2226 -0.15239 0.689409
-0.223951 -0.154041 0.692711
-0.222441 -0.153 0.690697
-0.22385 -0.156779 0.701818
-0.223166 -0.15725 0.702074
-0.222936 -0.157864 0.703277
-0.223285 -0.158666 0.705704
-0.223277 -0.159359 0.707393
-0.223309 -0.16007 0.709178
-0.223008 -0.160675 0.710266
-0.222332 -0.161158 0.710564
-0.221651 -0.16164 0.710849
-0.221007 -0.162134 0.711216
-0.220372 -0.162631 0.711601
-0.219748 -0.163133 0.712012
-0.219102 -0.163627 0.712374
-0.218396 -0.164101 0.712608
-0.217588 -0.164538 0.712619
-0.216801 -0.164981 0.712672
-0.216006 -0.165421 0.712707
-0.215307 -0.165896 0.712951
-0.214585 -0.166362 0.713146
-0.213831 -0.166815 0.713267
-0.213068 -0.167265 0.713368
-0.212399 -0.16775 0.713677
-0.211731 -0.168235 0.713989
-0.211131 -0.168747 0.714457
-0.210608 -0.169289 0.715097
-0.210099 -0.169838 0.715776
-0.209578 -0.170383 0.716429
-0.209152 -0.170967 0.717301
-0.208747 -0.171562 0.718228
-0.208338 -0.172157 0.719152
-0.207944 -0.172761 0.720114
-0.207596 -0.173385 0.721188
-0.207214 -0.173998 0.72219
-0.206871 -0.174631 0.72329
-0.206565 -0.175281 0.724482
-0.206278 -0.175942 0.725727
-0.206045 -0.17663 0.727109
-0.205779 -0.177307 0.72842
-0.237767 -0.141745 0.68575
-0.236972 -0.14218 0.68577
-0.236174 -0.142613 0.685782
-0.235149 -0.142991 0.685358
-0.234022 -0.143343 0.684737
-0.232836 -0.143679 0.683996
-0.231686 -0.14402 0.683315
-0.230579 -0.14437 0.682713
-0.229641 -0.144758 0.682431
-0.228911 -0.145198 0.682549
-0.228219 -0.145648 0.682742
-0.227602 -0.146116 0.683081
-0.227023 -0.146594 0.683493
-0.226524 -0.147094 0.684065
-0.225946 -0.147574 0.684484
-0.225414 -0.148067 0.684994
-0.224881 -0.14856 0.685503
-0.22432 -0.149046 0.68596
-0.223735 -0.149526 0.686369
-0.223171 -0.150011 0.68682
-0.222588 -0.150493 0.687236
-0.222054 -0.150988 0.68775
-0.221517 -0.151484 0.688262
-0.220958 -0.151974 0.688729
-0.221269 -0.155386 0.697549
-0.220629 -0.155864 0.697881
-0.221361 -0.158146 0.704472
-0.221803 -0.158983 0.707119
-0.221895 -0.159712 0.709036
-0.221575 -0.16031 0.710088
-0.221222 -0.1609 0.711074
-0.220602 -0.161402 0.711491
-0.219991 -0.161907 0.711929
-0.219393 -0.162418 0.712397
-0.218768 -0.16292 0.712806
-0.218083 -0.1634 0.713085
-0.217271 -0.163837 0.713087
-0.216503 -0.164288 0.713184
-0.215707 -0.164729 0.713216
-0.214989 -0.165197 0.71342
-0.214266 -0.165662 0.713613
-0.21351 -0.166116 0.71373
-0.212726 -0.166558 0.713784
-0.212056 -0.167043 0.714092
-0.211409 -0.167536 0.714452
-0.210811 -0.168049 0.714925
-0.210287 -0.168591 0.715568
-0.209778 -0.16914 0.716247
-0.209282 -0.169694 0.716958
-0.208878 -0.170287 0.717885
-0.2085 -0.170893 0.718878
-0.208115 -0.171498 0.719859
-0.207741 -0.17211 0.720873
-0.207369 -0.172724 0.721894
-0.206982 -0.173335 0.722889
-0.20662 -0.173959 0.723946
-0.206312 -0.174608 0.725139
-0.20603 -0.175271 0.7264
-0.205819 -0.175968 0.727838
-0.23739 -0.141038 0.686039
-0.236531 -0.141458 0.685936
-0.235696 -0.141883 0.685877
-0.234626 -0.142252 0.685366
-0.233488 -0.142602 0.684721
-0.232256 -0.142928 0.683888
-0.231082 -0.143264 0.683158
-0.229973 -0.143614 0.682548
-0.229016 -0.143998 0.682228
-0.228285 -0.144438 0.682342
-0.227588 -0.144885 0.682522
-0.226968 -0.145352 0.682853
-0.226368 -0.145824 0.683225
-0.22585 -0.146318 0.683758
-0.225251 -0.146791 0.684132
-0.224697 -0.147277 0.684599
-0.224145 -0.147764 0.685068
-0.223565 -0.148243 0.685484
-0.22298 -0.148722 0.685891
-0.222416 -0.149207 0.686341
-0.221836 -0.149688 0.68676
-0.2213 -0.150181 0.687269
-0.220763 -0.150676 0.687779
-0.220204 -0.151164 0.688244
-0.221273 -0.152722 0.690991
-0.220095 -0.151785 0.689636
-0.221619 -0.153486 0.693329
-0.219996 -0.152412 0.691057
-0.221381 -0.154079 0.694478
-0.219393 -0.152892 0.691442
-0.221376 -0.154747 0.696115
-0.21905 -0.15345 0.692368
-0.218652 -0.153994 0.693186
-0.218125 -0.1545 0.693736
-0.219828 -0.157751 0.704052
-0.220314 -0.158601 0.706802
-0.220399 -0.159327 0.708713
-0.220425 -0.160038 0.710507
-0.220154 -0.160655 0.711674
-0.219567 -0.161169 0.712164
-0.218991 -0.161686 0.712679
-0.218387 -0.162195 0.713137
-0.217723 -0.162684 0.713463
-0.216915 -0.163122 0.713473
-0.216169 -0.163582 0.713619
-0.215394 -0.16403 0.713697
-0.214655 -0.164491 0.713856
-0.213909 -0.164949 0.713997
-0.213153 -0.165403 0.714114
-0.212392 -0.165854 0.71422
-0.211728 -0.166341 0.714542
-0.211103 -0.166844 0.714954
-0.210542 -0.167371 0.715513
-0.210037 -0.16792 0.7162
-0.20953 -0.168469 0.716887
-0.209054 -0.169032 0.717647
-0.208673 -0.169634 0.718629
-0.208297 -0.170241 0.71963
-0.207912 -0.170845 0.720616
-0.207537 -0.171457 0.72163
-0.207141 -0.172062 0.722601
-0.206731 -0.172663 0.723545
-0.206364 -0.173285 0.724595
-0.206056 -0.173933 0.72579
-0.205774 -0.174596 0.727055
-0.205581 -0.1753 0.728543
-0.235107 -0.141128 0.685761
-0.233965 -0.141481 0.685109
-0.232801 -0.141826 0.68441
-0.231562 -0.142151 0.683559
-0.230403 -0.142492 0.682855
-0.229322 -0.142848 0.682295
-0.228343 -0.143228 0.681928
-0.227588 -0.143661 0.681994
-0.226868 -0.144102 0.682127
-0.226226 -0.144562 0.682413
-0.225606 -0.145028 0.682743
-0.225089 -0.145521 0.683276
-0.22449 -0.145993 0.683649
-0.223916 -0.146472 0.684073
-0.223339 -0.146951 0.68449
-0.222736 -0.147423 0.684857
-0.22213 -0.147894 0.685219
-0.221568 -0.148378 0.685671
-0.221015 -0.148865 0.68614
-0.220482 -0.149358 0.686653
-0.219945 -0.149851 0.68716
-0.219381 -0.150336 0.687613
-0.218838 -0.150829 0.68811
-0.2183 -0.151323 0.68862
-0.217723 -0.151807 0.68905
-0.217115 -0.152281 0.689417
-0.216473 -0.152746 0.689714
-0.216081 -0.153287 0.690534
-0.218052 -0.155147 0.695242
-0.216074 -0.153948 0.69217
-0.218367 -0.157379 0.703773
-0.218897 -0.158242 0.706629
-0.219357 -0.15909 0.709355
-0.219488 -0.159837 0.711388
-0.219227 -0.160458 0.712583
-0.218629 -0.160968 0.71305
-0.218024 -0.161477 0.713507
-0.217362 -0.161966 0.713838
-0.216562 -0.162408 0.713865
-0.215842 -0.162877 0.714069
-0.215092 -0.163335 0.714202
-0.214328 -0.163787 0.714306
-0.213578 -0.164244 0.714439
-0.21282 -0.164698 0.714553
-0.212063 -0.165152 0.714668
-0.211405 -0.165641 0.715005
-0.210801 -0.166152 0.715465
-0.210263 -0.166687 0.716078
-0.209799 -0.167252 0.716861
-0.209317 -0.167811 0.717607
-0.208882 -0.168391 0.718467
-0.20852 -0.169 0.719498
-0.20814 -0.169605 0.720493
-0.20773 -0.1702 0.721425
-0.207333 -0.170803 0.722393
-0.206913 -0.171398 0.723311
-0.206502 -0.171999 0.724254
-0.206152 -0.172627 0.725349
-0.205846 -0.173276 0.726553
-0.205559 -0.173936 0.727811
-0.205342 -0.17463 0.729247
-0.234364 -0.14034 0.685348
-0.233141 -0.140675 0.684537
-0.231972 -0.141019 0.683823
-0.230744 -0.141346 0.682987
-0.229634 -0.141699 0.682374
-0.2286 -0.142067 0.681902
-0.227627 -0.142448 0.681544
-0.226873 -0.142881 0.681608
-0.226172 -0.143326 0.681776
-0.225531 -0.143786 0.682062
-0.224894 -0.144246 0.682355
-0.224376 -0.144738 0.682885
-0.223772 -0.145208 0.683247
-0.223171 -0.145679 0.683615
-0.222549 -0.146144 0.68394
-0.221943 -0.146614 0.684298
-0.221335 -0.147084 0.684654
-0.220755 -0.147562 0.685067
-0.220182 -0.148042 0.685494
-0.219651 -0.148534 0.686009
-0.219114 -0.149025 0.686513
-0.218551 -0.149509 0.686966
-0.21801 -0.150001 0.687465
-0.217516 -0.150506 0.688061
-0.216986 -0.151002 0.688588
-0.21641 -0.151485 0.689019
-0.215821 -0.151965 0.689425
-0.215184 -0.15243 0.689729
-0.214841 -0.152986 0.690656
-0.216137 -0.154636 0.693964
-0.214545 -0.153558 0.691687
-0.216595 -0.155451 0.696607
-0.214632 -0.154251 0.693536
-0.217656 -0.158638 0.708572
-0.217773 -0.159378 0.71058
-0.217534 -0.160005 0.711823
-0.217296 -0.160635 0.713077
-0.216979 -0.16124 0.714164
-0.216227 -0.161699 0.714299
-0.215537 -0.162179 0.714567
-0.21481 -0.162646 0.714755
-0.214021 -0.16309 0.714804
-0.213266 -0.163546 0.714925
-0.212502 -0.163998 0.715026
-0.211769 -0.164461 0.715196
-0.211116 -0.164953 0.715545
-0.210536 -0.165472 0.716062
-0.210017 -0.166015 0.716721
-0.209557 -0.166582 0.717517
-0.209083 -0.167144 0.718284
-0.208674 -0.167734 0.719205
-0.20831 -0.168342 0.720236
-0.207921 -0.168944 0.721215
-0.207508 -0.169538 0.722143
-0.207107 -0.170138 0.723104
-0.206687 -0.170733 0.724025
-0.206315 -0.17135 0.725066
-0.205968 -0.17198 0.726173
-0.205662 -0.172629 0.727383
-0.205376 -0.17329 0.728648
-0.231048 -0.140192 0.683051
-0.229882 -0.140534 0.68233
-0.228827 -0.1409 0.681816
-0.227839 -0.141279 0.68143
-0.226911 -0.14167 0.681155
-0.226181 -0.142108 0.681264
-0.225484 -0.142553 0.681438
-0.224866 -0.143018 0.681767
-0.224229 -0.143478 0.68206
-0.223688 -0.143963 0.682543
-0.223039 -0.14442 0.682813
-0.222392 -0.144878 0.683085
-0.221724 -0.145331 0.683316
-0.221094 -0.145793 0.683623
-0.220465 -0.146256 0.683933
-0.219904 -0.146737 0.684382
-0.219352 -0.147221 0.684849
-0.218823 -0.147712 0.685365
-0.218286 -0.148202 0.685867
-0.217725 -0.148685 0.686319
-0.217184 -0.149175 0.686817
-0.216694 -0.14968 0.68742
-0.216191 -0.150182 0.688
-0.215664 -0.150678 0.68853
-0.215122 -0.151171 0.689032
-0.214533 -0.15165 0.689437
-0.213906 -0.152118 0.689762
-0.21332 -0.152598 0.690175
-0.213063 -0.153181 0.691288
-0.215126 -0.155077 0.696267
-0.213178 -0.153882 0.693204
-0.215865 -0.158155 0.707576
-0.216061 -0.15892 0.709762
-0.216217 -0.159677 0.711875
-0.216273 -0.160406 0.713781
-0.215888 -0.160989 0.714724
-0.215201 -0.16147 0.715001
-0.214477 -0.161938 0.715194
-0.213706 -0.16239 0.715284
-0.212948 -0.162845 0.7154
-0.212183 -0.163298 0.715499
-0.211473 -0.163769 0.715721
-0.210819 -0.164261 0.716069
-0.210238 -0.16478 0.716586
-0.209739 -0.165331 0.717291
-0.209304 -0.165906 0.718147
-0.208876 -0.166487 0.719024
-0.208496 -0.167087 0.720015
-0.20815 -0.167703 0.721094
-0.207759 -0.168303 0.722073
-0.207341 -0.168895 0.722992
-0.20692 -0.169489 0.723911
-0.206503 -0.170085 0.724845
-0.206152 -0.170711 0.725939
-0.20581 -0.171342 0.727061
-0.205508 -0.171993 0.728285
-0.22998 -0.139335 0.681994
-0.228964 -0.139712 0.681558
-0.228043 -0.140108 0.681301
-0.227141 -0.140506 0.681076
-0.226262 -0.14091 0.680896
-0.22556 -0.141354 0.681058
-0.22491 -0.14181 0.681322
-0.224296 -0.142275 0.681659
-0.223658 -0.142735 0.681948
-0.223071 -0.143207 0.682339
-0.222376 -0.143652 0.682515
-0.221684 -0.144098 0.682696
-0.220993 -0.144543 0.682877
-0.220343 -0.145 0.683141
-0.219692 -0.145456 0.683405
-0.219112 -0.145931 0.683812
-0.218557 -0.146413 0.684272
-0.218006 -0.146896 0.68474
-0.217471 -0.147385 0.685242
-0.216931 -0.147873 0.685737
-0.216394 -0.148362 0.68624
-0.215904 -0.148866 0.686842
-0.215439 -0.149377 0.687497
-0.214933 -0.149878 0.688071
-0.214414 -0.150376 0.68862
-0.213869 -0.150867 0.689115
-0.213266 -0.151341 0.68949
-0.212728 -0.151835 0.690002
-0.21219 -0.15233 0.690517
-0.211976 -0.152926 0.691728
-0.213681 -0.15471 0.695968
-0.212113 -0.153634 0.693702
-0.21476 -0.158597 0.709833
-0.215223 -0.159457 0.712634
-0.21523 -0.16017 0.714442
-0.214862 -0.160759 0.715427
-0.214134 -0.161227 0.715612
-0.213364 -0.161679 0.715704
-0.212609 -0.162136 0.715826
-0.211848 -0.16259 0.715936
-0.211159 -0.16307 0.716206
-0.210504 -0.163562 0.716553
-0.20992 -0.16408 0.717064
-0.209417 -0.164629 0.717764
-0.209002 -0.165212 0.718668
-0.208577 -0.165793 0.719555
-0.2082 -0.166394 0.720556
-0.207875 -0.167017 0.721687
-0.207507 -0.167626 0.722721
-0.207092 -0.16822 0.723652
-0.206696 -0.168823 0.724633
-0.2063 -0.169427 0.725619
-0.205953 -0.170054 0.726726
-0.20561 -0.170686 0.727852
-0.228037 -0.13889 0.680763
-0.227268 -0.139319 0.680797
-0.226431 -0.139733 0.680697
-0.22562 -0.140152 0.680647
-0.224944 -0.140602 0.680859
-0.224302 -0.141059 0.681139
-0.22369 -0.141525 0.681478
-0.223051 -0.141983 0.681763
-0.22244 -0.142448 0.682104
-0.221739 -0.142892 0.682268
-0.221046 -0.143337 0.682443
-0.220355 -0.143782 0.682624
-0.219706 -0.144238 0.682889
-0.219058 -0.144694 0.683157
-0.218456 -0.145162 0.683516
-0.21788 -0.145637 0.683931
-0.217307 -0.146114 0.684354
-0.216751 -0.146596 0.684811
-0.216212 -0.147083 0.685305
-0.215694 -0.147576 0.685847
-0.215225 -0.148084 0.68649
-0.21478 -0.1486 0.687189
-0.214289 -0.149104 0.687793
-0.213769 -0.149601 0.688337
-0.213224 -0.150091 0.688831
-0.212622 -0.150564 0.689205
-0.212127 -0.15107 0.689809
-0.211618 -0.151573 0.690384
-0.211127 -0.152082 0.691002
-0.210934 -0.152685 0.692264
-0.212291 -0.15436 0.695777
-0.210775 -0.153301 0.693607
-0.212456 -0.155088 0.697837
-0.210567 -0.153905 0.694853
-0.213252 -0.157506 0.707668
-0.214113 -0.158492 0.711347
-0.21451 -0.159332 0.71402
-0.21448 -0.160034 0.715758
-0.213726 -0.160492 0.715887
-0.212957 -0.160945 0.71598
-0.212248 -0.161419 0.716207
-0.211539 -0.161892 0.716433
-0.210875 -0.162381 0.716761
-0.21024 -0.16288 0.717156
-0.209649 -0.163396 0.717653
-0.209122 -0.163936 0.718298
-0.208683 -0.16451 0.719151
-0.208257 -0.16509 0.720038
-0.207897 -0.165698 0.721083
-0.207597 -0.16633 0.722274
-0.207273 -0.166956 0.723415
-0.206907 -0.167568 0.724465
-0.206535 -0.16818 0.725506
-0.206161 -0.168794 0.726551
-0.205809 -0.169419 0.727651
-0.20544 -0.17004 0.728719
-0.22805 -0.137678 0.680263
-0.227318 -0.138117 0.680369
-0.226591 -0.138556 0.680484
-0.225811 -0.138982 0.680493
-0.225051 -0.139412 0.680539
-0.224399 -0.139867 0.680799
-0.22378 -0.14033 0.681122
-0.223167 -0.140795 0.681459
-0.222526 -0.141252 0.68174
-0.221911 -0.141717 0.682074
-0.221214 -0.142161 0.682241
-0.220521 -0.142605 0.682418
-0.219813 -0.143046 0.682562
-0.219164 -0.143501 0.682826
-0.218516 -0.143957 0.683093
-0.217893 -0.144419 0.68341
-0.217296 -0.144889 0.68378
-0.216717 -0.145363 0.68419
-0.21614 -0.145838 0.684603
-0.215579 -0.146318 0.68505
-0.215065 -0.146812 0.685598
-0.214577 -0.147313 0.686201
-0.214111 -0.147822 0.686854
-0.213601 -0.148319 0.687418
-0.21306 -0.148809 0.687916
-0.212512 -0.149297 0.688403
-0.211929 -0.149774 0.688814
-0.211473 -0.150291 0.689499
-0.211006 -0.150805 0.690165
-0.210582 -0.151334 0.690926
-0.210089 -0.151842 0.691541
-0.209605 -0.152355 0.692178
-0.209061 -0.152849 0.692686
-0.210739 -0.154632 0.696933
-0.208883 -0.153461 0.693999
-0.212994 -0.157527 0.710032
-0.213782 -0.158492 0.713578
-0.214098 -0.159308 0.716092
-0.213319 -0.159758 0.716164
-0.21255 -0.160211 0.716255
-0.211908 -0.160708 0.716634
-0.21127 -0.161207 0.717024
-0.210656 -0.161714 0.717468
-0.210065 -0.16223 0.717965
-0.209492 -0.162753 0.718505
-0.208922 -0.163278 0.719055
-0.208437 -0.163835 0.719804
-0.207984 -0.164405 0.720631
-0.207599 -0.165002 0.721621
-0.207318 -0.165641 0.722861
-0.207063 -0.166293 0.724169
-0.206749 -0.166925 0.725344
-0.206424 -0.167556 0.726503
-0.206087 -0.168184 0.727638
-0.205709 -0.168799 0.728683
-0.207104 -0.170127 0.73399
-0.227434 -0.13693 0.680072
-0.226722 -0.137373 0.680214
-0.226013 -0.137815 0.680362
-0.225266 -0.138249 0.680434
-0.224529 -0.138685 0.680526
-0.223878 -0.13914 0.680785
-0.223236 -0.139597 0.681062
-0.222596 -0.140054 0.681345
-0.221933 -0.140506 0.681581
-0.221303 -0.140966 0.681881
-0.22061 -0.141411 0.682057
-0.219922 -0.141856 0.682242
-0.219236 -0.142302 0.682428
-0.218587 -0.142757 0.682692
-0.217959 -0.143217 0.682997
-0.217336 -0.143679 0.683313
-0.216757 -0.144153 0.683721
-0.216159 -0.144621 0.684089
-0.215575 -0.145094 0.684487
-0.214992 -0.145567 0.684889
-0.214476 -0.146059 0.685431
-0.213973 -0.146556 0.686002
-0.21351 -0.147064 0.686661
-0.212999 -0.14756 0.68722
-0.212455 -0.148048 0.687713
-0.211888 -0.148529 0.688156
-0.211304 -0.149006 0.688567
-0.210848 -0.149521 0.689252
-0.210381 -0.150035 0.689916
-0.209997 -0.150574 0.690762
-0.209546 -0.151094 0.691467
-0.20913 -0.151627 0.692252
-0.208651 -0.152141 0.692903
-0.208194 -0.152664 0.693606
-0.20904 -0.154183 0.696053
-0.207977 -0.153263 0.694839
-0.212321 -0.157412 0.711493
-0.213013 -0.158347 0.714846
-0.212575 -0.158911 0.715681
-0.212161 -0.159484 0.716572
-0.211587 -0.160004 0.717107
-0.211023 -0.160528 0.717665
-0.210443 -0.161048 0.718189
-0.209896 -0.16158 0.71879
-0.209321 -0.162103 0.719329
-0.208704 -0.162611 0.719774
-0.208196 -0.16316 0.720472
-0.207759 -0.163736 0.72134
-0.207371 -0.164332 0.722325
-0.207113 -0.164979 0.723624
-0.206905 -0.165648 0.725046
-0.206617 -0.16629 0.72629
-0.206317 -0.166931 0.727513
-0.205979 -0.16756 0.728652
-0.226966 -0.136215 0.680164
-0.226242 -0.136655 0.680283
-0.225547 -0.1371 0.680457
-0.224789 -0.137532 0.680509
-0.224056 -0.137969 0.680606
-0.223403 -0.138423 0.680862
-0.222732 -0.138873 0.681081
-0.222048 -0.13932 0.681274
-0.221361 -0.139766 0.681461
-0.220732 -0.140226 0.681763
-0.220045 -0.140671 0.681949
-0.219382 -0.141123 0.682182
-0.218716 -0.141573 0.682409
-0.218066 -0.142028 0.68267
-0.217437 -0.142487 0.682972
-0.216817 -0.142949 0.683294
-0.216221 -0.143418 0.683665
-0.215602 -0.14388 0.68399
-0.214995 -0.144347 0.684339
-0.214408 -0.144818 0.684732
-0.213873 -0.145304 0.685234
-0.213368 -0.145799 0.6858
-0.212924 -0.146312 0.686497
-0.21243 -0.146812 0.687093
-0.211889 -0.147299 0.687589
-0.211323 -0.14778 0.688036
-0.210761 -0.148263 0.688491
-0.210288 -0.148772 0.689139
-0.209818 -0.149283 0.689797
-0.209432 -0.149821 0.690638
-0.209022 -0.150352 0.691433
-0.208651 -0.150898 0.692317
-0.208219 -0.151426 0.693072
-0.207785 -0.151955 0.693825
-0.207266 -0.152458 0.694394
-0.208911 -0.154235 0.698622
-0.207804 -0.153299 0.697307
-0.211842 -0.157362 0.713402
-0.211805 -0.158056 0.715136
-0.211774 -0.158757 0.716894
-0.211249 -0.159293 0.71754
-0.210736 -0.159835 0.718217
-0.210207 -0.160373 0.71886
-0.209702 -0.160919 0.71956
-0.209125 -0.161442 0.720098
-0.208505 -0.16195 0.720537
-0.207996 -0.162499 0.721236
-0.207537 -0.163067 0.722057
-0.207171 -0.163671 0.723097
-0.206934 -0.164326 0.724451
-0.206771 -0.165011 0.725985
-0.20651 -0.165664 0.727298
-0.206251 -0.16632 0.728624
-0.226462 -0.135492 0.680187
-0.225758 -0.135936 0.680344
-0.225078 -0.136385 0.680547
-0.22432 -0.136817 0.680597
-0.223585 -0.137253 0.68069
-0.22293 -0.137707 0.68094
-0.222214 -0.138146 0.681069
-0.221505 -0.138588 0.681212
-0.220793 -0.139027 0.681346
-0.220161 -0.139486 0.681642
-0.219474 -0.139931 0.681826
-0.218833 -0.140387 0.682103
-0.218151 -0.140834 0.682298
-0.217499 -0.141287 0.682553
-0.21687 -0.141746 0.682854
-0.216251 -0.142208 0.683176
-0.215641 -0.142673 0.683518
-0.215043 -0.14314 0.683884
-0.214435 -0.143605 0.684231
-0.213844 -0.144075 0.684615
-0.213309 -0.144561 0.685116
-0.212823 -0.14506 0.685721
-0.212379 -0.145571 0.686419
-0.211905 -0.146076 0.687056
-0.211365 -0.146563 0.687554
-0.210821 -0.14705 0.688048
-0.210283 -0.147539 0.688554
-0.20979 -0.148042 0.689161
-0.209319 -0.148552 0.689815
-0.208946 -0.149092 0.690686
-0.208538 -0.149623 0.691486
-0.208194 -0.150176 0.69243
-0.207809 -0.150717 0.693287
-0.207397 -0.151253 0.694091
-0.206876 -0.151755 0.694658
-0.207032 -0.152472 0.696728
-0.208385 -0.154161 0.700337
-0.207166 -0.153187 0.698766
-0.210291 -0.156256 0.711092
-0.210687 -0.157088 0.7138
-0.211094 -0.157931 0.716552
-0.210911 -0.158582 0.717976
-0.210449 -0.159141 0.718771
-0.209962 -0.159693 0.719512
-0.209476 -0.160247 0.720258
-0.208872 -0.16076 0.720737
-0.208251 -0.161269 0.721177
-0.207744 -0.161818 0.721883
-0.20729 -0.162388 0.722718
-0.20693 -0.162994 0.723777
-0.206734 -0.163663 0.72523
-0.206593 -0.164356 0.726822
-0.206351 -0.165016 0.728187
-0.226064 -0.134792 0.680417
-0.225357 -0.135236 0.680567
-0.224653 -0.13568 0.680723
-0.22389 -0.136111 0.680762
-0.223112 -0.136538 0.680769
-0.222434 -0.136986 0.680974
-0.221697 -0.137421 0.68106
-0.220967 -0.137857 0.681159
-0.220231 -0.138291 0.681244
-0.219574 -0.138744 0.681488
-0.218863 -0.139183 0.681623
-0.218203 -0.139634 0.681858
-0.217521 -0.14008 0.68205
-0.216872 -0.140533 0.682309
-0.216243 -0.140992 0.682609
-0.215643 -0.141458 0.68297
-0.215053 -0.141926 0.683351
-0.214479 -0.142399 0.683767
-0.213892 -0.142869 0.684156
-0.213324 -0.143345 0.684588
-0.212768 -0.143824 0.685044
-0.212283 -0.144323 0.685653
-0.211819 -0.144828 0.686307
-0.211347 -0.145332 0.686948
-0.210811 -0.145819 0.687455
-0.21029 -0.146312 0.687996
-0.209772 -0.146806 0.688546
-0.209277 -0.147307 0.689148
-0.208826 -0.147822 0.689846
-0.208472 -0.148367 0.690759
-0.208087 -0.148904 0.69161
-0.207725 -0.14945 0.692514
-0.207379 -0.150003 0.69346
-0.206967 -0.150537 0.694264
-0.206446 -0.15104 0.694832
-0.206255 -0.151646 0.696134
-0.206022 -0.152242 0.697353
-0.207977 -0.154125 0.70233
-0.206453 -0.153052 0.700067
-0.208772 -0.155167 0.708842
-0.209567 -0.156123 0.712451
-0.210393 -0.1571 0.716158
-0.210572 -0.15787 0.71841
-0.210137 -0.158438 0.71927
-0.209669 -0.158996 0.720056
-0.209198 -0.159555 0.720841
-0.208591 -0.160068 0.721312
-0.207971 -0.160577 0.721757
-0.207488 -0.161135 0.722522
-0.207039 -0.161706 0.723372
-0.206655 -0.162304 0.724379
-0.206457 -0.162971 0.72583
-0.208132 -0.164336 0.731748
-0.224931 -0.134531 0.680743
-0.224203 -0.134969 0.68085
-0.223435 -0.135399 0.680878
-0.222655 -0.135826 0.680879
-0.221953 -0.136269 0.681036
-0.2212 -0.136701 0.681088
-0.22045 -0.137132 0.681147
-0.219671 -0.137557 0.681144
