ply
format ascii 1.0
element vertex 1670
property float x
property float y
property float z
end_header
0.0759668 -0.116125 0.60994
0.0750825 -0.116601 0.608528
0.0742246 -0.117119 0.607371
0.0733829 -0.117659 0.606363
0.0725895 -0.118288 0.605881
0.0718077 -0.118938 0.605521
0.0710252 -0.119584 0.605143
0.0702327 -0.120207 0.60464
0.0694474 -0.120841 0.604207
0.0686494 -0.121445 0.603606
0.0678608 -0.122065 0.603109
0.0670537 -0.122639 0.60236
0.0662566 -0.123231 0.601719
0.0654621 -0.123824 0.60109
0.0646882 -0.124464 0.600722
0.0639221 -0.125119 0.600441
0.0631694 -0.125807 0.600339
0.0624036 -0.12646 0.600052
0.0616368 -0.127109 0.599743
0.0608662 -0.127744 0.599366
0.0600971 -0.128381 0.599004
0.0593343 -0.129032 0.598721
0.0585845 -0.129719 0.598621
0.0578343 -0.130406 0.598526
0.0570731 -0.131057 0.598245
0.0563257 -0.13175 0.59818
0.0555752 -0.132432 0.598062
0.0548303 -0.133132 0.598036
0.0540899 -0.133847 0.598081
0.0533586 -0.134596 0.598294
0.0526162 -0.135308 0.598323
0.0518935 -0.136092 0.598703
0.0511706 -0.136882 0.599108
0.0504486 -0.137679 0.599544
0.0497274 -0.138487 0.600024
0.0490011 -0.139278 0.600419
0.0482614 -0.140019 0.600569
0.0475219 -0.140762 0.600727
0.0467795 -0.141495 0.600838
0.0460421 -0.142252 0.601058
0.0453089 -0.143036 0.601401
0.0445779 -0.143835 0.601812
0.0438493 -0.144652 0.602297
0.0431137 -0.145442 0.602658
0.0423798 -0.146246 0.603071
0.0416619 -0.147149 0.603935
0.0409393 -0.148042 0.604742
0.0402138 -0.14893 0.605518
0.0394999 -0.149907 0.606682
0.0387741 -0.15083 0.607596
0.0380382 -0.151696 0.608247
0.0373101 -0.152634 0.609203
0.0365757 -0.153544 0.610034
0.0358306 -0.154387 0.61056
0.0350755 -0.155162 0.610789
0.0343193 -0.155929 0.610978
0.0842708 -0.111662 0.617693
0.0834206 -0.112254 0.616861
0.082583 -0.11286 0.616134
0.0816806 -0.113358 0.614748
0.0808148 -0.113907 0.613694
0.0799903 -0.11452 0.613036
0.079171 -0.115137 0.612417
0.0783592 -0.115764 0.61186
0.0775048 -0.116311 0.610844
0.0766077 -0.116775 0.609345
0.0757144 -0.117235 0.607847
0.0748509 -0.117742 0.606642
0.073999 -0.118263 0.605532
0.0732182 -0.118916 0.605189
0.0724481 -0.119589 0.604963
0.0716709 -0.120246 0.604653
0.0708884 -0.120889 0.604268
0.0701123 -0.121544 0.603951
0.0693184 -0.122158 0.603413
0.0685351 -0.122791 0.602987
0.0677312 -0.123375 0.602295
0.0669324 -0.123966 0.601648
0.0661357 -0.124556 0.601008
0.0653573 -0.125187 0.600588
0.0645904 -0.125842 0.600308
0.0638426 -0.126543 0.600271
0.0630718 -0.127186 0.59993
0.0623002 -0.127823 0.599558
0.0615274 -0.128454 0.599164
0.0607573 -0.12909 0.598795
0.0599903 -0.129731 0.598456
0.0592439 -0.130429 0.598417
0.0584935 -0.131116 0.598322
0.0577276 -0.131755 0.597981
0.0569763 -0.132436 0.597853
0.0562253 -0.133117 0.597734
0.0554808 -0.133819 0.597714
0.0547439 -0.134547 0.59782
0.054016 -0.135308 0.59809
0.0532733 -0.136019 0.598114
0.0525468 -0.136791 0.59843
0.0518245 -0.137582 0.598837
0.0511032 -0.138382 0.599285
0.0503839 -0.139195 0.599784
0.0496613 -0.140003 0.600257
0.0489277 -0.14077 0.600528
0.048191 -0.141527 0.600747
0.047451 -0.142273 0.600916
0.0467134 -0.143033 0.601145
0.045977 -0.143803 0.60142
0.0452398 -0.144573 0.60169
0.0445019 -0.145345 0.601965
0.0437617 -0.146108 0.602196
0.0430238 -0.146889 0.602508
0.042308 -0.1478 0.603402
0.0415906 -0.148716 0.604308
0.0408794 -0.149688 0.605453
0.0401729 -0.150709 0.606804
0.0394526 -0.151664 0.607851
0.0387185 -0.152547 0.608568
0.0379925 -0.153501 0.609589
0.0372562 -0.154402 0.610373
0.0365124 -0.155259 0.610952
0.0357555 -0.156023 0.611127
0.0349998 -0.156806 0.61138
0.0849852 -0.112424 0.617725
0.0841347 -0.113017 0.616906
0.0832918 -0.113617 0.616141
0.0823745 -0.114092 0.614626
0.0815066 -0.11464 0.613571
0.0806737 -0.11524 0.612841
0.0798402 -0.115834 0.612085
0.0790259 -0.116458 0.611512
0.0781582 -0.116982 0.610366
0.0772523 -0.117431 0.608794
0.0763503 -0.117877 0.607222
0.0754799 -0.118371 0.605948
0.074623 -0.118882 0.60479
0.0738485 -0.119547 0.604526
0.0730852 -0.120233 0.604374
0.0723141 -0.120902 0.604134
0.0715421 -0.121567 0.603871
0.0707719 -0.122235 0.603631
0.069981 -0.122857 0.603138
0.0692038 -0.123505 0.602791
0.0683993 -0.124089 0.602103
0.0675902 -0.124658 0.601343
0.0667878 -0.125236 0.600639
0.0660118 -0.125873 0.600254
0.0652365 -0.126509 0.599871
0.0644984 -0.127234 0.599964
0.0637302 -0.127885 0.599664
0.0629575 -0.128521 0.599289
0.0621808 -0.129143 0.598847
0.0614132 -0.129786 0.59852
0.0606335 -0.130393 0.59801
0.0598829 -0.131079 0.597907
0.0591275 -0.131751 0.597731
0.0583597 -0.132384 0.597365
0.0576051 -0.133054 0.59719
0.0568597 -0.133753 0.597153
0.0561197 -0.134467 0.597198
0.0553831 -0.135196 0.597312
0.0546559 -0.135958 0.597583
0.0539164 -0.13668 0.597662
0.0531838 -0.137429 0.597866
0.0524625 -0.138222 0.598278
0.0517459 -0.139037 0.59879
0.0510276 -0.139853 0.599305
0.050309 -0.140675 0.599839
0.049582 -0.141468 0.600232
0.0488506 -0.14225 0.600568
0.0481167 -0.143023 0.600856
0.0473815 -0.143796 0.601143
0.0466448 -0.144566 0.601413
0.0459076 -0.145337 0.601683
0.0451638 -0.14608 0.601826
0.0444184 -0.146819 0.601946
0.0436768 -0.14758 0.602164
0.0429605 -0.148483 0.603014
0.0415429 -0.150428 0.605306
0.0408418 -0.151478 0.606778
0.0401337 -0.15251 0.608152
0.039405 -0.153431 0.609027
0.0386822 -0.15441 0.610148
0.0379446 -0.155303 0.610885
0.0371986 -0.156152 0.611421
0.0364366 -0.156886 0.611464
0.0356805 -0.15767 0.611715
0.0343725 -0.158756 0.616608
0.0349126 -0.158357 0.611556
0.0857191 -0.113214 0.617933
0.0848572 -0.113792 0.617019
0.0839878 -0.114353 0.616016
0.0830624 -0.114817 0.614442
0.0821991 -0.115374 0.613446
0.0813645 -0.115973 0.61271
0.0805222 -0.116553 0.611878
0.079689 -0.117145 0.611121
0.0787904 -0.117617 0.609674
0.0778701 -0.11804 0.607961
0.0769598 -0.11847 0.606314
0.0760824 -0.11895 0.604977
0.0752243 -0.119459 0.603818
0.0744661 -0.120154 0.603723
0.0737087 -0.12085 0.603635
0.0729449 -0.121533 0.603474
0.0721795 -0.122212 0.603289
0.0714159 -0.122893 0.603124
0.0706346 -0.123536 0.602744
0.0698599 -0.12419 0.602435
0.0690566 -0.124778 0.601774
0.0682401 -0.125331 0.600931
0.0674364 -0.125907 0.60022
0.0666569 -0.126537 0.599802
0.0658751 -0.127157 0.59934
0.0651436 -0.127899 0.599515
0.0643799 -0.128561 0.599275
0.0636108 -0.129207 0.598958
0.0628345 -0.129831 0.598528
0.0620708 -0.130487 0.598266
0.0612771 -0.131056 0.597564
0.0605193 -0.131722 0.597362
0.0597568 -0.132372 0.597081
0.0589881 -0.133002 0.596702
0.0582311 -0.133665 0.59649
0.0574857 -0.134362 0.596448
0.0567457 -0.135076 0.596491
0.0560104 -0.135807 0.596615
0.0552807 -0.136558 0.596833
0.0545421 -0.137282 0.596918
0.0538102 -0.13803 0.597117
0.0530891 -0.138821 0.597526
0.052376 -0.139647 0.598089
0.0516621 -0.140476 0.598659
0.0509477 -0.141311 0.599254
0.0502248 -0.142119 0.599714
0.0495004 -0.142928 0.600171
0.0487703 -0.143718 0.600538
0.048039 -0.144507 0.600899
0.0473027 -0.145279 0.601175
0.0465677 -0.146062 0.601497
0.0458219 -0.146797 0.601598
0.0450745 -0.147525 0.601666
0.0408108 -0.153321 0.60829
0.0400893 -0.15429 0.60937
0.0393659 -0.155264 0.610457
0.0386272 -0.156155 0.611176
0.0378803 -0.156999 0.611686
0.0371162 -0.157724 0.611686
0.0363584 -0.158496 0.611883
0.0355912 -0.159198 0.611783
0.0864336 -0.113975 0.617945
0.0855675 -0.114548 0.617008
0.0846712 -0.115068 0.615759
0.0837375 -0.115521 0.61413
0.0828866 -0.116099 0.613263
0.0820518 -0.116699 0.612534
0.0812081 -0.117279 0.611703
0.0803784 -0.117878 0.610995
0.0794891 -0.118368 0.609661
0.0785484 -0.118757 0.607765
0.0776228 -0.119162 0.605981
0.0767258 -0.119607 0.60445
0.0758506 -0.120084 0.603117
0.0750903 -0.120774 0.602998
0.0743329 -0.12147 0.602908
0.0735751 -0.122164 0.602811
0.0728168 -0.122857 0.602711
0.0720598 -0.123551 0.602617
0.0712883 -0.124215 0.602357
0.0657298 -0.128417 0.598309
0.0649713 -0.12909 0.598129
0.0642124 -0.129759 0.597935
0.0627274 -0.131183 0.597984
0.059612 -0.133609 0.59598
0.0588558 -0.134272 0.595775
0.0581115 -0.134971 0.595744
0.0573717 -0.135685 0.595785
0.0566366 -0.136414 0.595903
0.0559031 -0.137152 0.596059
0.0551653 -0.137876 0.596144
0.0544304 -0.138611 0.596285
0.0537066 -0.139389 0.596624
0.0529902 -0.140198 0.59711
0.0522739 -0.141013 0.597613
0.051561 -0.141849 0.598209
0.0508427 -0.142671 0.598737
0.0501243 -0.143498 0.59928
0.0494018 -0.144316 0.599777
0.0486809 -0.145149 0.600332
0.0479481 -0.145934 0.600667
0.047217 -0.146734 0.601069
0.0464752 -0.147488 0.601252
0.0457302 -0.148227 0.601369
0.0400622 -0.156196 0.611092
0.0393184 -0.157055 0.611667
0.038567 -0.157874 0.612064
0.0377997 -0.15858 0.611974
0.0370386 -0.159335 0.612096
0.0362721 -0.160051 0.612053
0.0881677 -0.114382 0.620243
0.0871913 -0.1148 0.618342
0.0862872 -0.115318 0.617071
0.0853596 -0.115791 0.615551
0.0844383 -0.116266 0.614058
0.0835946 -0.116857 0.613276
0.0827662 -0.117469 0.612621
0.0819283 -0.118061 0.61186
0.0810967 -0.11866 0.611145
0.0802174 -0.11917 0.609934
0.0792744 -0.119559 0.608046
0.0783258 -0.119926 0.606054
0.0773727 -0.120271 0.603967
0.0764517 -0.120662 0.602163
0.07568 -0.121329 0.601917
0.0749118 -0.122001 0.601701
0.0741602 -0.122705 0.601664
0.0734176 -0.123427 0.601724
0.0726741 -0.124148 0.601779
0.0719258 -0.124859 0.601783
0.0663365 -0.128988 0.597381
0.065584 -0.129674 0.597275
0.0648345 -0.130366 0.597198
0.0602352 -0.134214 0.595255
0.0594804 -0.134881 0.595071
0.058738 -0.135585 0.595068
0.0579978 -0.136296 0.595096
0.0572614 -0.137019 0.595182
0.0565246 -0.137743 0.595272
0.0557866 -0.138465 0.595351
0.0550489 -0.139188 0.595432
0.0543185 -0.139939 0.595644
0.0535994 -0.140733 0.596058
0.0528794 -0.141531 0.596486
0.0521653 -0.142356 0.597034
0.0514525 -0.143193 0.597626
0.0507449 -0.144059 0.59835
0.050034 -0.144921 0.599044
0.0493212 -0.145784 0.599742
0.0485975 -0.146608 0.600247
0.0478717 -0.147431 0.600749
0.0471296 -0.148182 0.600919
0.0463828 -0.148915 0.60101
0.0400143 -0.157974 0.612226
0.0392548 -0.158745 0.612411
0.0384838 -0.159433 0.612244
0.0377181 -0.16016 0.612243
0.036949 -0.160861 0.612135
0.0888948 -0.115158 0.620322
0.0879365 -0.115606 0.618608
0.087013 -0.116097 0.617179
0.086071 -0.11655 0.615549
0.0851619 -0.117046 0.614189
0.0843234 -0.117649 0.613471
0.0834929 -0.11826 0.612814
0.0826596 -0.118862 0.612112
0.0818176 -0.119445 0.61131
0.0809405 -0.119962 0.610145
0.0799702 -0.120307 0.608009
0.0779972 -0.120893 0.603247
0.0770417 -0.12122 0.601099
0.0762548 -0.121856 0.600685
0.0754788 -0.12251 0.600382
0.0747289 -0.123214 0.600348
0.073997 -0.123955 0.600516
0.0732623 -0.124691 0.60066
0.0669008 -0.129457 0.595935
0.0661615 -0.130172 0.595983
0.0608562 -0.134814 0.594512
0.0601118 -0.135511 0.594473
0.0593726 -0.136224 0.594512
0.0586327 -0.136935 0.594541
0.0578877 -0.13763 0.594497
0.0571468 -0.138339 0.594514
0.0564054 -0.139046 0.594525
0.0556638 -0.139755 0.59454
0.0549235 -0.140467 0.594574
0.0542005 -0.141244 0.594903
0.0534744 -0.142013 0.5952
0.0527584 -0.142824 0.595684
0.0520478 -0.143662 0.596285
0.0513524 -0.144569 0.597192
0.0506522 -0.14547 0.598067
0.0499512 -0.146377 0.598955
0.0492331 -0.147222 0.599557
0.0485159 -0.148079 0.600209
0.0407044 -0.158846 0.612577
0.0399357 -0.159559 0.612511
0.0391621 -0.160236 0.612298
0.0383949 -0.160956 0.612265
0.0376248 -0.161656 0.612151
0.0905577 -0.115442 0.621842
0.0896473 -0.115971 0.620612
0.0886802 -0.116408 0.618847
0.0877466 -0.116887 0.617352
0.0867965 -0.11733 0.615665
0.0859026 -0.117853 0.61447
0.0850635 -0.118457 0.613759
0.0842354 -0.119075 0.613141
0.0834126 -0.119697 0.612555
0.0825673 -0.120279 0.611743
0.0816972 -0.120812 0.610667
0.0806905 -0.121096 0.608203
0.0768107 -0.122348 0.599279
0.0760281 -0.122987 0.598895
0.0752785 -0.123688 0.598855
0.0745384 -0.124408 0.598916
0.0600094 -0.136869 0.59399
0.059265 -0.137566 0.593951
0.058515 -0.138245 0.593829
0.0577709 -0.138942 0.593791
0.0570187 -0.139613 0.59363
0.0562716 -0.140299 0.593545
0.0555206 -0.140972 0.593398
0.0547875 -0.141707 0.593536
0.0540553 -0.142447 0.593698
0.0533369 -0.143243 0.594115
0.0526317 -0.144093 0.594773
0.0519449 -0.145025 0.595799
0.0512547 -0.145956 0.596809
0.0505652 -0.146905 0.597887
0.0498565 -0.147783 0.598633
0.0491415 -0.148645 0.599304
0.0413735 -0.159573 0.61231
0.0406061 -0.160296 0.612285
0.0398333 -0.160983 0.612112
0.0390663 -0.161706 0.612092
0.0382979 -0.162422 0.612039
0.037013 -0.163628 0.61729
0.0375264 -0.163114 0.611889
0.0914961 -0.114945 0.623289
0.0912509 -0.116165 0.621586
0.0903692 -0.116738 0.620622
0.0894209 -0.117206 0.619045
0.0884785 -0.117674 0.617492
0.0875317 -0.118125 0.615863
0.0866346 -0.118645 0.614652
0.0857834 -0.119232 0.613848
0.0849585 -0.119857 0.613268
0.0841444 -0.120497 0.612782
0.0773725 -0.122854 0.597954
0.076587 -0.123484 0.597534
0.0758387 -0.124184 0.597492
0.0750865 -0.124877 0.597414
0.0583566 -0.139424 0.592506
0.0575982 -0.140071 0.592236
0.056845 -0.140732 0.592037
0.0560937 -0.141397 0.591858
0.0553565 -0.142112 0.591912
0.0546173 -0.14282 0.591932
0.0538939 -0.143587 0.592223
0.0531875 -0.144423 0.592823
0.0524983 -0.145334 0.593749
0.0518053 -0.146241 0.594652
0.051128 -0.147224 0.595886
0.0504215 -0.1481 0.596632
0.0497078 -0.148955 0.597275
0.0412814 -0.161061 0.612173
0.0405077 -0.161747 0.611994
0.0397397 -0.162467 0.611958
0.0389713 -0.163185 0.611913
0.0382009 -0.163891 0.611819
0.0928526 -0.116348 0.622484
0.0919722 -0.116929 0.621564
0.0911178 -0.117544 0.620851
0.0901897 -0.118045 0.619477
0.0892446 -0.118512 0.617924
0.0882943 -0.118961 0.616287
0.0873955 -0.119483 0.615088
0.0865209 -0.120035 0.614084
0.0856972 -0.120665 0.61353
0.0848928 -0.121323 0.613147
0.0771096 -0.123913 0.595816
0.0763636 -0.124613 0.595785
0.0756138 -0.125306 0.595714
0.0581879 -0.140565 0.591019
0.0574318 -0.141213 0.590765
0.056672 -0.141846 0.59044
0.0559267 -0.142527 0.590345
0.0551817 -0.143207 0.590245
0.0544487 -0.143932 0.590346
0.0537377 -0.14474 0.590821
0.0530432 -0.145619 0.591613
0.0523429 -0.146484 0.592333
0.0516699 -0.147469 0.593575
0.0509689 -0.148355 0.594369
0.0502606 -0.149218 0.595052
0.0417307 -0.160397 0.606132
0.0410604 -0.161709 0.608565
0.0403584 -0.162851 0.610274
0.0396362 -0.163885 0.611529
0.0388678 -0.164605 0.611491
0.0926276 -0.117598 0.620973
0.0917953 -0.118245 0.620457
0.0908938 -0.118787 0.619328
0.0899484 -0.119255 0.61779
0.089019 -0.119739 0.616359
0.0881203 -0.120262 0.615179
0.0872499 -0.120823 0.614227
0.0864083 -0.121426 0.613521
0.0762088 -0.125872 0.594757
0.0595115 -0.140347 0.589766
0.0587544 -0.140989 0.589487
0.0580009 -0.141641 0.589257
0.0572394 -0.142263 0.588891
0.056488 -0.142917 0.588677
0.055733 -0.143556 0.5884
0.0549936 -0.144249 0.588364
0.0542763 -0.145024 0.588695
0.0535734 -0.145857 0.589285
0.0528607 -0.14666 0.589734
0.0521681 -0.147552 0.59057
0.051442 -0.148314 0.590828
0.0933285 -0.118333 0.620768
0.092504 -0.118992 0.62033
0.0915921 -0.119519 0.619122
0.090639 -0.119978 0.617536
0.0897094 -0.120462 0.616121
0.088819 -0.121 0.615024
0.087943 -0.121554 0.614036
0.0585718 -0.142079 0.587809
0.0578161 -0.142716 0.587516
0.0570615 -0.143355 0.587242
0.0563031 -0.143977 0.58689
0.0555571 -0.14464 0.586727
0.0548291 -0.145368 0.586854
0.0541094 -0.14613 0.587129
0.0533798 -0.146856 0.587248
0.0526607 -0.147626 0.587553
0.0519181 -0.148305 0.587456
0.0904002 -0.121187 0.61588
0.0895114 -0.121728 0.614811
0.0591593 -0.142575 0.586636
0.0584021 -0.143205 0.58632
0.0576587 -0.143877 0.586195
0.0569022 -0.144503 0.585868
0.0561465 -0.14513 0.585549
0.0553978 -0.145779 0.585326
0.0546613 -0.14647 0.585292
0.0539146 -0.147122 0.585091
0.0531634 -0.147756 0.584806
0.0524152 -0.148399 0.584568
0.0516624 -0.149019 0.584231
0.0441236 -0.153027 0.577924
0.0455399 -0.153308 0.578843
0.0447564 -0.153703 0.577611
0.0435215 -0.15442 0.580835
0.0440491 -0.154498 0.578041
0.0429609 -0.156103 0.584914
0.0434079 -0.155681 0.580057
0.059023 -0.143809 0.585648
0.0582696 -0.144447 0.585373
0.0575069 -0.145053 0.584958
0.0567444 -0.145652 0.584518
0.0559818 -0.146249 0.584069
0.0552401 -0.146917 0.583943
0.0544963 -0.147576 0.583774
0.0537476 -0.148214 0.583517
0.0530085 -0.148888 0.583417
0.052273 -0.149576 0.583376
0.0509091 -0.149635 0.583877
0.0515314 -0.150239 0.58323
0.050154 -0.150238 0.583474
0.0507795 -0.150855 0.582883
0.0494127 -0.150897 0.583311
0.0500353 -0.151502 0.582674
0.0492709 -0.152055 0.582067
0.0478754 -0.151954 0.581889
0.0484957 -0.152549 0.581219
0.0470947 -0.152408 0.580875
0.0477154 -0.153008 0.580228
0.0463209 -0.152882 0.579954
0.0469446 -0.1535 0.579391
0.0461654 -0.153937 0.57833
0.0453844 -0.15435 0.57718
0.0446143 -0.154804 0.576205
0.0439057 -0.155587 0.57659
0.0427686 -0.156909 0.582238
0.0432013 -0.156403 0.577099
0.0751821 -0.133012 0.601587
0.0759274 -0.132281 0.601508
0.0766152 -0.133027 0.601435
0.075854 -0.133726 0.601347
0.0744174 -0.133701 0.601452
0.0750757 -0.134387 0.60107
0.0736757 -0.134441 0.601575
0.0743181 -0.135091 0.601017
0.07357 -0.135818 0.601069
0.0715145 -0.136821 0.602706
0.0728247 -0.136551 0.601155
0.0720954 -0.137323 0.601424
0.0713543 -0.138069 0.601567
0.07002 -0.138292 0.602885
0.0706004 -0.138786 0.601568
0.0692406 -0.138949 0.602588
0.0698259 -0.139451 0.60132
0.0588812 -0.145023 0.584582
0.0581182 -0.145625 0.584152
0.0573546 -0.146222 0.583707
0.056585 -0.146792 0.583146
0.055842 -0.147452 0.582982
0.0551018 -0.148121 0.582864
0.05436 -0.148785 0.582723
0.0536292 -0.149489 0.582751
0.0529035 -0.150215 0.582873
0.0521651 -0.150891 0.582785
0.0514145 -0.151513 0.582469
0.0506652 -0.152139 0.582167
0.0498967 -0.152675 0.58149
0.04912 -0.153164 0.580628
0.0483385 -0.153621 0.57964
0.0475716 -0.154134 0.578892
0.0467946 -0.154585 0.577893
0.0460173 -0.155022 0.576847
0.0452462 -0.155477 0.575884
0.044478 -0.15593 0.574924
0.0437146 -0.1564 0.574037
0.0425053 -0.157277 0.57784
0.0429626 -0.156918 0.573353
0.0418128 -0.158187 0.578716
0.0422168 -0.157464 0.572788
0.041116 -0.159087 0.579544
0.0395841 -0.159976 0.577565
0.0407362 -0.158602 0.571858
0.0400024 -0.159202 0.571517
0.0387982 -0.160249 0.575912
0.0392722 -0.15982 0.57125
0.0380228 -0.160565 0.57444
0.0385523 -0.16051 0.571272
0.0781129 -0.133172 0.60193
0.0773163 -0.133801 0.601488
0.076536 -0.134461 0.601208
0.0757408 -0.135086 0.600759
0.0749753 -0.135775 0.600624
0.0742103 -0.136463 0.600485
0.0734479 -0.137157 0.600379
0.0727109 -0.137909 0.600556
0.0719675 -0.138648 0.600667
0.0712068 -0.139346 0.600579
0.0704389 -0.140026 0.600405
0.0696944 -0.140764 0.600506
0.0587459 -0.146255 0.583606
0.057985 -0.146861 0.583202
0.0572138 -0.147427 0.582628
0.0564737 -0.148098 0.582514
0.0557407 -0.148793 0.582505
0.0550011 -0.149465 0.582398
0.0542687 -0.150163 0.582404
0.0535401 -0.150878 0.582478
0.0527973 -0.151535 0.582309
0.0520381 -0.152125 0.581857
0.0512801 -0.152712 0.581393
0.0505115 -0.153248 0.580728
0.0497387 -0.153756 0.579944
0.0489583 -0.154219 0.578989
0.0481889 -0.154722 0.578204
0.0474168 -0.1552 0.577324
0.0466445 -0.155664 0.576393
0.0458734 -0.156122 0.575445
0.0451063 -0.156588 0.574544
0.0443429 -0.157059 0.573665
0.0435917 -0.157589 0.573032
0.0428455 -0.158135 0.57247
0.0414741 -0.158021 0.572273
0.0421045 -0.158708 0.572017
0.0413685 -0.159303 0.571658
0.0406358 -0.159915 0.571369
0.0399049 -0.160533 0.5711
0.0391848 -0.161223 0.57112
0.0380603 -0.162936 0.578051
0.0384689 -0.161945 0.571261
0.0796001 -0.133288 0.602285
0.0788223 -0.133959 0.602051
0.0780317 -0.134602 0.601678
0.0772319 -0.135224 0.601204
0.0764273 -0.135832 0.600668
0.0756483 -0.136492 0.600391
0.0748485 -0.137104 0.599884
0.074069 -0.137758 0.599587
0.0733183 -0.138477 0.599607
0.0725692 -0.1392 0.59964
0.0718085 -0.139896 0.599544
0.0710659 -0.140636 0.599661
0.0703276 -0.141388 0.599832
0.0695562 -0.142057 0.599612
0.0681117 -0.141997 0.599575
0.0687873 -0.142731 0.599414
0.067343 -0.142669 0.599368
0.0680144 -0.143393 0.599164
0.0665688 -0.143324 0.599092
0.0672327 -0.144029 0.5988
0.0657783 -0.143931 0.598595
0.0664396 -0.144631 0.59828
0.0586702 -0.147685 0.583507
0.0578977 -0.148251 0.582932
0.0571603 -0.148937 0.582877
0.0564034 -0.149551 0.582517
0.055664 -0.150226 0.582424
0.0549304 -0.150923 0.582419
0.0541976 -0.151622 0.582426
0.0534461 -0.152249 0.582128
0.052676 -0.152795 0.581491
0.0519093 -0.153349 0.580894
0.0511341 -0.153857 0.580111
0.0503598 -0.154361 0.579322
0.0495793 -0.154825 0.578373
0.0488128 -0.155342 0.577649
0.0480429 -0.155834 0.576831
0.0472748 -0.156323 0.576006
0.0465031 -0.156783 0.575073
0.045738 -0.157263 0.574229
0.0449756 -0.157745 0.573401
0.044226 -0.158287 0.57282
0.0434792 -0.158836 0.572268
0.0427401 -0.159423 0.571875
0.0420042 -0.160023 0.571531
0.041271 -0.160635 0.571242
0.0405393 -0.161253 0.570976
0.0398187 -0.161943 0.570991
0.0391004 -0.162651 0.571077
0.0379752 -0.164385 0.578026
0.0383806 -0.163349 0.57112
0.0811246 -0.133469 0.602965
0.0802922 -0.134037 0.602205
0.0794989 -0.134678 0.601824
0.0787027 -0.135311 0.601401
0.0779009 -0.13593 0.600915
0.0770937 -0.136534 0.600361
0.0763079 -0.137179 0.600016
0.0755069 -0.13779 0.599505
0.0747213 -0.138431 0.599145
0.0739593 -0.139124 0.599039
0.0732044 -0.139833 0.599006
0.0724442 -0.140529 0.598917
0.0717029 -0.141271 0.599039
0.0709745 -0.142047 0.599322
0.0702117 -0.142738 0.599201
0.0694508 -0.143433 0.599106
0.0686807 -0.144104 0.598895
0.0679034 -0.144753 0.598591
0.0671143 -0.145368 0.59813
0.0663555 -0.146064 0.598043
0.0586985 -0.149473 0.584944
0.0579127 -0.150002 0.58421
0.0571242 -0.150513 0.583399
0.0563695 -0.15114 0.583093
0.0556185 -0.151778 0.582833
0.0548688 -0.152419 0.58259
0.0541088 -0.153015 0.582158
0.0533335 -0.153544 0.581455
0.0525556 -0.154056 0.580684
0.0517755 -0.154548 0.579837
0.0509969 -0.155036 0.578986
0.0502127 -0.155488 0.577991
0.0494431 -0.155994 0.577225
0.0486753 -0.156498 0.576461
0.0479094 -0.157002 0.575703
0.047142 -0.157488 0.574875
0.046379 -0.157984 0.574101
0.0456179 -0.15848 0.573329
0.0448673 -0.159021 0.572742
0.0441212 -0.159581 0.57224
0.0433819 -0.160171 0.571857
0.0426457 -0.160774 0.571526
0.0419121 -0.161389 0.571245
0.0411797 -0.162007 0.570976
0.0404541 -0.162668 0.570882
0.0397318 -0.163348 0.570855
0.0390111 -0.164042 0.570883
0.0378865 -0.165816 0.577923
0.0382919 -0.164749 0.570961
0.0826373 -0.133618 0.603481
0.0818094 -0.134201 0.602797
0.0809815 -0.13478 0.602093
0.0801826 -0.135412 0.601665
0.0793936 -0.136061 0.601325
0.0785918 -0.136681 0.600846
0.0777849 -0.137287 0.600304
0.0769983 -0.137934 0.599961
0.0761973 -0.138546 0.599457
0.0753997 -0.139162 0.59898
0.0746316 -0.139843 0.598813
0.0738707 -0.140538 0.598714
0.0731038 -0.14122 0.598556
0.0723639 -0.141965 0.598695
0.0716355 -0.142741 0.598973
0.070878 -0.143446 0.59892
0.0701276 -0.144168 0.598946
0.0693675 -0.144867 0.598863
0.0685923 -0.145524 0.598593
0.0678075 -0.146153 0.598198
0.0670568 -0.146874 0.598222
0.0656045 -0.146782 0.598056
0.0663101 -0.147607 0.598299
0.0604481 -0.150671 0.589867
0.05955 -0.150853 0.587615
0.0587064 -0.151202 0.586093
0.0578776 -0.151585 0.58473
0.057094 -0.152118 0.584021
0.0563198 -0.152678 0.583427
0.055546 -0.153232 0.582817
0.0547739 -0.153787 0.582213
0.0539931 -0.1543 0.581443
0.0532071 -0.154783 0.580554
0.0524187 -0.155245 0.57959
0.0516387 -0.155731 0.57873
0.0508501 -0.156167 0.577676
0.0500767 -0.15666 0.57686
0.0493105 -0.157177 0.576153
0.0485495 -0.157709 0.575507
0.0477822 -0.158198 0.574697
0.0470214 -0.158711 0.57399
0.0462644 -0.159234 0.573327
0.0455153 -0.159789 0.572801
0.0447664 -0.160338 0.572249
0.0440283 -0.160941 0.571917
0.0432929 -0.161555 0.57163
0.042558 -0.16217 0.571349
0.0418223 -0.162774 0.571028
0.0410963 -0.163434 0.570923
0.0403705 -0.164096 0.570827
0.039647 -0.164773 0.570791
0.0389234 -0.165452 0.570757
0.0375722 -0.165456 0.571037
0.0382034 -0.166157 0.570826
0.0843347 -0.132516 0.6052
0.0858688 -0.132683 0.605819
0.085022 -0.133247 0.605015
0.0834818 -0.133062 0.604311
0.0841688 -0.133795 0.604138
0.0833268 -0.134357 0.603343
0.0825001 -0.134944 0.602678
0.0816804 -0.135541 0.602069
0.0808787 -0.136169 0.601619
0.0800923 -0.136825 0.601311
0.0792961 -0.13746 0.600903
0.078495 -0.13808 0.600432
0.0777088 -0.13873 0.600106
0.0769121 -0.139355 0.599661
0.0761077 -0.139959 0.599124
0.0753271 -0.140613 0.59883
0.0745582 -0.141292 0.598654
0.073785 -0.14196 0.598428
0.0730394 -0.142693 0.598506
0.0723116 -0.143471 0.598789
0.0715642 -0.144202 0.598854
0.0708191 -0.144941 0.598955
0.0700699 -0.145669 0.599006
0.0692959 -0.146333 0.598763
0.0685132 -0.146971 0.598408
0.0677613 -0.147692 0.598425
0.0670121 -0.14842 0.598476
0.066266 -0.149159 0.598575
0.0622293 -0.151891 0.594884
0.061289 -0.151981 0.592206
0.060379 -0.152143 0.589863
0.0595013 -0.152393 0.587913
0.058632 -0.152651 0.586022
0.0578194 -0.153091 0.58491
0.0570215 -0.153572 0.583988
0.0562263 -0.154055 0.583074
0.0554406 -0.154563 0.58228
0.0546515 -0.155049 0.581397
0.0538574 -0.155504 0.580399
0.0530639 -0.15595 0.579368
0.0522784 -0.156417 0.578438
0.0514846 -0.156834 0.577309
0.0507093 -0.157323 0.576483
0.0499431 -0.157841 0.575781
0.0491848 -0.158388 0.575198
0.0484223 -0.158907 0.574511
0.0476665 -0.159449 0.573923
0.0469121 -0.159991 0.573337
0.0461621 -0.160548 0.572816
0.0454093 -0.16108 0.572201
0.0446672 -0.161666 0.571802
0.0439309 -0.162278 0.571508
0.0431959 -0.162895 0.571232
0.0424616 -0.163512 0.57096
0.0417346 -0.164171 0.57085
0.0410055 -0.164814 0.570682
0.040277 -0.16546 0.570524
0.0395514 -0.166122 0.570431
0.0388312 -0.16683 0.570507
0.0377063 -0.168653 0.577609
0.0381175 -0.167585 0.570759
0.0893136 -0.130472 0.609371
0.0908922 -0.130679 0.610217
0.0900425 -0.131266 0.609486
0.0891624 -0.131797 0.608477
0.0867141 -0.13211 0.606591
0.0883032 -0.132358 0.607629
0.0874217 -0.132874 0.606563
0.0865727 -0.133442 0.605766
0.0857146 -0.133988 0.604874
0.0848615 -0.134537 0.604008
0.0840189 -0.135101 0.60322
0.0831876 -0.135681 0.602521
0.0823647 -0.136272 0.60189
0.0815621 -0.1369 0.601443
0.0807751 -0.137557 0.601136
0.0799861 -0.138207 0.600805
0.0791963 -0.138853 0.600457
0.0784096 -0.139504 0.600135
0.0776176 -0.140142 0.599751
0.076817 -0.140756 0.599262
0.0760287 -0.141396 0.598899
0.0752517 -0.142059 0.598647
0.074476 -0.142724 0.598405
0.0737243 -0.143443 0.598417
0.0729913 -0.14421 0.598643
0.0722496 -0.144956 0.598778
0.0715155 -0.145723 0.599004
0.0707784 -0.146486 0.599206
0.0700156 -0.147182 0.599108
0.0692378 -0.147837 0.598829
0.0684818 -0.14855 0.598805
0.0677209 -0.14925 0.598725
0.0669622 -0.149956 0.598671
0.0655286 -0.149924 0.598785
0.0662094 -0.150678 0.59869
0.0647855 -0.150674 0.598928
0.065444 -0.151363 0.598549
0.0639969 -0.151287 0.598467
0.0646558 -0.151978 0.5981
0.0631719 -0.151782 0.597502
0.0638289 -0.15247 0.597125
0.0629493 -0.152785 0.595403
0.0620472 -0.15301 0.593309
0.0611537 -0.153242 0.59127
0.0602681 -0.153477 0.589262
0.0593881 -0.153713 0.587277
0.0585464 -0.154063 0.585788
0.0577255 -0.154471 0.584552
0.0569115 -0.154892 0.583386
0.0561092 -0.155343 0.582353
0.0553066 -0.155782 0.581281
0.0545033 -0.156206 0.580158
0.0537013 -0.156621 0.579009
0.0529081 -0.157058 0.577961
0.052112 -0.15747 0.576818
0.0513358 -0.157956 0.575984
0.0505686 -0.158473 0.575281
0.0498104 -0.159021 0.574707
0.0490534 -0.159569 0.574137
0.0483061 -0.160156 0.573725
0.047557 -0.160729 0.573265
0.0468096 -0.161304 0.572814
0.0460576 -0.161848 0.572246
0.0453137 -0.162428 0.571823
0.0445681 -0.162994 0.571353
0.0438307 -0.163598 0.57103
0.043094 -0.164205 0.570719
0.0423667 -0.164864 0.570608
0.0416369 -0.165505 0.570431
0.0409101 -0.166163 0.570319
0.0401839 -0.166826 0.570227
0.0394683 -0.167564 0.570417
0.0387565 -0.16834 0.570742
0.092486 -0.1309 0.611143
0.0916024 -0.131438 0.610148
0.0907361 -0.132 0.609289
0.0898588 -0.132537 0.608314
0.0889947 -0.133091 0.607432
0.0881326 -0.133643 0.606554
0.0872879 -0.134221 0.605811
0.0864271 -0.134764 0.604909
0.085567 -0.135303 0.603992
0.0847181 -0.135857 0.603158
0.0838863 -0.136438 0.602466
0.0830685 -0.137042 0.601895
0.0822721 -0.137684 0.601517
0.081491 -0.138354 0.601277
0.0807066 -0.139017 0.601
0.0799155 -0.139663 0.600651
0.079128 -0.140315 0.600332
0.0783288 -0.140939 0.599883
0.0775205 -0.14154 0.599331
0.0767249 -0.142166 0.598902
0.0759355 -0.142803 0.598525
0.0751473 -0.14344 0.598156
0.0743889 -0.144145 0.5981
0.0736502 -0.144897 0.59826
0.0729142 -0.145657 0.598454
0.0721917 -0.146454 0.598814
0.071472 -0.147262 0.599216
0.0707257 -0.148003 0.599317
0.0699632 -0.148703 0.599232
0.0692028 -0.149407 0.59917
0.0684328 -0.150085 0.598987
0.0676635 -0.150764 0.598814
0.0668963 -0.151448 0.598659
0.0661143 -0.152087 0.598314
0.0653211 -0.152689 0.597817
0.0644995 -0.1532 0.596929
0.0636481 -0.153608 0.59561
0.0627754 -0.153935 0.593958
0.0618962 -0.154224 0.592165
0.061009 -0.154467 0.590194
0.0601329 -0.154728 0.588317
0.059271 -0.155019 0.586583
0.0584227 -0.155339 0.584986
0.0575902 -0.1557 0.583571
0.0567694 -0.156088 0.582284
0.0559564 -0.156492 0.581073
0.0551435 -0.156883 0.579818
0.0543366 -0.157281 0.578604
0.0535383 -0.157703 0.577499
0.0527414 -0.158115 0.576361
0.0519641 -0.158599 0.575526
0.0511969 -0.159117 0.574829
0.0504378 -0.159664 0.574254
0.049683 -0.160224 0.573734
0.0489386 -0.160827 0.57339
0.0481931 -0.16142 0.573008
0.0474485 -0.162012 0.572623
0.0467005 -0.162582 0.572158
0.0459574 -0.163172 0.571774
0.0452141 -0.163754 0.571361
0.0444778 -0.164372 0.571093
0.0437389 -0.164968 0.570739
0.0430085 -0.165613 0.570575
0.0422757 -0.16624 0.570344
0.041546 -0.166885 0.570182
0.0408198 -0.16755 0.570098
0.0401087 -0.168322 0.570407
0.0394012 -0.16913 0.570852
0.0382774 -0.170959 0.577883
0.0386955 -0.169961 0.571372
0.094057 -0.131075 0.611826
0.0931926 -0.131652 0.611022
0.0923065 -0.132188 0.610023
0.0914267 -0.132729 0.609061
0.0905617 -0.133288 0.608201
0.0897029 -0.133853 0.607377
0.0888537 -0.13443 0.606628
0.0880104 -0.135012 0.605908
0.0871445 -0.135549 0.604975
0.0862823 -0.136086 0.604055
0.0854256 -0.136628 0.60316
0.0845925 -0.137209 0.602471
0.0837813 -0.137827 0.601972
0.0829902 -0.138482 0.601654
0.0822087 -0.139154 0.601419
0.0814228 -0.139816 0.601137
0.0806299 -0.140461 0.600781
0.0798408 -0.141112 0.600455
0.0790397 -0.141735 0.600004
0.0782248 -0.142325 0.599397
0.0774279 -0.14295 0.598965
0.0766319 -0.143574 0.59853
0.0758367 -0.144197 0.598093
0.0750768 -0.1449 0.598026
0.074337 -0.145651 0.59818
0.0736058 -0.146425 0.598432
0.0728896 -0.147238 0.598861
0.0721761 -0.148063 0.599332
0.0714309 -0.148809 0.599451
0.0706731 -0.149524 0.599429
0.0699124 -0.150231 0.599373
0.0691356 -0.150893 0.599123
0.0683599 -0.151557 0.598881
0.0675854 -0.152223 0.598651
0.0667922 -0.152832 0.598176
0.0659889 -0.153406 0.597555
0.0651651 -0.153913 0.596654
0.0643208 -0.154347 0.595451
0.0634649 -0.154732 0.594053
0.0626037 -0.155087 0.592541
0.061728 -0.155378 0.590778
0.0608566 -0.155664 0.58901
0.0599819 -0.155921 0.58714
0.0591127 -0.156177 0.585282
0.0582611 -0.156476 0.583616
0.0574215 -0.156802 0.582079
0.0565911 -0.157144 0.580621
0.0557685 -0.157499 0.579228
0.0549562 -0.15788 0.577953
0.0541545 -0.158289 0.576802
0.0533609 -0.158718 0.575739
0.0525869 -0.159218 0.57497
0.051819 -0.159736 0.574279
0.0510593 -0.16028 0.573697
0.0503068 -0.160852 0.573226
0.049568 -0.161483 0.572992
0.0488258 -0.162094 0.57268
0.0480869 -0.162718 0.572423
0.047342 -0.163305 0.572023
0.0466009 -0.163911 0.571704
0.045857 -0.164495 0.571299
0.0451231 -0.165129 0.571089
0.0443827 -0.165723 0.570724
0.0436536 -0.166381 0.570611
0.0429199 -0.167008 0.570379
0.0421879 -0.167642 0.570174
0.0414619 -0.16831 0.570096
0.0407524 -0.169098 0.570464
0.0400454 -0.169908 0.570909
0.0393419 -0.170756 0.571489
0.0956321 -0.131249 0.612496
0.0947883 -0.131864 0.61189
0.0939273 -0.132448 0.611131
0.0930398 -0.132985 0.610134
0.0921544 -0.133518 0.609135
0.0912799 -0.134064 0.60821
0.0904187 -0.134627 0.607383
0.0895683 -0.135204 0.606632
0.0887234 -0.135785 0.605909
0.0878508 -0.136312 0.604933
0.0869934 -0.136861 0.604066
0.0861413 -0.137413 0.60323
0.085307 -0.137994 0.602543
0.0844949 -0.138613 0.602046
0.0837039 -0.139271 0.601736
0.0829151 -0.13993 0.601443
0.0821279 -0.140591 0.601155
0.0813394 -0.141248 0.600853
0.0805492 -0.141899 0.600526
0.0797482 -0.142524 0.600084
0.0789372 -0.143125 0.59953
0.0781329 -0.143737 0.599035
0.0773298 -0.144347 0.598535
0.0765274 -0.144957 0.598038
0.0757665 -0.145659 0.597965
0.0750215 -0.146398 0.598062
0.0742901 -0.147173 0.598316
0.0735742 -0.147988 0.598746
0.0728614 -0.148814 0.59922
0.0721145 -0.149558 0.59933
0.0713564 -0.150273 0.599306
0.0705906 -0.150968 0.599196
0.0698083 -0.151617 0.598888
0.0690269 -0.152267 0.598582
0.0682461 -0.152915 0.598276
0.0674474 -0.15351 0.59774
0.0666466 -0.154093 0.597163
0.0658312 -0.154627 0.596383
0.0649993 -0.155103 0.59536
0.0641652 -0.155562 0.594282
0.0633219 -0.15598 0.593039
0.062459 -0.156322 0.59149
0.061584 -0.156608 0.589725
0.0606997 -0.156842 0.587764
0.0598082 -0.15703 0.585633
0.058936 -0.157265 0.583711
0.0580742 -0.157516 0.581873
0.057226 -0.157797 0.580174
0.0563897 -0.158104 0.578595
0.0555691 -0.158454 0.577204
0.0547638 -0.15885 0.576007
0.0539734 -0.159294 0.575012
0.0532066 -0.159825 0.574369
0.052439 -0.160343 0.573682
0.0516782 -0.160886 0.573099
0.0509282 -0.161469 0.572675
0.0501896 -0.1621 0.572443
0.0494474 -0.162712 0.572138
0.0487121 -0.163353 0.571944
0.0479754 -0.163985 0.571723
0.0472385 -0.164614 0.571489
0.0464973 -0.165217 0.571156
0.0457654 -0.165867 0.571006
0.0450239 -0.166458 0.570634
0.0442939 -0.167113 0.570505
0.0435592 -0.167737 0.570263
0.0428265 -0.168371 0.570058
0.042102 -0.169054 0.570034
0.0413947 -0.169857 0.570454
0.0406853 -0.170655 0.570851
0.039982 -0.171503 0.571425
0.095532 -0.132672 0.612046
0.0946653 -0.133249 0.611255
0.0937851 -0.1338 0.610332
0.0928801 -0.134304 0.609189
0.0920039 -0.134849 0.608264
0.0911359 -0.135403 0.607386
0.0902908 -0.135991 0.606695
0.0894456 -0.136574 0.605983
0.088578 -0.137113 0.605064
0.0877199 -0.137663 0.604208
0.0868732 -0.138228 0.603437
0.0860373 -0.138809 0.602748
0.085223 -0.139426 0.602243
0.0844241 -0.140071 0.60187
0.0836337 -0.14073 0.60157
0.082839 -0.141378 0.601222
0.0820497 -0.142035 0.600921
0.0812593 -0.142688 0.600603
0.0804642 -0.143329 0.600227
0.0796521 -0.14393 0.599679
0.0788523 -0.144554 0.599238
0.0780464 -0.145162 0.598725
0.0772424 -0.14577 0.598223
0.0764759 -0.146462 0.598102
0.0757249 -0.14719 0.598141
0.074988 -0.147952 0.598336
0.0742657 -0.148753 0.598696
0.0735405 -0.14955 0.599038
0.0727923 -0.150291 0.599131
0.072028 -0.150991 0.599039
0.0712563 -0.151671 0.598863
0.0704684 -0.152306 0.598497
0.0696908 -0.152967 0.598243
0.0689048 -0.153602 0.597882
0.0681104 -0.15421 0.597404
0.0673142 -0.154809 0.596893
0.0665083 -0.155373 0.596242
0.06569 -0.155893 0.595412
0.0648843 -0.156446 0.594727
0.0640636 -0.156944 0.593818
0.0632123 -0.157334 0.592471
0.0623332 -0.157617 0.590698
0.0614297 -0.157799 0.588524
0.0605153 -0.15792 0.586124
0.059614 -0.158061 0.583829
0.0587254 -0.158223 0.581636
0.0578584 -0.15844 0.579689
0.0570117 -0.158711 0.577974
0.0561779 -0.159015 0.576406
0.0553723 -0.15941 0.575214
0.0545887 -0.159882 0.574335
0.0538253 -0.160427 0.573753
0.0530605 -0.16096 0.573128
0.0523033 -0.161518 0.572603
0.0515525 -0.1621 0.572182
0.0508141 -0.162732 0.571953
0.0500746 -0.163358 0.5717
0.0493449 -0.164027 0.57162
0.0486138 -0.16469 0.571515
0.047883 -0.165353 0.571406
0.0471448 -0.165975 0.571147
0.0464126 -0.166626 0.571
0.0456695 -0.167214 0.570618
0.0449386 -0.167869 0.570487
0.0442038 -0.168496 0.570252
0.0434727 -0.169144 0.570099
0.0427489 -0.169839 0.570118
0.0420393 -0.170627 0.570478
0.0413278 -0.171411 0.570817
0.040622 -0.172244 0.571334
0.0392768 -0.172351 0.571995
0.0399174 -0.173093 0.571905
0.0385616 -0.173135 0.572326
0.0392042 -0.173892 0.572287
0.097123 -0.132865 0.612804
0.0962759 -0.13348 0.612196
0.0954105 -0.134061 0.611426
0.0945175 -0.134594 0.610416
0.0936032 -0.135085 0.609209
0.0927259 -0.13563 0.608286
0.0918554 -0.136182 0.607404
0.0910081 -0.136768 0.606705
0.0901617 -0.137351 0.605993
0.0893005 -0.137904 0.605144
0.0884495 -0.138469 0.604363
0.0876077 -0.139046 0.60365
0.0867765 -0.139639 0.60302
0.0859614 -0.140258 0.602518
0.0851594 -0.140899 0.602129
0.0843666 -0.141556 0.601818
0.0835698 -0.142203 0.601463
0.0827803 -0.142862 0.601167
0.0819905 -0.143519 0.600865
0.0811949 -0.144162 0.600501
0.0803756 -0.144752 0.599896
0.0795668 -0.14536 0.599381
0.078754 -0.145954 0.598808
0.0779482 -0.146562 0.598301
0.0771761 -0.147242 0.598126
0.0764242 -0.14797 0.598165
0.0756856 -0.14873 0.598344
0.0749509 -0.149501 0.59857
0.0742137 -0.150269 0.598778
0.0734589 -0.150994 0.598801
0.0726929 -0.15169 0.598694
0.07192 -0.152369 0.598513
0.0711367 -0.153017 0.598199
0.0703637 -0.153692 0.598007
0.0695834 -0.154344 0.597716
0.0687987 -0.154982 0.597367
0.0680036 -0.155586 0.596881
0.067207 -0.156182 0.596368
0.0663995 -0.156739 0.595691
0.0656077 -0.157341 0.595208
0.0648008 -0.157888 0.594502
0.0639651 -0.158338 0.593405
0.0630826 -0.158621 0.591635
0.0621774 -0.15881 0.589493
0.0612318 -0.158837 0.58672
0.060296 -0.158869 0.583985
0.0593774 -0.158932 0.581407
0.05849 -0.15908 0.579191
0.0576216 -0.159277 0.577189
0.0567898 -0.159588 0.575656
0.0559862 -0.159995 0.57452
0.0552026 -0.160467 0.573646
0.0544393 -0.161013 0.573074
0.0536776 -0.161559 0.572504
0.0529237 -0.162132 0.57204
0.0521708 -0.162703 0.571578
0.0514317 -0.163334 0.571349
0.0506951 -0.163972 0.571146
0.049968 -0.164654 0.571114
0.0492408 -0.165335 0.571077
0.0485159 -0.166029 0.571086
0.047783 -0.16668 0.570938
0.0470499 -0.16733 0.570786
0.0463092 -0.167933 0.570457
0.0455781 -0.16859 0.570334
0.0448404 -0.169205 0.570055
0.0441068 -0.169842 0.56986
0.0433855 -0.17055 0.569926
0.042671 -0.171307 0.570172
0.0419575 -0.172075 0.570451
0.0412519 -0.172907 0.570961
0.0405496 -0.173771 0.57158
0.039837 -0.174573 0.571973
0.0970776 -0.134377 0.612793
0.0961996 -0.134943 0.611937
0.0952865 -0.135446 0.610784
0.0943603 -0.135921 0.609497
0.0934651 -0.13644 0.608446
0.0925844 -0.136977 0.60749
0.0917277 -0.137549 0.606722
0.090878 -0.138128 0.605999
0.0900242 -0.138696 0.605222
0.0891796 -0.139275 0.604511
0.0883447 -0.139868 0.603876
0.0875194 -0.140474 0.603307
0.0867016 -0.141091 0.602795
0.0858858 -0.141709 0.602292
0.0850846 -0.142352 0.601914
0.0842853 -0.142996 0.601544
0.0834948 -0.143656 0.601252
0.0827044 -0.144314 0.600952
0.0819144 -0.144971 0.600651
0.0810993 -0.145572 0.600098
0.0802895 -0.146181 0.599585
0.0794799 -0.146786 0.599061
0.0786738 -0.147396 0.598566
0.0778946 -0.148064 0.598331
0.0771352 -0.148776 0.598295
0.076382 -0.149504 0.59833
0.0756288 -0.150232 0.598364
0.0748803 -0.150972 0.598445
0.07412 -0.151683 0.598405
0.0733483 -0.152366 0.59824
0.0725754 -0.153044 0.598059
0.0717968 -0.153706 0.597807
0.0710252 -0.154384 0.597628
0.0702502 -0.155052 0.597407
0.0694767 -0.155722 0.597196
0.0686913 -0.156357 0.59684
0.0679102 -0.157002 0.596525
0.0671207 -0.157618 0.596099
0.0663383 -0.158252 0.595747
0.0655478 -0.158858 0.595283
0.0647289 -0.159369 0.594433
0.0638613 -0.159713 0.592914
0.0629737 -0.159975 0.591074
0.0620019 -0.159931 0.588014
0.0610272 -0.159844 0.584811
0.060066 -0.15977 0.581692
0.0591352 -0.159771 0.578897
0.0582253 -0.159819 0.576313
0.0573961 -0.160143 0.574846
0.0565931 -0.160552 0.573722
0.0558126 -0.161037 0.572907
0.055049 -0.161583 0.572335
0.0542904 -0.162142 0.57182
0.0535364 -0.162715 0.571359
0.0527837 -0.163287 0.570905
0.0520485 -0.163932 0.570729
0.0513148 -0.164584 0.570582
0.0505881 -0.165267 0.570555
0.0498643 -0.165964 0.570579
0.0491426 -0.166673 0.570647
0.0484069 -0.167311 0.570446
0.0476708 -0.167943 0.57023
0.0469346 -0.168573 0.570003
0.0462064 -0.169246 0.569941
0.0454703 -0.169871 0.569699
0.0447395 -0.170522 0.569558
0.0440196 -0.171245 0.569674
0.0433006 -0.17197 0.569803
0.042582 -0.172706 0.569965
0.0418767 -0.173536 0.570464
0.0411777 -0.174415 0.571137
0.0404681 -0.175237 0.5716
0.0391228 -0.17537 0.572345
0.0397573 -0.176059 0.572055
0.0386291 -0.177972 0.579123
0.0390382 -0.176826 0.572315
0.0987348 -0.134665 0.614015
0.0978642 -0.13525 0.61325
0.09699 -0.135825 0.612442
0.0960654 -0.136313 0.611213
0.0951292 -0.136776 0.609868
0.0942154 -0.137267 0.608679
0.0933213 -0.137784 0.607632
0.0924462 -0.138327 0.606724
0.0915948 -0.138905 0.605995
0.0907405 -0.139474 0.60523
0.0899033 -0.140069 0.604594
0.0890818 -0.140689 0.604083
0.0882622 -0.141309 0.603581
0.0874443 -0.141928 0.603081
0.0866271 -0.142546 0.602578
0.0858233 -0.143187 0.602189
0.0850162 -0.143819 0.601759
0.0842299 -0.14449 0.601514
0.0834386 -0.145149 0.60122
0.0826475 -0.145807 0.600918
0.08183 -0.146406 0.600354
0.0810184 -0.147014 0.599837
0.0802016 -0.147607 0.599259
0.0793947 -0.148218 0.598767
0.0786084 -0.148873 0.598469
0.0778355 -0.149556 0.598304
0.0770686 -0.150253 0.598197
0.076302 -0.150949 0.598092
0.075541 -0.15166 0.598049
0.0747754 -0.152358 0.597951
0.0740038 -0.153042 0.597792
0.0732322 -0.153723 0.597621
0.07246 -0.154402 0.597446
0.0716941 -0.155097 0.597338
0.070925 -0.155782 0.597185
0.0701607 -0.156479 0.597092
0.0693903 -0.157159 0.596923
0.0686192 -0.157836 0.596741
0.0678381 -0.158482 0.596434
0.0670637 -0.159144 0.596196
0.066285 -0.159792 0.595907
0.0654792 -0.160351 0.59525
0.0646299 -0.160765 0.594015
0.0637603 -0.161098 0.592463
0.0627525 -0.160951 0.588997
0.0617318 -0.160722 0.585236
0.0607134 -0.160459 0.581375
0.0597363 -0.160303 0.577969
0.058827 -0.160357 0.575426
0.0580026 -0.1607 0.57404
0.0572026 -0.161122 0.572978
0.0564263 -0.161624 0.572232
0.0556622 -0.162168 0.571659
0.0549068 -0.16274 0.571193
0.0541526 -0.163312 0.570734
0.0533963 -0.16387 0.570227
0.0526612 -0.164514 0.570052
0.0519306 -0.165178 0.569952
0.0512051 -0.165865 0.569939
0.0504851 -0.16658 0.570029
0.0497671 -0.167305 0.570159
0.0490309 -0.167941 0.569954
0.0482913 -0.168556 0.569673
0.0475574 -0.169197 0.569492
0.0468299 -0.169874 0.569443
0.0460945 -0.170503 0.569216
0.0453661 -0.171169 0.569131
0.0446458 -0.171888 0.569236
0.043924 -0.172597 0.5693
0.0432032 -0.173318 0.569408
0.042499 -0.174147 0.569904
0.0418028 -0.175042 0.570631
0.0410986 -0.175901 0.571219
0.0403911 -0.176743 0.571747
0.0396767 -0.177546 0.57213
0.0995317 -0.135549 0.61452
0.0986601 -0.136136 0.613765
0.0977853 -0.136713 0.612969
0.096846 -0.137182 0.611642
0.0958985 -0.13763 0.610227
0.0949646 -0.138091 0.608895
0.094052 -0.13858 0.607713
0.0931651 -0.139105 0.606718
0.0923049 -0.13967 0.60593
0.0914571 -0.140252 0.605227
0.0906266 -0.140861 0.60466
0.0898124 -0.141496 0.604223
0.0889987 -0.14213 0.603783
0.0881869 -0.142764 0.603348
0.0873686 -0.143382 0.60285
0.0865642 -0.144025 0.602464
0.0857538 -0.144654 0.60202
0.0849602 -0.145312 0.601717
0.0841682 -0.145973 0.601423
0.0833753 -0.14663 0.60112
0.0825507 -0.147217 0.600504
0.081737 -0.147823 0.599976
0.0809192 -0.148417 0.599399
0.080111 -0.149028 0.598909
0.0793179 -0.14967 0.598555
0.0785369 -0.150337 0.598312
0.0777556 -0.151002 0.598068
0.0769754 -0.151668 0.597827
0.0762023 -0.152349 0.597656
0.0754308 -0.153033 0.597497
0.0746649 -0.153731 0.5974
0.0738991 -0.154428 0.597298
0.0731336 -0.155125 0.597195
0.0723729 -0.155835 0.597151
0.0716082 -0.156534 0.597058
0.0708487 -0.157246 0.597021
0.070083 -0.157942 0.596918
0.0693172 -0.158635 0.596805
0.0685413 -0.159299 0.596572
0.0677703 -0.159976 0.596391
0.0669998 -0.160653 0.596215
0.0662072 -0.161259 0.595751
0.0653866 -0.161772 0.594915
0.0644984 -0.162054 0.59316
0.0634621 -0.161826 0.589384
0.0624058 -0.16149 0.585214
0.0613426 -0.161084 0.5808
0.0603256 -0.160794 0.576887
0.0594287 -0.160896 0.574549
0.0586161 -0.161286 0.573356
0.0578167 -0.161711 0.572308
0.0570434 -0.162226 0.571618
0.056272 -0.162741 0.570938
0.0555158 -0.16331 0.570467
0.054758 -0.163866 0.56995
0.0540014 -0.164422 0.569439
0.0532665 -0.165066 0.569264
0.0525428 -0.165759 0.569276
0.0518212 -0.166463 0.569324
0.0511057 -0.167195 0.569481
0.0503915 -0.167937 0.569672
0.0496548 -0.168571 0.569462
0.0489119 -0.16917 0.569122
0.0481803 -0.169823 0.568987
0.0474504 -0.170487 0.568891
0.046715 -0.171116 0.568665
0.0459865 -0.171782 0.56858
0.0452662 -0.172497 0.56867
0.0445395 -0.173175 0.568625
0.0438192 -0.173894 0.568727
0.0431157 -0.174725 0.569228
0.0424254 -0.175654 0.570069
0.0417274 -0.176547 0.570778
0.0410251 -0.177423 0.571423
0.0403149 -0.178259 0.57192
0.100341 -0.136451 0.615102
0.099445 -0.137004 0.614174
0.0985559 -0.137562 0.613281
0.0976104 -0.138024 0.611929
0.0966532 -0.138459 0.610457
0.0957064 -0.138902 0.609039
0.0947822 -0.139374 0.607778
0.0938781 -0.139872 0.606657
0.0930102 -0.140426 0.605813
0.0921601 -0.141006 0.605102
0.0913288 -0.141615 0.604538
0.0905209 -0.142263 0.604163
0.0897152 -0.142912 0.603797
0.0889097 -0.143561 0.603432
0.0881036 -0.144205 0.603049
0.0873051 -0.144861 0.602726
0.0865008 -0.145505 0.602349
0.0857126 -0.146178 0.602109
0.0849189 -0.146839 0.601814
0.0841196 -0.147485 0.601459
0.0832919 -0.14807 0.600831
0.0824701 -0.148663 0.600242
0.0816437 -0.149241 0.599596
0.0808281 -0.149839 0.599042
0.0800219 -0.150453 0.598569
0.0792274 -0.151092 0.598203
0.0784325 -0.151727 0.597825
0.0776385 -0.152361 0.597448
0.0768588 -0.153026 0.597209
0.0760862 -0.153708 0.597043
0.075326 -0.15442 0.597003
0.0745657 -0.155132 0.596964
0.0738054 -0.155843 0.596924
0.0730451 -0.156555 0.596885
0.0722849 -0.157267 0.596846
0.0715246 -0.157978 0.596806
0.0707591 -0.158676 0.596709
0.0699938 -0.159372 0.596608
0.0692232 -0.160053 0.596443
0.0684526 -0.160733 0.596273
0.0676874 -0.161427 0.596165
0.0669084 -0.162079 0.595886
0.0661158 -0.162684 0.595424
0.0652053 -0.162904 0.593427
0.0641386 -0.162589 0.589318
0.0619619 -0.161676 0.580099
0.0609124 -0.161281 0.575795
0.0600322 -0.161446 0.573714
0.0592345 -0.16189 0.572743
0.058434 -0.162314 0.571698
0.05766 -0.162828 0.571009
0.0568849 -0.163328 0.570269
0.0561277 -0.163893 0.56979
0.055366 -0.164433 0.569216
0.0546097 -0.164989 0.568707
0.0538748 -0.165632 0.56853
0.0531517 -0.166326 0.568548
0.052431 -0.167031 0.5686
0.0517161 -0.167764 0.568763
0.0510055 -0.168521 0.569009
0.0502696 -0.169157 0.568807
0.0495295 -0.16977 0.568522
0.0487975 -0.170422 0.568385
0.0480677 -0.171084 0.56828
0.0473265 -0.171681 0.567945
0.0465953 -0.172329 0.567794
0.0458727 -0.173027 0.567822
0.0451489 -0.173718 0.567827
0.0444296 -0.174438 0.567935
0.0437321 -0.175303 0.568554
0.0430481 -0.176266 0.569511
0.0423538 -0.177177 0.570281
0.0416525 -0.178057 0.570935
0.040945 -0.178908 0.571484
0.101111 -0.137293 0.615373
0.100214 -0.137846 0.614446
0.0993085 -0.138381 0.613441
0.0983523 -0.138829 0.612024
0.0973826 -0.139246 0.610473
0.0964257 -0.139675 0.608989
0.0954906 -0.140131 0.607658
0.0945848 -0.140628 0.606538
0.0937153 -0.141181 0.605691
0.0928644 -0.141761 0.604985
0.0920308 -0.142368 0.60441
0.0912217 -0.143015 0.604032
0.0904156 -0.143665 0.603671
0.0896177 -0.144329 0.603372
0.0888196 -0.14499 0.603068
0.0880273 -0.145661 0.602811
0.0872304 -0.146321 0.602506
0.0864485 -0.147009 0.602331
0.0856607 -0.147684 0.602102
0.0848599 -0.148331 0.601744
0.0840306 -0.148916 0.601116
0.0832054 -0.149505 0.600511
0.0823759 -0.15008 0.599851
0.0815462 -0.15065 0.599175
0.0807255 -0.151235 0.598572
0.0799226 -0.151856 0.598131
0.0791196 -0.152474 0.59768
0.0783128 -0.15308 0.597182
0.0775264 -0.153731 0.59688
0.0767588 -0.154425 0.596766
0.0759983 -0.155137 0.596727
0.075233 -0.155837 0.596636
0.0744726 -0.156549 0.596597
0.0737114 -0.157259 0.596551
0.0729507 -0.15797 0.596507
0.0721906 -0.158682 0.596472
0.0714358 -0.15941 0.596497
0.070676 -0.160123 0.596462
0.06991 -0.160819 0.596361
0.0691391 -0.1615 0.596195
0.0683781 -0.162209 0.596145
0.0676084 -0.162892 0.595991
0.0668436 -0.163589 0.595891
0.0658893 -0.163678 0.593379
0.0648025 -0.163309 0.589077
0.0636912 -0.162812 0.58431
0.0625743 -0.162246 0.579318
0.0614909 -0.161742 0.574609
0.0606468 -0.162037 0.573049
0.0598491 -0.162482 0.572083
0.0590474 -0.162904 0.571036
0.0582728 -0.163415 0.570342
0.0574957 -0.163909 0.569586
0.056735 -0.16446 0.569053
0.0559725 -0.164997 0.568471
0.0552163 -0.165554 0.56797
