ply
format ascii 1.0
element vertex 1579
property float x
property float y
property float z
end_header
-0.0784013 -0.060562 0.897027
-0.077536 -0.059744 0.902718
-0.0764262 -0.0585463 0.902553
-0.0753291 -0.0573682 0.902696
-0.0742304 -0.0561878 0.9028
-0.0731317 -0.0550072 0.902896
-0.0720316 -0.0538242 0.902951
-0.0709239 -0.0526283 0.90277
-0.0698102 -0.051422 0.902384
-0.0686984 -0.0502181 0.902016
-0.067588 -0.0490158 0.901656
-0.0664758 -0.0478095 0.901191
-0.065362 -0.0465991 0.900614
-0.0642496 -0.0453903 0.900032
-0.0631415 -0.0441879 0.899546
-0.0620357 -0.0429888 0.899094
-0.0609292 -0.041787 0.898551
-0.0598258 -0.0405901 0.898081
-0.0587277 -0.0394024 0.897786
-0.0576318 -0.038218 0.897542
-0.0565396 -0.0370407 0.897453
-0.055458 -0.035886 0.897927
-0.0543774 -0.0347343 0.898499
-0.0532976 -0.0335857 0.899186
-0.0522237 -0.0324536 0.900374
-0.051156 -0.0313407 0.902201
-0.0500804 -0.0302128 0.903696
-0.0490038 -0.0290877 0.90538
-0.047922 -0.0279531 0.906878
-0.0468338 -0.0268038 0.907981
-0.0457398 -0.0256388 0.908605
-0.0446453 -0.0244748 0.90931
-0.0435489 -0.0233066 0.909903
-0.0424537 -0.0221494 0.910991
-0.0413577 -0.021001 0.912556
-0.040258 -0.019842 0.913799
-0.039156 -0.0186902 0.915516
-0.0380505 -0.0175368 0.917347
-0.0369422 -0.0163685 0.918586
-0.0358335 -0.015186 0.919132
-0.0334924 -0.0152567 0.927587
-0.120208 -0.102483 0.857074
-0.11921 -0.101423 0.857846
-0.118187 -0.100331 0.858345
-0.117135 -0.0992022 0.858519
-0.116087 -0.0980781 0.858735
-0.114992 -0.0968949 0.858404
-0.1139 -0.0957139 0.858081
-0.112808 -0.0945331 0.857749
-0.111718 -0.0933549 0.857428
-0.110621 -0.0921679 0.857013
-0.109532 -0.0909899 0.856671
-0.108444 -0.0898138 0.856335
-0.107359 -0.088641 0.856019
-0.106297 -0.0874966 0.855984
-0.105235 -0.0863544 0.855966
-0.104161 -0.085195 0.855762
-0.103104 -0.0840582 0.85579
-0.102047 -0.0829219 0.85582
-0.100976 -0.0817658 0.855628
-0.0998929 -0.080594 0.855254
-0.0988366 -0.0794577 0.855263
-0.0977583 -0.0782919 0.854931
-0.0966889 -0.0771374 0.854717
-0.0956431 -0.0760149 0.854867
-0.0946154 -0.0749168 0.855309
-0.0935875 -0.0738188 0.855761
-0.0925702 -0.0727353 0.856399
-0.0915883 -0.071701 0.857668
-0.0906088 -0.0706707 0.859022
-0.089618 -0.0696256 0.860225
-0.0886317 -0.0685878 0.861556
-0.0876388 -0.0675413 0.862812
-0.0866071 -0.0664411 0.863376
-0.085565 -0.0653266 0.863756
-0.0845297 -0.0642217 0.86428
-0.0834801 -0.0630968 0.86453
-0.0825133 -0.0620912 0.866519
-0.0818289 -0.0614969 0.874659
-0.0811442 -0.060909 0.883197
-0.0804491 -0.0603135 0.891939
-0.0796968 -0.0596414 0.899813
-0.0788142 -0.0587824 0.905007
-0.0776829 -0.0575545 0.904393
-0.0765752 -0.0563614 0.904327
-0.0754698 -0.0551718 0.904309
-0.0743695 -0.0539899 0.904416
-0.0732667 -0.0528038 0.904448
-0.0721563 -0.0516058 0.904256
-0.0710396 -0.0503974 0.903858
-0.0699253 -0.0491921 0.903488
-0.0688156 -0.0479935 0.903227
-0.0677012 -0.0467867 0.902777
-0.0665847 -0.0455754 0.902205
-0.0654687 -0.0443642 0.901598
-0.0643552 -0.043156 0.901016
-0.0632417 -0.0419464 0.900361
-0.0621302 -0.0407394 0.899718
-0.061022 -0.0395367 0.899129
-0.0599222 -0.0383485 0.898844
-0.0588266 -0.0371673 0.898706
-0.0577347 -0.0359927 0.898719
-0.056654 -0.0348402 0.899302
-0.0555758 -0.0336937 0.900078
-0.0544968 -0.0325467 0.900885
-0.0534242 -0.0314157 0.902205
-0.0523565 -0.030299 0.904044
-0.0512817 -0.0291707 0.905648
-0.0502045 -0.0280407 0.907313
-0.0491212 -0.0268999 0.908738
-0.048032 -0.0257473 0.909849
-0.0469373 -0.0245823 0.910583
-0.0458412 -0.0234156 0.911308
-0.0447437 -0.0222469 0.912001
-0.0436476 -0.0210884 0.913196
-0.0425513 -0.0199382 0.914889
-0.0414494 -0.0187709 0.915926
-0.0403465 -0.0176115 0.917485
-0.0392405 -0.0164486 0.919042
-0.0381315 -0.0152749 0.920153
-0.121295 -0.101365 0.856515
-0.120326 -0.100338 0.857589
-0.119318 -0.0992645 0.858257
-0.118275 -0.098146 0.858526
-0.117235 -0.0970331 0.858847
-0.116142 -0.0958528 0.858541
-0.115048 -0.0946711 0.858208
-0.113954 -0.0934887 0.857859
-0.112862 -0.0923098 0.857529
-0.111766 -0.0911248 0.857127
-0.110678 -0.0899499 0.856812
-0.109589 -0.088774 0.856476
-0.108501 -0.0875987 0.856134
-0.10743 -0.0864441 0.855991
-0.106361 -0.0852928 0.855879
-0.105293 -0.0841425 0.855766
-0.104243 -0.0830153 0.855897
-0.103193 -0.0818878 0.856024
-0.102128 -0.0807403 0.855928
-0.101055 -0.0795829 0.855714
-0.0999922 -0.0784393 0.855645
-0.0989066 -0.0772653 0.855219
-0.09783 -0.0761026 0.854909
-0.0967724 -0.0749646 0.854879
-0.0957274 -0.0738432 0.855043
-0.0946992 -0.0727439 0.85548
-0.0936822 -0.0716593 0.85611
-0.0926969 -0.0706174 0.857295
-0.0917181 -0.0695846 0.85863
-0.0907284 -0.0685379 0.859823
-0.089738 -0.0674912 0.861048
-0.0887428 -0.0664384 0.862229
-0.0877125 -0.0653387 0.862799
-0.086677 -0.0642323 0.863287
-0.0856432 -0.0631286 0.863827
-0.0845945 -0.0620044 0.864083
-0.0836372 -0.0610065 0.866208
-0.0829989 -0.0604531 0.875101
-0.0823484 -0.0598893 0.884166
-0.0816866 -0.0593161 0.893431
-0.0809526 -0.0586481 0.901544
-0.0800827 -0.0577932 0.906937
-0.0789303 -0.0565381 0.905899
-0.0778115 -0.0553305 0.905616
-0.0766962 -0.0541277 0.905395
-0.0755974 -0.0529485 0.905574
-0.07449 -0.0517569 0.90553
-0.0733783 -0.0505586 0.905354
-0.0722636 -0.0493552 0.905065
-0.0711509 -0.0481546 0.904807
-0.07004 -0.0469563 0.904574
-0.0689234 -0.0457488 0.904133
-0.0678099 -0.0445453 0.903744
-0.066691 -0.0433327 0.903132
-0.0655749 -0.0421235 0.902553
-0.0644554 -0.0409082 0.901791
-0.0633431 -0.0397032 0.901218
-0.0622272 -0.0384912 0.900433
-0.0611246 -0.0373007 0.900121
-0.0600291 -0.0361217 0.900073
-0.0589376 -0.0349494 0.900187
-0.0578577 -0.0337982 0.900873
-0.0567822 -0.0326561 0.901852
-0.055702 -0.0315065 0.902672
-0.0546293 -0.030373 0.904025
-0.0535616 -0.0292523 0.905877
-0.0524852 -0.0281176 0.907398
-0.0514065 -0.0269807 0.908966
-0.0503238 -0.025839 0.910482
-0.0492337 -0.0246832 0.911598
-0.0481386 -0.0235178 0.912434
-0.0470418 -0.0223502 0.913244
-0.0459433 -0.0211806 0.914038
-0.0448461 -0.0200186 0.915246
-0.0437486 -0.018862 0.916834
-0.0426453 -0.0176901 0.917818
-0.0415416 -0.0165249 0.919284
-0.0404345 -0.0153525 0.920509
-0.0393246 -0.0141711 0.921331
-0.12342 -0.101361 0.855671
-0.122433 -0.100309 0.856515
-0.121464 -0.0992818 0.85759
-0.120463 -0.0982146 0.858322
-0.119421 -0.0970976 0.858607
-0.118383 -0.0959863 0.858948
-0.117298 -0.0948167 0.858739
-0.116203 -0.0936356 0.858411
-0.115107 -0.0924524 0.858051
-0.114014 -0.0912726 0.85771
-0.112917 -0.090089 0.85732
-0.11183 -0.0889156 0.85702
-0.110741 -0.0877407 0.85669
-0.109651 -0.0865645 0.856336
-0.10857 -0.0853998 0.856088
-0.107494 -0.0842394 0.855876
-0.106426 -0.0830901 0.855773
-0.105384 -0.0819722 0.856008
-0.104336 -0.0808476 0.856169
-0.103276 -0.0797084 0.856165
-0.102209 -0.0785595 0.856047
-0.101145 -0.077415 0.855973
-0.100058 -0.0762405 0.855538
-0.098985 -0.0750838 0.8553
-0.0979258 -0.0739447 0.855259
-0.0968743 -0.0728148 0.855329
-0.0958406 -0.0717079 0.85568
-0.0948181 -0.0706152 0.856217
-0.0938241 -0.0695592 0.85724
-0.0928354 -0.0685105 0.858386
-0.0918405 -0.0674543 0.859465
-0.0908508 -0.0664053 0.860672
-0.0898577 -0.0653524 0.861861
-0.0888341 -0.0642603 0.862539
-0.087804 -0.06316 0.863118
-0.0867754 -0.0620618 0.863742
-0.085722 -0.0609314 0.863908
-0.0848615 -0.0600562 0.867911
-0.0842609 -0.0595289 0.877392
-0.083642 -0.0589828 0.886944
-0.0829877 -0.0583952 0.896202
-0.0822649 -0.0577207 0.904417
-0.0813259 -0.0567583 0.908186
-0.080158 -0.0554859 0.90686
-0.0790329 -0.0542713 0.906468
-0.0779153 -0.0530667 0.906229
-0.0768112 -0.0518805 0.906304
-0.0757033 -0.050689 0.906276
-0.0745986 -0.0495018 0.906322
-0.0734907 -0.0483099 0.90627
-0.0723802 -0.0471144 0.906136
-0.071274 -0.0459244 0.9061
-0.070155 -0.0447158 0.905662
-0.0690449 -0.04352 0.905468
-0.0679298 -0.042316 0.905074
-0.0668163 -0.0411142 0.904698
-0.0656963 -0.0399019 0.904048
-0.0645823 -0.0386977 0.903542
-0.0634567 -0.037475 0.902538
-0.0623482 -0.0362776 0.902109
-0.0612476 -0.0350926 0.901961
-0.0601536 -0.0339177 0.902069
-0.0590723 -0.0327639 0.902769
-0.0579958 -0.0316188 0.903757
-0.0569106 -0.03046 0.904394
-0.0558351 -0.0293189 0.905626
-0.0547642 -0.0281882 0.90728
-0.0536847 -0.027044 0.908599
-0.0526048 -0.0259014 0.910075
-0.0515222 -0.0247564 0.911583
-0.0504306 -0.0235953 0.912595
-0.0493351 -0.0224277 0.913424
-0.048237 -0.0212562 0.914151
-0.0471373 -0.0200826 0.914849
-0.0460394 -0.0189158 0.915941
-0.0449408 -0.0177506 0.917226
-0.0438374 -0.0165752 0.918103
-0.042734 -0.0154047 0.919372
-0.1244 -0.102402 0.854756
-0.125536 -0.101349 0.854756
-0.12455 -0.100298 0.855594
-0.12356 -0.0992415 0.856399
-0.12259 -0.0982096 0.857444
-0.121603 -0.0971572 0.858321
-0.120577 -0.096059 0.858783
-0.11954 -0.0949489 0.859141
-0.118462 -0.0937892 0.859027
-0.117374 -0.0926168 0.858782
-0.116269 -0.0914249 0.858335
-0.115167 -0.0902361 0.857906
-0.114076 -0.0890606 0.857594
-0.112981 -0.0878793 0.857212
-0.111884 -0.0866966 0.856799
-0.110793 -0.08552 0.856438
-0.109704 -0.0843467 0.856096
-0.108627 -0.0831864 0.855881
-0.107572 -0.0820534 0.855955
-0.106538 -0.0809449 0.856298
-0.105497 -0.0798296 0.856568
-0.10445 -0.0787062 0.85675
-0.103383 -0.0775579 0.856644
-0.102312 -0.0764053 0.856481
-0.10123 -0.0752384 0.856139
-0.100155 -0.0740804 0.855888
-0.0990888 -0.0729336 0.855762
-0.098036 -0.0718028 0.855827
-0.0970016 -0.0706944 0.856172
-0.0959735 -0.0695939 0.856625
-0.0949796 -0.0685358 0.857641
-0.0939858 -0.0674782 0.858693
-0.0929905 -0.0664192 0.859754
-0.0919963 -0.0653618 0.860869
-0.0909989 -0.0643006 0.861965
-0.0899709 -0.0632017 0.862557
-0.0889407 -0.0621002 0.863127
-0.0879076 -0.0609952 0.86366
-0.086849 -0.0598582 0.863727
-0.086086 -0.0590963 0.869531
-0.0855069 -0.0585712 0.879249
-0.0848987 -0.0580136 0.888827
-0.0842625 -0.0574246 0.898274
-0.0835535 -0.0567465 0.906626
-0.0825435 -0.0556825 0.9088
-0.0813736 -0.0544122 0.907492
-0.0802431 -0.0531922 0.907009
-0.0791275 -0.0519915 0.906847
-0.078022 -0.050804 0.906913
-0.0769178 -0.049618 0.907001
-0.0758209 -0.0484419 0.907277
-0.0747234 -0.0472649 0.907542
-0.0736151 -0.0460734 0.907517
-0.0725103 -0.0448866 0.907578
-0.0713919 -0.043681 0.907234
-0.0702834 -0.0424888 0.907155
-0.0691727 -0.0412934 0.90699
-0.0680639 -0.0401005 0.906864
-0.0669495 -0.0388993 0.906519
-0.0658349 -0.0376974 0.906131
-0.0647068 -0.0364755 0.905199
-0.0635991 -0.0352824 0.90495
-0.0624921 -0.0340901 0.904698
-0.0613907 -0.0329058 0.904635
-0.060303 -0.0317417 0.905148
-0.0592174 -0.0305816 0.905808
-0.0581218 -0.0294061 0.906018
-0.0570389 -0.0282511 0.906906
-0.0559641 -0.0271102 0.908332
-0.0548826 -0.0259598 0.909525
-0.0538015 -0.0248115 0.910897
-0.0527168 -0.0236589 0.912211
-0.0516251 -0.0224957 0.913213
-0.0505285 -0.0213244 0.91395
-0.0494292 -0.0201491 0.914577
-0.0483286 -0.0189721 0.91517
-0.0472285 -0.0177977 0.915947
-0.0461284 -0.0166245 0.916881
-0.0450366 -0.0154757 0.919336
-0.0439449 -0.0143368 0.922761
-0.0428411 -0.0131735 0.925074
-0.126679 -0.100303 0.85482
-0.12569 -0.0992468 0.855624
-0.124698 -0.0981861 0.856399
-0.123726 -0.0971494 0.85741
-0.122737 -0.0960938 0.858265
-0.121719 -0.0950037 0.858808
-0.120683 -0.0938934 0.859168
-0.119613 -0.0927441 0.859152
-0.118532 -0.0915818 0.859004
-0.117427 -0.0903909 0.858566
-0.116315 -0.0891924 0.858034
-0.115222 -0.0880153 0.857704
-0.114124 -0.0868328 0.857304
-0.11302 -0.0856424 0.856809
-0.111929 -0.0844676 0.856459
-0.110839 -0.0832936 0.856106
-0.109761 -0.0821333 0.855888
-0.108706 -0.081001 0.855969
-0.107673 -0.0798936 0.856328
-0.106646 -0.0787936 0.856776
-0.105605 -0.0776777 0.85705
-0.104544 -0.0765369 0.857034
-0.103473 -0.0753857 0.85689
-0.102396 -0.0742262 0.856637
-0.101315 -0.0730623 0.856316
-0.100248 -0.0719156 0.856196
-0.0992009 -0.0707913 0.856349
-0.0981714 -0.0696883 0.856777
-0.0971484 -0.0685933 0.857317
-0.096154 -0.0675325 0.858323
-0.09516 -0.0664724 0.859367
-0.0941592 -0.0654045 0.860334
-0.09316 -0.0643386 0.861359
-0.0921525 -0.0632629 0.862274
-0.0911185 -0.0621558 0.86276
-0.0900826 -0.0610462 0.863225
-0.0890443 -0.0599339 0.863659
-0.0879758 -0.058785 0.863544
-0.0872173 -0.0580136 0.8693
-0.0866464 -0.0574731 0.878946
-0.0860592 -0.056916 0.888703
-0.0854302 -0.056311 0.898063
-0.0847394 -0.0556332 0.906579
-0.0837397 -0.0545768 0.908922
-0.0825783 -0.0533209 0.907844
-0.0814509 -0.0521067 0.907462
-0.080334 -0.0509053 0.907292
-0.0792277 -0.0497171 0.907354
-0.0781271 -0.0485363 0.907553
-0.077034 -0.0473647 0.907936
-0.0759406 -0.0461929 0.908326
-0.0748349 -0.0450053 0.908403
-0.0737321 -0.0438217 0.908556
-0.0726183 -0.0426237 0.908392
-0.0715153 -0.0414397 0.908529
-0.0704138 -0.0402575 0.908703
-0.0693138 -0.0390772 0.908923
-0.0682068 -0.0378878 0.908923
-0.067101 -0.0366999 0.908949
-0.06598 -0.0354916 0.908434
-0.0648743 -0.0343035 0.908417
-0.0637607 -0.0331043 0.908083
-0.0626495 -0.0319085 0.907803
-0.061545 -0.0307215 0.90776
-0.0604425 -0.0295371 0.90778
-0.0593324 -0.0283416 0.90743
-0.0582397 -0.027171 0.907878
-0.0571605 -0.0260205 0.90906
-0.0560752 -0.0248617 0.91003
-0.0549915 -0.0237062 0.911202
-0.0539298 -0.0225859 0.913902
-0.0528625 -0.0214596 0.916615
-0.051785 -0.0203201 0.919008
-0.0507018 -0.0191739 0.921355
-0.0496119 -0.0180196 0.923549
-0.0485018 -0.0168318 0.92421
-0.0473972 -0.0156556 0.925605
-0.0463019 -0.0145007 0.928524
-0.126914 -0.0982888 0.856509
-0.125903 -0.0972063 0.8571
-0.124903 -0.0961355 0.85781
-0.123904 -0.0950667 0.858553
-0.122885 -0.0939753 0.859092
-0.121835 -0.0928485 0.859299
-0.120774 -0.0917087 0.859378
-0.119699 -0.0905545 0.859311
-0.118586 -0.0893555 0.858789
-0.117473 -0.0881574 0.858257
-0.116377 -0.0869788 0.85791
-0.115277 -0.0857953 0.857497
-0.114171 -0.0846049 0.856996
-0.113086 -0.0834379 0.856729
-0.111989 -0.0822573 0.856302
-0.110916 -0.0811044 0.856165
-0.109861 -0.0799717 0.856245
-0.108828 -0.0788645 0.856614
-0.107802 -0.0777645 0.857071
-0.106767 -0.0766553 0.85743
-0.105705 -0.0755141 0.857414
-0.104634 -0.074363 0.857274
-0.103556 -0.0732035 0.857022
-0.102474 -0.0720401 0.856709
-0.101407 -0.0708936 0.856596
-0.100366 -0.0697764 0.856848
-0.0993365 -0.0686733 0.857287
-0.0983138 -0.0675777 0.857835
-0.09732 -0.0665153 0.858843
-0.0963266 -0.0654538 0.859892
-0.0953208 -0.064378 0.860773
-0.0943164 -0.063304 0.861705
-0.0933029 -0.0622195 0.862513
-0.0922617 -0.0611031 0.862876
-0.0912197 -0.0599857 0.863232
-0.0901763 -0.0588668 0.863571
-0.0891119 -0.0577233 0.863536
-0.0883546 -0.0569388 0.869188
-0.0877891 -0.05638 0.878713
-0.0872074 -0.0558043 0.888345
-0.08659 -0.0551888 0.897701
-0.0859123 -0.0545046 0.906268
-0.084927 -0.0534596 0.90885
-0.0837748 -0.0522177 0.908001
-0.0826559 -0.051015 0.907824
-0.0815465 -0.0498235 0.907843
-0.0804396 -0.0486351 0.907915
-0.0793388 -0.0474538 0.908121
-0.0782534 -0.0462909 0.908703
-0.0771629 -0.0451222 0.909185
-0.0760528 -0.0439298 0.909179
-0.0749491 -0.0427451 0.909333
-0.0738375 -0.0415508 0.90927
-0.0727295 -0.040361 0.909295
-0.071628 -0.0391789 0.909499
-0.0705342 -0.0380064 0.909937
-0.0694328 -0.0368247 0.910161
-0.0683428 -0.0356568 0.910751
-0.067236 -0.0344684 0.910815
-0.066144 -0.0332984 0.911385
-0.0650349 -0.0321072 0.91137
-0.0639229 -0.030912 0.911223
-0.0628013 -0.0297047 0.91067
-0.0616811 -0.0284985 0.910102
-0.0605549 -0.0272841 0.909193
-0.0594469 -0.0260933 0.90902
-0.0583917 -0.0249719 0.911375
-0.0573334 -0.0238478 0.913828
-0.0562766 -0.022727 0.91665
-0.055242 -0.0216387 0.921126
-0.0541898 -0.0205288 0.925114
-0.053107 -0.0193787 0.927627
-0.052019 -0.0182232 0.930163
-0.050922 -0.0170561 0.932391
-0.0498013 -0.0158555 0.932971
-0.0486947 -0.0146772 0.935007
-0.0475888 -0.0135026 0.937591
-0.127122 -0.0962381 0.857925
-0.126093 -0.0951342 0.858341
-0.125082 -0.09405 0.858949
-0.124061 -0.0929554 0.859469
-0.123003 -0.091819 0.859586
-0.121957 -0.0906971 0.859847
-0.120883 -0.0895433 0.85979
-0.119767 -0.0883444 0.859266
-0.118652 -0.0871462 0.858732
-0.117548 -0.0859587 0.858294
-0.116439 -0.0847667 0.85779
-0.115331 -0.0835763 0.857286
-0.114246 -0.0824109 0.857036
-0.113148 -0.0812303 0.856606
-0.112081 -0.080085 0.856557
-0.111025 -0.0789514 0.856632
-0.109985 -0.0778349 0.856904
-0.108951 -0.0767263 0.85727
-0.107917 -0.0756162 0.857626
-0.106854 -0.0744753 0.857615
-0.105782 -0.0733238 0.857471
-0.104709 -0.0721718 0.85731
-0.103632 -0.0710146 0.857075
-0.10257 -0.0698743 0.857043
-0.101535 -0.068764 0.857396
-0.100507 -0.0676618 0.85786
-0.0994862 -0.0665667 0.858433
-0.0984926 -0.0655025 0.859442
-0.0974934 -0.0644323 0.860395
-0.0964822 -0.0633486 0.861187
-0.0954723 -0.0622664 0.862024
-0.0944527 -0.0611737 0.862729
-0.093405 -0.0600494 0.862984
-0.0923569 -0.0589249 0.863236
-0.0913083 -0.0577996 0.863483
-0.0902493 -0.0566627 0.863548
-0.0895006 -0.0558738 0.869235
-0.0889333 -0.0552892 0.878515
-0.0883472 -0.0546843 0.887836
-0.0877448 -0.0540625 0.897258
-0.0870805 -0.0533718 0.905875
-0.086104 -0.0523304 0.908566
-0.084966 -0.0511072 0.908031
-0.0838567 -0.0499162 0.908071
-0.0827652 -0.0487454 0.908494
-0.0816629 -0.0475624 0.908687
-0.0805694 -0.0463894 0.909084
-0.0794958 -0.0452389 0.909962
-0.0784124 -0.0440776 0.910644
-0.0772971 -0.0428799 0.910559
-0.0761913 -0.041693 0.910703
-0.0750745 -0.0404935 0.910555
-0.0739549 -0.0392909 0.910313
-0.0728484 -0.038103 0.91041
-0.0717557 -0.0369311 0.910904
-0.0706602 -0.0357559 0.911336
-0.069579 -0.0345976 0.912235
-0.0685251 -0.0334708 0.914068
-0.0674426 -0.0323112 0.915071
-0.0663619 -0.0311539 0.916204
-0.0652642 -0.0299768 0.916797
-0.0641603 -0.0287925 0.917193
-0.0630318 -0.0275795 0.916633
-0.0618934 -0.0263543 0.915591
-0.0607915 -0.0251726 0.916028
-0.059741 -0.024052 0.918847
-0.058687 -0.022928 0.92179
-0.0576303 -0.0218018 0.924927
-0.0566114 -0.0207225 0.930492
-0.0555466 -0.0195887 0.934107
-0.0544588 -0.0184276 0.936769
-0.0533646 -0.0172599 0.939405
-0.052262 -0.0160823 0.941822
-0.0511317 -0.0148705 0.942465
-0.0453874 -0.0111847 0.946712
-0.0478006 -0.0113179 0.951571
-0.0466814 -0.0101255 0.955134
-0.128318 -0.09524 0.858489
-0.127277 -0.0941228 0.858787
-0.126267 -0.0930383 0.859405
-0.125257 -0.0919546 0.860042
-0.124199 -0.0908187 0.860172
-0.123152 -0.0896955 0.86043
-0.122084 -0.0885485 0.860447
-0.120959 -0.0873413 0.85984
-0.119836 -0.0861357 0.85923
-0.118729 -0.0849478 0.858785
-0.117611 -0.0837479 0.858198
-0.116494 -0.0825489 0.857599
-0.115409 -0.0813837 0.857351
-0.11431 -0.0802045 0.856936
-0.113244 -0.0790597 0.856895
-0.112193 -0.0779317 0.85704
-0.111151 -0.0768142 0.857308
-0.110117 -0.0757039 0.857664
-0.109081 -0.0745925 0.858013
-0.108018 -0.0734507 0.857999
-0.106945 -0.0722995 0.85786
-0.105864 -0.0711397 0.857605
-0.104786 -0.0699817 0.857358
-0.103723 -0.068841 0.857324
-0.102688 -0.0677305 0.857683
-0.101661 -0.0666288 0.858166
-0.100652 -0.0655456 0.858914
-0.0996651 -0.0644863 0.860015
-0.0986716 -0.0634202 0.861051
-0.0976656 -0.0623406 0.861926
-0.0966553 -0.0612563 0.862758
-0.0956298 -0.0601558 0.863372
-0.0945703 -0.0590185 0.863445
-0.0935105 -0.0578811 0.863511
-0.0924509 -0.0567438 0.863575
-0.0913922 -0.0556075 0.863652
-0.0906211 -0.0547807 0.868822
-0.0900486 -0.0541678 0.877798
-0.0894728 -0.0535513 0.887089
-0.0888684 -0.052904 0.896238
-0.0882116 -0.0522006 0.904779
-0.0872676 -0.0511879 0.908028
-0.0861551 -0.0499939 0.908017
-0.0850617 -0.0488204 0.908391
-0.083986 -0.0476659 0.909151
-0.0828972 -0.0464973 0.909656
-0.081813 -0.0453338 0.910281
-0.080744 -0.0441866 0.911277
-0.0796609 -0.0430242 0.911988
-0.078548 -0.0418298 0.912011
-0.0774435 -0.0406443 0.912231
-0.0763212 -0.0394397 0.912002
-0.0751923 -0.038228 0.911574
-0.0740773 -0.0370312 0.911484
-0.0718669 -0.0346588 0.911822
-0.0708019 -0.033516 0.9132
-0.0688061 -0.0313751 0.920546
-0.0677546 -0.0302469 0.922828
-0.0666589 -0.0290709 0.92374
-0.0655643 -0.0278963 0.924756
-0.0644308 -0.0266798 0.92438
-0.0632917 -0.0254569 0.923722
-0.0622048 -0.0242906 0.925156
-0.0611617 -0.0231717 0.928616
-0.0580211 -0.0198028 0.940728
-0.0569379 -0.0186406 0.943751
-0.0558352 -0.0174575 0.946036
-0.0547321 -0.0162739 0.948581
-0.0536232 -0.0150838 0.951081
-0.052483 -0.0138605 0.951768
-0.0500245 -0.0136889 0.94521
-0.0513583 -0.0126539 0.953751
-0.0489093 -0.0124981 0.947739
-0.0502326 -0.0114457 0.955946
-0.0490984 -0.0102287 0.957819
-0.0479597 -0.00900731 0.959664
-0.128474 -0.0931217 0.859346
-0.127451 -0.0920232 0.85984
-0.126442 -0.0909385 0.860479
-0.125391 -0.0898103 0.860693
-0.124344 -0.0886869 0.860958
-0.123275 -0.0875399 0.860982
-0.122148 -0.0863322 0.860368
-0.121022 -0.0851251 0.859741
-0.119906 -0.0839294 0.859213
-0.118785 -0.082728 0.858606
-0.117666 -0.0815286 0.858
-0.116579 -0.0803628 0.857747
-0.11548 -0.0791841 0.857337
-0.114406 -0.0780321 0.857216
-0.113348 -0.0768969 0.857285
-0.112291 -0.0757629 0.857363
-0.111248 -0.0746432 0.857612
-0.110205 -0.0735238 0.857867
-0.109148 -0.0723894 0.85794
-0.108077 -0.07124 0.85782
-0.107002 -0.070088 0.857659
-0.105929 -0.0689362 0.85749
-0.104871 -0.0678017 0.857539
-0.103837 -0.066691 0.857902
-0.102817 -0.0655954 0.85848
-0.101813 -0.0645167 0.859306
-0.100827 -0.0634556 0.860404
-0.0998343 -0.0623881 0.861446
-0.0988293 -0.0613079 0.862332
-0.0978198 -0.0602228 0.863172
-0.0967942 -0.0591211 0.863785
-0.0957283 -0.0579774 0.863766
-0.0946617 -0.056833 0.863729
-0.0935949 -0.0556887 0.863683
-0.0925353 -0.0545516 0.863751
-0.0917526 -0.0537006 0.868615
-0.091179 -0.0530651 0.877377
-0.0906 -0.0524231 0.886399
-0.0900111 -0.05177 0.895616
-0.0893608 -0.0510528 0.904072
-0.0884394 -0.050056 0.907669
-0.0873497 -0.0488856 0.908103
-0.0862776 -0.0477337 0.908909
-0.085219 -0.0465952 0.91002
-0.0841496 -0.0454456 0.910951
-0.0830801 -0.044296 0.911919
-0.0820209 -0.0431566 0.913153
-0.0809377 -0.0419928 0.9139
-0.0798258 -0.0407995 0.914002
-0.0787186 -0.0396112 0.914217
-0.0775897 -0.0384005 0.913892
-0.0764538 -0.037183 0.913363
-0.0692565 -0.0294169 0.932429
-0.0669955 -0.0269906 0.932613
-0.065864 -0.0257765 0.932657
-0.0647288 -0.0245589 0.932556
-0.0636548 -0.0234013 0.934835
-0.0590526 -0.0209089 0.935516
-0.0615567 -0.0211332 0.942184
-0.0604832 -0.0199743 0.945298
-0.0594356 -0.0188398 0.949999
-0.0583329 -0.0176507 0.952371
-0.0572203 -0.0164523 0.954534
-0.0561087 -0.0152541 0.956999
-0.0549927 -0.0140507 0.959494
-0.053846 -0.0128183 0.960313
-0.0526965 -0.0115837 0.961081
-0.0515414 -0.0103434 0.961478
-0.0503813 -0.00909808 0.961412
-0.0492223 -0.0078546 0.961528
-0.129687 -0.0921339 0.86005
-0.128683 -0.0910545 0.860746
-0.127674 -0.0899684 0.861389
-0.12663 -0.0888478 0.861694
-0.12559 -0.0877306 0.862037
-0.12451 -0.0865726 0.861962
-0.123372 -0.0853557 0.861254
-0.122243 -0.0841478 0.860621
-0.121116 -0.0829421 0.859991
-0.119984 -0.0817311 0.85928
-0.118855 -0.080523 0.858576
-0.117756 -0.0793468 0.858211
-0.116648 -0.0781607 0.857716
-0.115573 -0.0770078 0.857589
-0.114515 -0.0758723 0.857659
-0.113456 -0.0747371 0.857729
-0.112405 -0.0736091 0.857885
-0.111361 -0.0724879 0.858125
-0.110304 -0.0713537 0.858203
-0.109233 -0.0702052 0.858097
-0.108153 -0.0690479 0.857869
-0.107085 -0.0679034 0.857794
-0.106027 -0.0667683 0.857841
-0.104987 -0.0656513 0.858128
-0.10396 -0.0645477 0.858608
-0.102963 -0.0634735 0.859511
-0.101977 -0.0624111 0.860614
-0.100987 -0.0613444 0.861685
-0.0999904 -0.0602703 0.86268
-0.0989873 -0.0591901 0.863615
-0.0979618 -0.0580873 0.86423
-0.0968945 -0.0569425 0.864201
-0.0958261 -0.0557968 0.864149
-0.0947569 -0.0546503 0.864076
-0.093695 -0.0535113 0.864118
-0.0929179 -0.0526545 0.868988
-0.0923441 -0.0519982 0.877569
-0.0917772 -0.051347 0.886617
-0.0911802 -0.0506645 0.895494
-0.0905395 -0.0499371 0.903936
-0.0896287 -0.0489425 0.907651
-0.088562 -0.0477941 0.908525
-0.0875087 -0.0466589 0.909696
-0.0864761 -0.0455435 0.911328
-0.0854272 -0.0444121 0.912696
-0.084377 -0.043279 0.914095
-0.0833278 -0.0421465 0.915575
-0.0822516 -0.0409878 0.916525
-0.0811304 -0.0397855 0.916491
-0.0800093 -0.0385832 0.916445
-0.0788698 -0.0373634 0.915947
-0.0777215 -0.0361353 0.91519
-0.0707817 -0.0285641 0.942014
-0.0695916 -0.0272946 0.940556
-0.0684525 -0.0260724 0.940675
-0.0673207 -0.0248567 0.941041
-0.0661854 -0.0236378 0.941294
-0.0651195 -0.0224808 0.944162
-0.0640628 -0.0213309 0.947634
-0.0629977 -0.0201723 0.951081
-0.0619149 -0.0189962 0.954055
-0.0608175 -0.0178071 0.956709
-0.0596689 -0.0165729 0.957145
-0.0585226 -0.0153408 0.957762
-0.057381 -0.0141118 0.95863
-0.0562373 -0.0128812 0.959528
-0.0550932 -0.0116493 0.960447
-0.0539477 -0.0104162 0.961427
-0.052791 -0.00917409 0.961733
-0.0516312 -0.00792954 0.961778
-0.0504729 -0.00668647 0.962004
-0.130906 -0.0911492 0.860803
-0.129914 -0.090079 0.861609
-0.128899 -0.0889865 0.862204
-0.127872 -0.0878825 0.862694
-0.126848 -0.0867804 0.86321
-0.125759 -0.0856142 0.86306
-0.124625 -0.0844031 0.862421
-0.123493 -0.0831936 0.861779
-0.122354 -0.0819784 0.86105
-0.121204 -0.0807508 0.86016
-0.120062 -0.0795323 0.859342
-0.118945 -0.0783391 0.858785
-0.117826 -0.0771437 0.858182
-0.116734 -0.075975 0.857873
-0.115667 -0.0748309 0.857844
-0.1146 -0.0736874 0.857817
-0.113541 -0.0725515 0.857878
-0.112489 -0.0714226 0.858022
-0.111439 -0.0702959 0.858196
-0.110375 -0.0691552 0.858188
-0.109302 -0.0680056 0.858058
-0.108241 -0.0668679 0.858076
-0.10719 -0.0657395 0.858217
-0.106143 -0.0646157 0.858422
-0.105115 -0.0635104 0.858889
-0.104118 -0.0624349 0.859793
-0.103134 -0.0613715 0.860902
-0.102146 -0.0603047 0.861995
-0.101156 -0.0592355 0.863087
-0.100154 -0.0581541 0.864029
-0.0991289 -0.0570502 0.864644
-0.0980606 -0.0559051 0.864615
-0.0969914 -0.054759 0.864563
-0.0959159 -0.053607 0.864405
-0.094847 -0.0524613 0.864339
-0.0939696 -0.0514981 0.867451
-0.0933936 -0.0508204 0.875792
-0.0922623 -0.0494768 0.893836
-0.0916533 -0.0487604 0.902632
-0.0908558 -0.0478641 0.908325
-0.0898061 -0.04673 0.90952
-0.08877 -0.0456083 0.911022
-0.0877492 -0.0445003 0.912884
-0.0867215 -0.0433854 0.914685
-0.0856868 -0.0422634 0.91642
-0.0846339 -0.0411242 0.917848
-0.0835552 -0.0399609 0.918783
-0.0824361 -0.0387605 0.918859
-0.0813024 -0.0375468 0.918599
-0.0801597 -0.0363252 0.918105
-0.0790167 -0.0351036 0.917568
-0.0734821 -0.0289245 0.951455
-0.072267 -0.0276342 0.949695
-0.0710724 -0.0263624 0.948436
-0.0699097 -0.0251184 0.948102
-0.0687713 -0.0238948 0.948526
-0.067631 -0.0226697 0.948918
-0.0665285 -0.0214745 0.950646
-0.0654187 -0.020273 0.952265
-0.0643013 -0.0190643 0.953704
-0.0631762 -0.0178494 0.954982
-0.0620473 -0.0166303 0.956171
-0.0609046 -0.0154 0.956827
-0.0597643 -0.0141715 0.957685
-0.0586257 -0.0129432 0.958674
-0.057483 -0.0117117 0.959583
-0.0563406 -0.0104797 0.960592
-0.0552004 -0.00924796 0.961802
-0.0540465 -0.00800721 0.96234
-0.0528889 -0.00676372 0.962636
-0.0517311 -0.00552022 0.962993
-0.131142 -0.0890978 0.862434
-0.130135 -0.088012 0.863116
-0.12911 -0.0869081 0.863624
-0.128084 -0.0858037 0.864135
-0.126993 -0.0846355 0.863971
-0.125858 -0.0834253 0.863348
-0.124724 -0.0822161 0.862711
-0.123583 -0.0810001 0.861976
-0.122421 -0.0797638 0.860988
-0.121266 -0.0785356 0.860059
-0.120139 -0.0773332 0.859399
-0.119007 -0.0761278 0.858677
-0.117905 -0.0749506 0.858269
-0.116836 -0.0738049 0.858225
-0.115761 -0.0726535 0.858104
-0.114693 -0.0715096 0.858068
-0.113634 -0.0703735 0.858127
-0.112576 -0.0692388 0.8582
-0.111511 -0.0680981 0.858191
-0.110446 -0.0669562 0.858161
-0.109392 -0.0658261 0.858285
-0.108341 -0.0646975 0.858428
-0.107299 -0.0635786 0.858705
-0.106271 -0.0624724 0.859171
-0.105275 -0.0613955 0.860075
-0.104292 -0.0603312 0.861194
-0.103311 -0.0592683 0.862371
-0.102321 -0.0581973 0.863459
-0.101325 -0.0571197 0.864483
-0.1003 -0.056015 0.865106
-0.099232 -0.0548701 0.865089
-0.0981626 -0.0537243 0.865049
-0.0970815 -0.0525678 0.864818
-0.0959955 -0.051407 0.864496
-0.0952181 -0.0505284 0.869183
-0.0946583 -0.0498462 0.877655
-0.0928369 -0.0501585 0.884791
-0.0941158 -0.0491767 0.886749
-0.093578 -0.0485077 0.89628
-0.0929979 -0.0477972 0.90545
-0.0921325 -0.0468268 0.909859
-0.0910939 -0.0456999 0.911267
-0.090069 -0.0445848 0.912989
-0.089055 -0.0434786 0.914986
-0.0880372 -0.0423683 0.916994
-0.0870028 -0.0412426 0.918751
-0.085944 -0.0400947 0.920083
-0.0848543 -0.0389197 0.920823
-0.0837358 -0.0377194 0.920967
-0.0825971 -0.0365019 0.920666
-0.0746692 -0.0301911 0.952302
-0.0759818 -0.0290863 0.95425
-0.0747874 -0.0278152 0.953293
-0.0735712 -0.0265275 0.951634
-0.0723811 -0.0252618 0.950636
-0.0712124 -0.024013 0.950198
-0.0700567 -0.0227752 0.950152
-0.0689087 -0.0215429 0.950326
-0.0677845 -0.0203285 0.951343
-0.0666553 -0.0191092 0.952209
-0.0655307 -0.0178931 0.953337
-0.06441 -0.0166786 0.954685
-0.0632832 -0.0154592 0.955914
-0.0621439 -0.0142306 0.956711
-0.0610098 -0.0130045 0.9578
-0.0598715 -0.011775 0.958799
-0.0587326 -0.010544 0.959827
-0.0575975 -0.00931429 0.961178
-0.0564637 -0.00808359 0.96275
-0.0553121 -0.00684271 0.963469
-0.0541576 -0.00559949 0.964027
-0.0529967 -0.00435335 0.964263
-0.0506546 -0.00431379 0.970177
-0.0519249 -0.00313632 0.971256
-0.132352 -0.0880944 0.863054
-0.131347 -0.0870091 0.863758
-0.130331 -0.0859125 0.864355
-0.129308 -0.0848105 0.864906
-0.12822 -0.0836459 0.864791
-0.127102 -0.0824528 0.864356
-0.125974 -0.0812509 0.863806
-0.124823 -0.0800278 0.862998
-0.123657 -0.0787905 0.861999
-0.122499 -0.0775611 0.861055
-0.121351 -0.0763418 0.860202
-0.120209 -0.0751284 0.859385
-0.119097 -0.0739428 0.858878
-0.118017 -0.0727879 0.85873
-0.116933 -0.0716288 0.858517
-0.115857 -0.0704769 0.858387
-0.114788 -0.0693326 0.858343
-0.113721 -0.0681894 0.858308
-0.112648 -0.0670414 0.858202
-0.111583 -0.0659 0.858178
-0.11053 -0.064771 0.858317
-0.109486 -0.0636492 0.858557
-0.108451 -0.0625355 0.858917
-0.10743 -0.0614347 0.859471
-0.106434 -0.060357 0.860383
-0.105459 -0.0592974 0.861598
-0.104478 -0.0582318 0.86276
-0.103488 -0.0571583 0.863838
-0.102492 -0.0560791 0.864859
-0.101462 -0.0549682 0.865398
-0.100393 -0.0538231 0.865383
-0.0993229 -0.0526774 0.865349
-0.0982409 -0.0515209 0.865119
-0.0972708 -0.0504632 0.866629
-0.096537 -0.049612 0.871962
-0.0960168 -0.0489453 0.880969
-0.0955071 -0.0482834 0.890487
-0.0949945 -0.0476145 0.900324
-0.0943323 -0.0468122 0.907967
-0.0934624 -0.045828 0.912258
-0.0924221 -0.0446963 0.913662
-0.0914022 -0.0435812 0.91549
-0.0903886 -0.0424707 0.917509
-0.0893761 -0.04136 0.919632
-0.0883445 -0.0402324 0.921468
-0.087269 -0.0390676 0.922504
-0.0861622 -0.0378764 0.922936
-0.0850425 -0.0366746 0.923108
-0.0838944 -0.0354499 0.922673
-0.0784718 -0.0292298 0.956422
-0.0772758 -0.0279583 0.955555
-0.0760896 -0.0266956 0.954919
-0.0748752 -0.0254122 0.953421
-0.0736923 -0.0241536 0.952744
-0.0725219 -0.0229039 0.952348
-0.0713515 -0.0216552 0.951941
-0.0701903 -0.0204128 0.951754
-0.0690474 -0.0191835 0.952169
-0.0678974 -0.0179492 0.952354
-0.0667665 -0.016727 0.953221
-0.0656472 -0.0155112 0.954569
-0.0645227 -0.014291 0.955818
-0.0633898 -0.0130648 0.956846
-0.062264 -0.0118416 0.958256
-0.0611296 -0.0106121 0.959375
-0.0599944 -0.00938136 0.960625
-0.0588654 -0.00815164 0.962237
-0.057737 -0.0069202 0.96408
-0.0565874 -0.00567788 0.96496
-0.0554351 -0.00443356 0.965749
-0.0542696 -0.00318435 0.965785
-0.132594 -0.0860348 0.864717
-0.131564 -0.0849252 0.865195
-0.130538 -0.0838181 0.865709
-0.129446 -0.0826503 0.865568
-0.128344 -0.0814743 0.865327
-0.127224 -0.0802806 0.864875
-0.126071 -0.0790582 0.864078
-0.124911 -0.0778281 0.863164
-0.123749 -0.0765985 0.862222
-0.12259 -0.0753707 0.86127
-0.12143 -0.0741425 0.86028
-0.120314 -0.0729549 0.859754
-0.119219 -0.0717861 0.859441
-0.118132 -0.0706256 0.85922
-0.117046 -0.0694661 0.858998
-0.115974 -0.0683189 0.858926
-0.114897 -0.067167 0.858783
-0.113822 -0.0660173 0.858659
-0.112748 -0.0648692 0.858548
-0.111696 -0.0637399 0.858691
-0.110652 -0.062618 0.85894
-0.109624 -0.0615101 0.859396
-0.108611 -0.0604154 0.860057
-0.107617 -0.0593374 0.860991
-0.106642 -0.0582757 0.862205
-0.105661 -0.0572074 0.863357
-0.104664 -0.056126 0.864339
-0.103663 -0.05504 0.865278
-0.102632 -0.0539279 0.865814
-0.101568 -0.0527874 0.865884
-0.100508 -0.0516502 0.866008
-0.0994369 -0.0505033 0.865957
-0.0985964 -0.049552 0.869451
-0.0979169 -0.0487345 0.875587
-0.0974404 -0.0480839 0.885184
-0.0969641 -0.0474282 0.895139
-0.0964494 -0.0467352 0.904833
-0.0956918 -0.0458365 0.910799
-0.0948075 -0.0448307 0.914813
-0.0937649 -0.0436937 0.916202
-0.0927441 -0.0425736 0.918033
-0.091725 -0.0414537 0.919965
-0.0907017 -0.0403296 0.921896
-0.0896632 -0.0391921 0.923613
-0.0885708 -0.0380114 0.924347
-0.0874521 -0.0368097 0.924578
-0.086333 -0.0356078 0.924806
-0.0851868 -0.0343852 0.924468
-0.0797782 -0.0281035 0.957877
-0.078581 -0.0268331 0.957081
-0.0773948 -0.0255708 0.956496
-0.0761762 -0.0242875 0.955008
-0.0749916 -0.0230284 0.954362
-0.0738179 -0.0217771 0.953955
-0.0726377 -0.0205224 0.953338
-0.0714667 -0.0192738 0.952912
-0.0703094 -0.0180344 0.952896
-0.0691482 -0.0167931 0.952749
-0.0680112 -0.0155658 0.953395
-0.0668946 -0.0143494 0.954824
-0.0657753 -0.0131297 0.956213
-0.064651 -0.0119061 0.957572
-0.0635318 -0.0106833 0.959223
-0.0624023 -0.00945368 0.960553
-0.0612702 -0.00822142 0.961934
-0.0601461 -0.00699016 0.963787
-0.0590212 -0.00575589 0.965801
-0.0578736 -0.00451154 0.966821
-0.0567186 -0.00326375 0.967581
-0.0555468 -0.00201171 0.967346
-0.13275 -0.0838903 0.865545
-0.131711 -0.0827709 0.865936
-0.130622 -0.0816071 0.865839
-0.129534 -0.0804436 0.865738
-0.12843 -0.0792658 0.865467
-0.127295 -0.0780612 0.864873
-0.126142 -0.0768404 0.864066
-0.124988 -0.075619 0.863223
-0.123826 -0.0743911 0.86227
-0.122654 -0.0731547 0.861179
-0.121526 -0.0719582 0.860547
-0.12042 -0.070781 0.860136
-0.119325 -0.0696133 0.859827
-0.11823 -0.0684465 0.859517
-0.117157 -0.0672988 0.859444
-0.11607 -0.066139 0.859199
-0.114993 -0.0649883 0.859066
-0.113924 -0.0638451 0.859027
-0.112871 -0.0627151 0.859171
-0.111834 -0.0615988 0.859513
-0.110821 -0.0605028 0.860161
-0.109823 -0.05942 0.861028
-0.108831 -0.0583411 0.861982
-0.107857 -0.057277 0.863198
-0.106874 -0.0562058 0.864344
-0.105877 -0.0551217 0.865318
-0.104871 -0.0540289 0.866182
-0.103833 -0.0529102 0.866636
-0.102766 -0.0517674 0.866683
-0.101698 -0.0506234 0.866704
-0.100732 -0.0495628 0.868232
-0.100031 -0.0487172 0.873814
-0.0995104 -0.0480136 0.882354
-0.0990934 -0.0473883 0.892821
-0.0986334 -0.0467221 0.902985
-0.0980264 -0.045933 0.911139
-0.0971614 -0.0449352 0.915331
-0.0961725 -0.0438377 0.917592
-0.095115 -0.0426855 0.918755
-0.0940807 -0.0415507 0.920367
-0.0930447 -0.0404133 0.92201
-0.0920047 -0.0392721 0.923639
-0.0909441 -0.0381141 0.924947
-0.0898452 -0.0369267 0.925574
-0.0887124 -0.0357142 0.925559
-0.0811123 -0.0269897 0.959913
-0.0799037 -0.0257126 0.958917
-0.0786878 -0.0244323 0.957691
-0.0774632 -0.0231477 0.956134
-0.076269 -0.0218835 0.955287
-0.0750938 -0.0206316 0.954881
-0.0739113 -0.0193766 0.954265
-0.0727339 -0.0181252 0.953728
-0.0715723 -0.0168833 0.953622
-0.0704097 -0.015641 0.953456
-0.0692754 -0.0144138 0.954202
-0.0681633 -0.0131968 0.955761
-0.0670508 -0.0119775 0.957401
-0.0659382 -0.010756 0.959152
-0.0648253 -0.009532 0.961053
-0.0636952 -0.00829874 0.962404
-0.0625632 -0.007063 0.963795
-0.0614377 -0.00582699 0.965638
-0.0603088 -0.00458714 0.967441
-0.0591588 -0.00333927 0.968422
-0.0580015 -0.00208879 0.969061
-0.0568212 -0.000834209 0.968555
-0.132873 -0.0817128 0.866048
-0.131796 -0.0805594 0.866068
-0.130711 -0.079399 0.866004
-0.129611 -0.0782265 0.865792
-0.128492 -0.0770364 0.865365
-0.127358 -0.0758349 0.864783
-0.126203 -0.0746144 0.863948
-0.12504 -0.0733878 0.863009
-0.123862 -0.0721494 0.861889
-0.122731 -0.0709516 0.861241
-0.121614 -0.0697655 0.860719
-0.12051 -0.0685914 0.860331
-0.119413 -0.0674237 0.860009
-0.118339 -0.0662758 0.859941
-0.117245 -0.0651106 0.859625
-0.116168 -0.0639602 0.859501
-0.115098 -0.0628164 0.85946
-0.114051 -0.061691 0.859679
-0.113028 -0.0605861 0.860204
-0.112031 -0.0595024 0.861062
-0.111049 -0.0584306 0.862128
-0.110072 -0.0573623 0.863285
-0.109097 -0.0562951 0.864498
-0.108113 -0.0552199 0.865625
-0.107116 -0.0541331 0.8666
-0.106102 -0.0530326 0.867376
-0.105057 -0.051907 0.867742
-0.103988 -0.0507621 0.867777
-0.103048 -0.0497193 0.869657
-0.102233 -0.0487741 0.873425
-0.101688 -0.0480367 0.881304
-0.100913 -0.0467883 0.902719
-0.100333 -0.0460058 0.910997
-0.0995962 -0.0450983 0.917077
-0.0986141 -0.0440017 0.919405
-0.0975186 -0.0428187 0.919942
-0.0964518 -0.0416567 0.920976
-0.0954027 -0.0405069 0.922348
-0.0943589 -0.0393601 0.923864
-0.0933069 -0.0382064 0.925287
-0.092242 -0.0370424 0.926528
-0.0911456 -0.0358551 0.927227
-0.0900172 -0.0346452 0.927338
-0.0824757 -0.0258859 0.962509
-0.0812473 -0.0245978 0.961164
-0.0800029 -0.0233017 0.959327
-0.0787648 -0.0220115 0.95754
-0.0775626 -0.0207439 0.956563
-0.0763771 -0.0194866 0.955947
-0.0751918 -0.0182307 0.955311
-0.0740087 -0.0169767 0.954664
-0.0728454 -0.0157339 0.954558
-0.0716774 -0.0144892 0.954292
-0.0705496 -0.0132632 0.955249
-0.0694429 -0.0120451 0.956949
-0.068335 -0.0108244 0.958749
-0.06723 -0.00960207 0.960781
-0.0661247 -0.00837661 0.962944
-0.0649944 -0.00713981 0.964324
-0.0638632 -0.0059006 0.965786
-0.0627379 -0.00466033 0.967609
-0.0616024 -0.00341473 0.969152
-0.0604484 -0.00216329 0.970002
-0.0592858 -0.000909526 0.970491
-0.0582335 0.00033961 0.976757
-0.131901 -0.0783643 0.866393
-0.130812 -0.0772016 0.8663
-0.129712 -0.076029 0.86608
-0.128599 -0.0748467 0.865733
-0.127453 -0.0736359 0.86502
-0.126279 -0.072402 0.863991
-0.125088 -0.0711547 0.862756
-0.123928 -0.0699346 0.861825
-0.12279 -0.0687334 0.861105
-0.121684 -0.0675586 0.860707
-0.120587 -0.0663911 0.86039
-0.119514 -0.0652442 0.860338
-0.118426 -0.0640853 0.860112
-0.117348 -0.0629349 0.859993
-0.116279 -0.0617915 0.859965
-0.115248 -0.0606787 0.860382
-0.114241 -0.0595859 0.861109
-0.11326 -0.058513 0.862164
-0.112295 -0.0574519 0.863438
-0.111325 -0.056387 0.864696
-0.11035 -0.0553167 0.86591
-0.109365 -0.0542382 0.867032
-0.108366 -0.053148 0.867995
-0.107345 -0.0520402 0.868688
-0.106299 -0.0509127 0.869058
-0.105227 -0.0497657 0.869082
-0.104416 -0.0488166 0.872764
-0.103767 -0.0479876 0.878888
-0.103378 -0.0473492 0.888997
-0.102607 -0.0460545 0.910362
-0.101898 -0.0451576 0.916643
-0.101025 -0.0441366 0.920586
-0.0999347 -0.042956 0.921216
-0.0988359 -0.0417692 0.921727
-0.0977602 -0.0405983 0.922633
-0.0966968 -0.0394353 0.923773
-0.0956397 -0.0382759 0.925062
-0.0945813 -0.0371146 0.926372
-0.0935182 -0.0359492 0.927646
-0.0924337 -0.0347683 0.928576
-0.0851216 -0.0260924 0.96732
-0.0838514 -0.0247789 0.965225
-0.0826107 -0.023485 0.96371
-0.0813417 -0.0221775 0.961423
-0.0800924 -0.0208837 0.959487
-0.0788764 -0.0196097 0.95826
-0.0776773 -0.018346 0.957384
-0.0764895 -0.017089 0.956728
-0.0752949 -0.0158303 0.955861
-0.0741218 -0.0145826 0.955535
-0.0729486 -0.0133355 0.955148
-0.0718241 -0.0121089 0.956216
-0.0707182 -0.0108879 0.957945
-0.0696199 -0.00966701 0.960017
-0.0685266 -0.00844453 0.9624
-0.0674272 -0.0072162 0.964784
-0.0662968 -0.00597576 0.966174
-0.0651618 -0.00473191 0.967516
-0.0640298 -0.00348628 0.969088
-0.0628857 -0.00223604 0.970259
-0.0617285 -0.000982181 0.970979
-0.0605598 0.000273669 0.971247
-0.131997 -0.0761608 0.866634
-0.130917 -0.0750057 0.866627
-0.129814 -0.0738321 0.866388
-0.12868 -0.0726334 0.865824
-0.127511 -0.0714059 0.864874
-0.126309 -0.0701523 0.863553
-0.125127 -0.0689161 0.862409
-0.123977 -0.0677067 0.861578
-0.12286 -0.0665243 0.861077
-0.121762 -0.0653574 0.860769
-0.120689 -0.0642108 0.860726
-0.119616 -0.0630641 0.860676
-0.118544 -0.0619193 0.860644
-0.11749 -0.0607877 0.860801
-0.116469 -0.0596818 0.861344
-0.115472 -0.0585952 0.862197
-0.114501 -0.0575273 0.863369
-0.113543 -0.0564693 0.864738
-0.112566 -0.055396 0.865908
-0.111584 -0.0543183 0.867047
-0.110599 -0.0532369 0.868164
-0.109592 -0.052139 0.869036
-0.108564 -0.0510239 0.869638
-0.107522 -0.0498992 0.870085
-0.106456 -0.048756 0.870202
-0.105789 -0.0479049 0.875844
-0.105312 -0.0471866 0.884323
-0.1046 -0.0459035 0.905662
-0.104162 -0.0451901 0.915649
-0.103311 -0.0441789 0.919778
-0.102309 -0.0430593 0.921733
-0.101223 -0.0418803 0.922445
-0.100122 -0.040691 0.922949
-0.0990393 -0.0395131 0.923746
-0.097968 -0.0383424 0.92476
-0.0968991 -0.0371725 0.925847
-0.0958347 -0.0360047 0.927047
-0.0947755 -0.0348391 0.928381
-0.0937022 -0.0336635 0.929512
-0.0926047 -0.0324718 0.930242
-0.0865785 -0.025017 0.971485
-0.0852684 -0.0236841 0.968711
-0.0839928 -0.0223726 0.966536
-0.0827024 -0.0210568 0.96391
-0.0814371 -0.019757 0.961713
-0.0802025 -0.018475 0.960136
-0.0789931 -0.0172072 0.9591
-0.077796 -0.0159463 0.958304
-0.0765981 -0.0146866 0.957418
-0.0754308 -0.0134407 0.957303
-0.0742647 -0.0121958 0.957227
-0.0731397 -0.0109657 0.958315
-0.0720343 -0.00974062 0.960055
-0.0709348 -0.00851453 0.962107
-0.0698335 -0.0072845 0.964249
-0.0687262 -0.00604922 0.966322
-0.0675914 -0.00480464 0.967583
-0.0664498 -0.00355635 0.968703
-0.0653121 -0.00230676 0.970045
-0.0641626 -0.00105361 0.970995
-0.0630048 0.000201835 0.971695
-0.0619923 0.00145987 0.978853
-0.132112 -0.0739722 0.867067
-0.131003 -0.0727939 0.866771
-0.129867 -0.0715947 0.8662
-0.128691 -0.0703646 0.865206
-0.127488 -0.0691134 0.863899
-0.126276 -0.0678561 0.862463
-0.125115 -0.06664 0.861528
-0.123987 -0.0654499 0.860914
-0.12289 -0.0642855 0.860631
-0.121826 -0.0631458 0.860682
-0.120768 -0.0620117 0.860811
-0.119712 -0.0608786 0.860953
-0.118682 -0.0597654 0.861392
-0.117686 -0.0586775 0.86223
-0.116707 -0.0576027 0.863298
-0.115744 -0.0565383 0.864568
-0.114792 -0.0554815 0.866006
-0.113814 -0.054405 0.867169
-0.112825 -0.0533191 0.868217
-0.111833 -0.0522303 0.869253
-0.110825 -0.0511296 0.870118
-0.109787 -0.0500068 0.870614
-0.108739 -0.0488759 0.870977
-0.107812 -0.047831 0.872974
-0.1073 -0.0470764 0.880674
-0.106275 -0.0451219 0.912561
-0.105695 -0.0442894 0.920428
-0.104712 -0.0431798 0.922628
-0.103591 -0.0419762 0.922815
-0.102504 -0.040795 0.923525
-0.101403 -0.0396039 0.924029
-0.100313 -0.0384198 0.924727
-0.0992296 -0.0372391 0.925547
-0.0981542 -0.036063 0.926527
-0.0970902 -0.0348931 0.927728
-0.0960409 -0.0337309 0.929221
-0.094982 -0.0325616 0.9306
-0.0940312 -0.0314546 0.933954
-0.09314 -0.0303787 0.938525
-0.0879922 -0.0239046 0.97455
-0.0866831 -0.0225752 0.971936
-0.0853808 -0.0212528 0.969341
-0.0840785 -0.0199343 0.966596
-0.0827948 -0.0186285 0.964129
-0.0815444 -0.0173408 0.962293
-0.080317 -0.0160657 0.960917
-0.0791172 -0.0148038 0.960121
-0.0779198 -0.0135445 0.959345
-0.0767581 -0.0122994 0.959461
-0.0755983 -0.011055 0.959627
-0.0744757 -0.00982218 0.960835
-0.0733608 -0.00858958 0.962345
-0.0722563 -0.00735725 0.964246
-0.0711433 -0.00611968 0.966008
-0.0700243 -0.00487754 0.967709
-0.0688787 -0.00362804 0.968629
-0.0677373 -0.00237759 0.96974
-0.0665914 -0.0011246 0.97076
-0.0654352 0.000130919 0.97148
-0.0644421 0.00138874 0.978777
-0.133313 -0.0729406 0.867545
-0.132188 -0.071751 0.86711
-0.131037 -0.0705414 0.866399
-0.129833 -0.0692913 0.865132
-0.128621 -0.0680364 0.863755
-0.127399 -0.0667754 0.862243
-0.12624 -0.0655629 0.861339
-0.125102 -0.0643674 0.860634
-0.124014 -0.0632103 0.860443
-0.122951 -0.0620721 0.860514
-0.121912 -0.0609519 0.860844
-0.120865 -0.0598254 0.861088
-0.119862 -0.058731 0.861825
-0.118892 -0.0576609 0.862961
-0.11793 -0.0565964 0.864226
-0.116966 -0.055529 0.865488
-0.11602 -0.0544732 0.866987
-0.115033 -0.0533878 0.868043
-0.114037 -0.0522945 0.869002
-0.113038 -0.0511987 0.869951
-0.112022 -0.0500905 0.870713
-0.110975 -0.0489604 0.871098
-0.110076 -0.047932 0.873412
-0.109314 -0.0469943 0.87758
-0.108974 -0.0463388 0.887527
-0.108361 -0.0450443 0.909285
-0.107833 -0.0442364 0.917587
-0.107107 -0.0432915 0.923326
-0.10599 -0.0420895 0.923576
-0.104854 -0.0408764 0.923573
-0.103761 -0.0396898 0.924193
-0.102654 -0.0384942 0.92462
-0.101565 -0.0373088 0.925323
-0.100481 -0.0361268 0.926146
-0.0994112 -0.0349518 0.927206
-0.0983605 -0.0337872 0.928618
-0.0973198 -0.032627 0.930248
-0.0962563 -0.0314521 0.931544
-0.0954185 -0.0304016 0.93682
-0.0946358 -0.029375 0.943286
-0.0906882 -0.0240984 0.979264
-0.08939 -0.0227737 0.977133
-0.0880789 -0.0214462 0.97461
-0.0867597 -0.0201191 0.971786
-0.0854495 -0.0188003 0.969011
-0.0841491 -0.0174899 0.966305
-0.0828858 -0.0161987 0.964299
-0.0816442 -0.0149192 0.962693
-0.0804365 -0.0136545 0.961798
-0.0792424 -0.0123964 0.961172
-0.0780884 -0.0111521 0.961549
-0.076938 -0.00990849 0.962016
-0.0758151 -0.00867169 0.963275
-0.0746947 -0.0074335 0.964654
-0.0735784 -0.00619377 0.966235
-0.0724519 -0.0049494 0.967605
-0.0713174 -0.00370108 0.968836
-0.0701613 -0.00244824 0.969404
-0.0690123 -0.00119496 0.970264
-0.0680549 5.23557e-05 0.977889
-0.132218 -0.069495 0.866698
-0.130991 -0.0682309 0.865231
-0.129749 -0.0669564 0.863569
-0.128506 -0.065683 0.861859
-0.127356 -0.0644796 0.861059
-0.126226 -0.0632917 0.860445
-0.125142 -0.0621385 0.860302
-0.124089 -0.0610073 0.860472
-0.123068 -0.0598996 0.860994
-0.122025 -0.0587763 0.861291
-0.121048 -0.0576995 0.862318
-0.120096 -0.0566403 0.863658
-0.119138 -0.0555751 0.864947
-0.118182 -0.0545108 0.866299
-0.117235 -0.0534517 0.867786
-0.116233 -0.052353 0.86865
-0.115236 -0.051258 0.86961
-0.114229 -0.050155 0.870462
-0.113198 -0.0490346 0.871026
-0.112149 -0.0479023 0.871385
-0.111416 -0.0469794 0.875791
-0.110834 -0.0461511 0.88227
-0.110273 -0.0448635 0.903877
-0.109905 -0.0441482 0.914002
-0.109208 -0.0432151 0.919898
-0.108332 -0.0421654 0.92349
-0.107222 -0.0409674 0.923842
-0.106094 -0.0397589 0.923956
-0.105008 -0.0385755 0.924684
-0.103907 -0.0373825 0.9252
-0.102817 -0.0361958 0.925907
-0.101734 -0.0350122 0.926732
-0.100664 -0.0338353 0.92779
-0.0996143 -0.0326685 0.929204
-0.0985754 -0.0315062 0.930847
-0.0976291 -0.0303917 0.934094
-0.0969095 -0.0293923 0.941331
-0.0962331 -0.0284062 0.949604
-0.0930686 -0.0266463 0.979135
-0.0951158 -0.026517 0.971438
-0.0944218 -0.0254856 0.980536
-0.0919614 -0.0254136 0.980805
-0.0932859 -0.0242361 0.981666
-0.0920266 -0.0229293 0.980446
-0.0907397 -0.0216125 0.978625
-0.0894344 -0.0202909 0.976333
-0.0881104 -0.0189653 0.973529
-0.0868055 -0.0176521 0.970985
-0.0855026 -0.0163438 0.96835
-0.0842318 -0.0150516 0.966305
-0.0829857 -0.0137716 0.964689
-0.0817742 -0.0125056 0.963794
-0.0805774 -0.0112459 0.963189
-0.0794322 -0.0100019 0.963837
-0.0782939 -0.00875877 0.964675
-0.0771667 -0.00751678 0.965864
-0.0760366 -0.00627222 0.967023
-0.0749131 -0.00502677 0.968444
-0.0737724 -0.00377626 0.969434
-0.0726196 -0.00252262 0.970123
-0.0714537 -0.00126681 0.970441
-0.0702959 -1.09713e-05 0.971029
-0.067088 0.00131767 0.985777
-0.069556 0.00124578 0.985669
-0.130852 -0.0658588 0.863139
-0.129613 -0.0645921 0.861486
-0.128474 -0.0633984 0.860802
-0.127349 -0.0622161 0.860253
-0.126288 -0.0610793 0.860345
-0.125249 -0.0599588 0.860677
-0.124234 -0.0588543 0.861259
-0.123199 -0.0577362 0.861646
-0.122427 -0.0567991 0.864909
-0.121667 -0.0558678 0.868389
-0.120908 -0.0549341 0.871969
-0.120122 -0.0539795 0.875336
-0.119165 -0.0529065 0.876809
-0.117956 -0.051665 0.875378
-0.116755 -0.0504297 0.87399
-0.115554 -0.0491957 0.872553
-0.114359 -0.0479676 0.87115
-0.113459 -0.0469309 0.87336
-0.112907 -0.0461134 0.87999
-0.11252 -0.0453939 0.888926
-0.111998 -0.0440824 0.910905
-0.111465 -0.0432431 0.918765
-0.110599 -0.0421951 0.922363
-0.109579 -0.0410514 0.923947
-0.108463 -0.0398492 0.924222
-0.107342 -0.0386444 0.924438
-0.106255 -0.037459 0.92515
-0.105159 -0.0362681 0.925751
-0.10407 -0.0350804 0.926466
-0.102987 -0.0338954 0.927298
-0.101919 -0.0327173 0.928374
-0.100869 -0.0315478 0.929775
-0.0998313 -0.0303831 0.931422
-0.0990127 -0.0293272 0.936714
-0.0984093 -0.028371 0.945797
-0.0978256 -0.0274123 0.955564
-0.0972873 -0.0264619 0.966514
-0.0966611 -0.0254558 0.976339
-0.0957769 -0.0243207 0.981907
-0.094624 -0.023061 0.982727
-0.0933743 -0.0217597 0.981747
-0.0920958 -0.0204486 0.980167
-0.0907915 -0.0191301 0.977985
-0.0894585 -0.0178048 0.975122
-0.0881546 -0.0164947 0.972709
-0.086847 -0.0151877 0.970094
