ply
format ascii 1.0
element vertex 1619
property float x
property float y
property float z
end_header
0.0346513 -0.0946426 0.384225
0.0344624 -0.0954448 0.384563
0.0342859 -0.096295 0.385114
0.0341001 -0.0971154 0.38552
0.0339264 -0.0979847 0.38614
0.0337551 -0.0988675 0.38681
0.0335675 -0.099693 0.387213
0.0333616 -0.100449 0.387305
0.0326337 -0.101805 0.39105
0.0489491 -0.0417432 0.370866
0.0487714 -0.0424526 0.371074
0.0485815 -0.0431506 0.371156
0.048377 -0.043834 0.371088
0.0481744 -0.0445194 0.37104
0.047948 -0.0451787 0.370739
0.0477221 -0.0458376 0.370441
0.0474961 -0.0464955 0.370141
0.0472707 -0.0471531 0.369845
0.0470416 -0.0478052 0.369506
0.0468159 -0.0484603 0.369201
0.0465906 -0.0491149 0.368898
0.0463664 -0.0497699 0.368606
0.0461542 -0.0504392 0.368442
0.0459426 -0.0511093 0.368286
0.0457236 -0.0517687 0.368045
0.0455142 -0.0524406 0.367911
0.045305 -0.0531124 0.367778
0.0450868 -0.0537713 0.367542
0.0448614 -0.0544191 0.367224
0.0446517 -0.0550887 0.367081
0.0444284 -0.0557377 0.366782
0.04421 -0.0563931 0.366537
0.0440062 -0.0570702 0.366459
0.0438137 -0.0577654 0.366515
0.0436215 -0.0584615 0.366575
0.0434364 -0.05917 0.366721
0.0432753 -0.0599195 0.367155
0.043117 -0.0606761 0.367627
0.0429524 -0.0614246 0.36803
0.0427921 -0.0621831 0.368492
0.0426284 -0.0629383 0.368918
0.0424385 -0.0636483 0.369029
0.0422415 -0.0643463 0.369055
0.0420498 -0.0650546 0.369147
0.0418478 -0.0657442 0.369113
0.0417091 -0.0665568 0.369873
0.0417918 -0.067811 0.373438
0.0418852 -0.0691056 0.377181
0.041982 -0.0704273 0.381015
0.0420441 -0.0716976 0.384451
0.0420082 -0.0727802 0.386664
0.0417668 -0.0734344 0.38623
0.0415448 -0.074129 0.386047
0.0413246 -0.0748268 0.385885
0.0411087 -0.0755342 0.38578
0.0408903 -0.0762355 0.385641
0.0406644 -0.076919 0.3854
0.0404317 -0.0775857 0.385066
0.0402003 -0.0782538 0.384745
0.0399726 -0.0789299 0.384474
0.039739 -0.0795899 0.384116
0.0395016 -0.080239 0.383704
0.0392634 -0.0808842 0.383276
0.0390264 -0.0815303 0.382859
0.0387875 -0.0821692 0.38241
0.0385492 -0.0828078 0.381966
0.0383131 -0.08345 0.381548
0.0380867 -0.0841174 0.381267
0.0378652 -0.0847971 0.381052
0.0376485 -0.0854895 0.380906
0.0374493 -0.0862323 0.381018
0.0372558 -0.0869931 0.381217
0.037063 -0.0877576 0.38143
0.0368853 -0.0885697 0.381874
0.0367224 -0.0894311 0.382553
0.0365519 -0.0902731 0.383125
0.0363825 -0.0911229 0.383724
0.0362054 -0.0919524 0.384214
0.0360188 -0.092754 0.384562
0.0358208 -0.093521 0.38474
0.0356224 -0.0942879 0.384913
0.0354229 -0.0950526 0.385073
0.0352371 -0.095867 0.385457
0.0350646 -0.0967317 0.386066
0.0348734 -0.0975337 0.386379
0.0346961 -0.098389 0.386927
0.034518 -0.0992463 0.387473
0.0343274 -0.10006 0.387819
0.0496071 -0.0419118 0.370515
0.0494437 -0.0426347 0.370862
0.0492616 -0.0433403 0.371023
0.0490615 -0.0440282 0.370999
0.0488635 -0.0447185 0.370998
0.0486378 -0.0453791 0.370709
0.0484111 -0.0460377 0.370407
0.0481839 -0.0466947 0.370098
0.0479577 -0.0473518 0.369798
0.0477287 -0.0480047 0.369465
0.0475037 -0.0486612 0.369173
0.047278 -0.0493159 0.36887
0.0470523 -0.0499695 0.368565
0.0468353 -0.0506332 0.368353
0.0466197 -0.0512981 0.368153
0.0464042 -0.0519625 0.367954
0.046199 -0.0526402 0.367867
0.0459936 -0.0533177 0.367779
0.0457791 -0.0539823 0.367587
0.0455598 -0.0546395 0.367342
0.0453466 -0.0553049 0.367163
0.045119 -0.0559485 0.366821
0.0448965 -0.0565984 0.366532
0.0446852 -0.0572646 0.366372
0.0444819 -0.0579427 0.3663
0.0442894 -0.0586378 0.366354
0.0441044 -0.0593457 0.366496
0.0439409 -0.0600899 0.366891
0.0437828 -0.0608453 0.367355
0.0436186 -0.0615932 0.367753
0.0434552 -0.0623447 0.368166
0.0432896 -0.0630948 0.368558
0.0431002 -0.0638048 0.368671
0.0429077 -0.0645099 0.368747
0.0427168 -0.0652191 0.368846
0.0425153 -0.0659089 0.368815
0.0423831 -0.0667313 0.369637
0.0424996 -0.0680409 0.373545
0.0426183 -0.0693758 0.377527
0.0427404 -0.0707383 0.381599
0.0428164 -0.072029 0.385142
0.0427911 -0.0731289 0.387445
0.0425335 -0.0737525 0.386818
0.0423032 -0.0744317 0.386535
0.0420754 -0.0751149 0.386281
0.0418618 -0.0758287 0.386209
0.0416403 -0.0765249 0.386035
0.0414144 -0.0772106 0.385802
0.0411848 -0.0778866 0.385517
0.0409564 -0.0785645 0.385246
0.0407291 -0.0792438 0.384987
0.040495 -0.0799056 0.384634
0.0402629 -0.0805707 0.384305
0.0400236 -0.0812164 0.383874
0.0397858 -0.0818638 0.383459
0.0395423 -0.0824946 0.382961
0.0393054 -0.0831402 0.382549
0.0390619 -0.0837665 0.382041
0.0388341 -0.0844325 0.381748
0.0386149 -0.0851209 0.381574
0.038401 -0.0858233 0.381473
0.038205 -0.0865766 0.381632
0.0380179 -0.087357 0.381922
0.0378255 -0.088124 0.38214
0.0376492 -0.0889407 0.382599
0.0374876 -0.089805 0.383283
0.0373151 -0.0906411 0.383817
0.0371435 -0.0914835 0.384372
0.0369697 -0.0923231 0.384902
0.0367834 -0.0931267 0.385252
0.0365885 -0.0939048 0.385476
0.0363926 -0.0946815 0.385687
0.0361959 -0.0954575 0.385891
0.0360107 -0.0962749 0.386282
0.0358359 -0.0971313 0.386843
0.0356434 -0.0979297 0.387132
0.035464 -0.0987775 0.387637
0.0352774 -0.0996029 0.388034
0.0350792 -0.100389 0.388249
0.0504633 -0.0413934 0.37018
0.0502903 -0.0421051 0.370421
0.0501276 -0.0428283 0.37077
0.0499488 -0.0435371 0.37096
0.0497494 -0.0442258 0.370943
0.0495525 -0.0449173 0.370952
0.0493307 -0.0455825 0.370707
0.0491038 -0.0462414 0.370408
0.0488756 -0.046898 0.370094
0.0486486 -0.0475548 0.369789
0.0484196 -0.0482083 0.369461
0.0481948 -0.0488657 0.369175
0.0479689 -0.0495208 0.368876
0.0477423 -0.0501739 0.368565
0.0475204 -0.050832 0.368304
0.0473003 -0.0514915 0.368059
0.047085 -0.0521565 0.367865
0.0468841 -0.0528402 0.367825
0.0466801 -0.0535197 0.367752
0.0464692 -0.0541897 0.367603
0.0462536 -0.0548528 0.367402
0.04604 -0.0555181 0.367221
0.0458115 -0.0561614 0.366875
0.0455914 -0.0568157 0.366618
0.0453795 -0.0574816 0.366453
0.0451723 -0.0581542 0.366338
0.0449764 -0.0588442 0.366352
0.044788 -0.0595465 0.366452
0.0446187 -0.0602806 0.366773
0.0444539 -0.061024 0.36715
0.0442861 -0.0617645 0.367497
0.0441228 -0.0625148 0.367901
0.0439583 -0.0632655 0.368297
0.0437736 -0.0639828 0.368459
0.0435848 -0.0646941 0.368576
0.0433975 -0.0654091 0.368714
0.0431926 -0.0660926 0.368642
0.0431329 -0.0670488 0.37032
0.0432776 -0.0684038 0.374494
0.0434207 -0.0697776 0.378698
0.0435486 -0.0711436 0.382764
0.0436337 -0.0724458 0.386353
0.0435519 -0.0734275 0.387915
0.0432826 -0.0740302 0.387158
0.0430479 -0.0747017 0.386825
0.0428188 -0.0753842 0.386563
0.0426012 -0.0760905 0.386443
0.0423801 -0.0767886 0.386276
0.0421615 -0.0774923 0.386144
0.0419397 -0.078188 0.385967
0.041715 -0.0788767 0.385752
0.0414939 -0.079573 0.385582
0.0412591 -0.080236 0.38523
0.0410328 -0.0809183 0.384989
0.0408 -0.0815833 0.384657
0.040568 -0.0822492 0.384333
0.040327 -0.0828909 0.383886
0.0400913 -0.0835438 0.383504
0.0398394 -0.0841527 0.382897
0.0396069 -0.08481 0.38255
0.0393838 -0.0854911 0.38233
0.0391691 -0.0861944 0.382227
0.0389735 -0.0869505 0.382391
0.0387869 -0.0877333 0.382685
0.0385887 -0.0884854 0.382821
0.0384091 -0.0892926 0.383224
0.0382421 -0.0901402 0.383819
0.0380641 -0.0909589 0.384261
0.0378904 -0.091794 0.384774
0.037717 -0.092634 0.385301
0.037528 -0.0934287 0.385603
0.0373332 -0.0942071 0.385823
0.037135 -0.0949766 0.385997
0.0369356 -0.0957442 0.386158
0.0367476 -0.0965511 0.386496
0.0365649 -0.0973785 0.386921
0.0363698 -0.0981668 0.387161
0.0361856 -0.0989954 0.387577
0.0506326 -0.0406797 0.369905
0.0513149 -0.0408726 0.369812
0.0511424 -0.0415832 0.370051
0.0509681 -0.0422933 0.370275
0.0508048 -0.0430153 0.370609
0.0506331 -0.0437308 0.370866
0.050442 -0.0444279 0.370931
0.0502459 -0.0451205 0.370947
0.0500282 -0.0457905 0.370746
0.0498046 -0.0464536 0.370485
0.049572 -0.0471061 0.370132
0.0493405 -0.0477586 0.369786
0.0491146 -0.0484162 0.369494
0.0488857 -0.0490695 0.369171
0.0486557 -0.0497203 0.368833
0.0484283 -0.0503731 0.36852
0.048202 -0.0510261 0.368215
0.0479814 -0.0516854 0.367969
0.0477736 -0.0523604 0.367856
0.0475774 -0.0530503 0.367866
0.047378 -0.0537364 0.367843
0.0471748 -0.0544175 0.367779
0.0469593 -0.0550818 0.367583
0.0467416 -0.0557422 0.367361
0.0465165 -0.0563914 0.367057
0.0462953 -0.0570454 0.366795
0.0460797 -0.0577065 0.366591
0.0458719 -0.0583791 0.366474
0.0456758 -0.0590693 0.366485
0.0454841 -0.0597667 0.366545
0.0453151 -0.0605009 0.366863
0.0451471 -0.0612387 0.367197
0.0449791 -0.0619784 0.367535
0.0448129 -0.0627231 0.367898
0.0446455 -0.0634679 0.368251
0.0444577 -0.0641796 0.368374
0.0442688 -0.0648905 0.368487
0.0440783 -0.0655993 0.368583
0.0438695 -0.0662758 0.368466
0.0438822 -0.0673611 0.370965
0.0440426 -0.0687364 0.375245
0.0441933 -0.0701156 0.37946
0.0443346 -0.0714989 0.383611
0.0444303 -0.0728145 0.387261
0.044291 -0.0736791 0.388096
0.0440211 -0.0742834 0.387347
0.0437824 -0.0749484 0.386974
0.0435557 -0.0756372 0.386746
0.0433376 -0.0763433 0.386622
0.0431203 -0.077051 0.386508
0.0429098 -0.0777734 0.386479
0.0426989 -0.0784952 0.386446
0.0424776 -0.0791937 0.386281
0.0422595 -0.0798989 0.386155
0.0420271 -0.0805706 0.385845
0.0418042 -0.0812637 0.385656
0.0415785 -0.081949 0.385427
0.0413542 -0.0826373 0.385217
0.0411226 -0.0833065 0.384907
0.0408898 -0.0839712 0.384578
0.0406388 -0.084588 0.384003
0.0404113 -0.0852629 0.383738
0.0401839 -0.085937 0.383471
0.0399628 -0.0866271 0.38329
0.0397609 -0.0873685 0.383369
0.0395636 -0.0881236 0.383514
0.0393515 -0.0888386 0.383457
0.0391611 -0.0896157 0.383705
0.0389877 -0.0904436 0.384195
0.0388062 -0.0912517 0.384581
0.03863 -0.092078 0.385046
0.0384514 -0.0929005 0.385485
0.0382625 -0.0936951 0.385784
0.0380652 -0.0944653 0.385962
0.0378642 -0.0952258 0.386091
0.0376619 -0.0959835 0.386204
0.037465 -0.09676 0.3864
0.0372725 -0.0975529 0.386666
0.0371249 -0.0984984 0.387617
0.0370047 -0.0995446 0.389002
0.0368507 -0.100483 0.389887
0.0520004 -0.0410683 0.369749
0.0518268 -0.0417777 0.369972
0.0516515 -0.0424867 0.370182
0.0514871 -0.0432073 0.370501
0.051315 -0.043922 0.370747
0.0511279 -0.044623 0.370849
0.0509321 -0.0453159 0.370867
0.0507186 -0.0459907 0.370711
0.0504991 -0.0466587 0.370495
0.0502665 -0.0473117 0.370145
0.0500297 -0.047959 0.369752
0.0498026 -0.0486158 0.369452
0.0495724 -0.0492681 0.36912
0.0493383 -0.0499147 0.368745
0.0491109 -0.050568 0.368436
0.0488837 -0.0512204 0.368127
0.0486627 -0.0518795 0.367879
0.0484551 -0.0525549 0.367769
0.0482597 -0.0532458 0.367786
0.0480682 -0.0539423 0.367845
0.047869 -0.054629 0.367823
0.0476571 -0.0552988 0.367669
0.0474398 -0.0559606 0.367456
0.047218 -0.0566155 0.367192
0.0469935 -0.0572655 0.366899
0.0467777 -0.0579274 0.366697
0.0465735 -0.0586058 0.36662
0.0463809 -0.0593018 0.366669
0.0461928 -0.0600053 0.366769
0.0460239 -0.0607396 0.367082
0.0458561 -0.0614777 0.367413
0.0456847 -0.062212 0.367707
0.0455154 -0.0629512 0.368028
0.0453412 -0.0636844 0.368299
0.0451493 -0.0643892 0.368374
0.0449565 -0.065093 0.368438
0.0447623 -0.0657952 0.368489
0.0445462 -0.0664589 0.368289
0.0445613 -0.0675418 0.370765
0.044726 -0.0689139 0.375012
0.0448907 -0.070308 0.379307
0.0450355 -0.0716868 0.383418
0.0451438 -0.0730164 0.387142
0.0450124 -0.0738942 0.388054
0.04475 -0.0745156 0.387409
0.0445145 -0.0751886 0.387082
0.0442872 -0.0758771 0.38685
0.0440687 -0.0765832 0.386724
0.0438553 -0.0773001 0.386661
0.0436487 -0.0780315 0.386681
0.0434423 -0.0787639 0.386704
0.0432243 -0.0794712 0.386585
0.0430092 -0.0801846 0.3865
0.0427827 -0.0808719 0.386272
0.042567 -0.0815837 0.38618
0.0423528 -0.0822986 0.386105
0.0421401 -0.0830173 0.386052
0.0419197 -0.0837174 0.385898
0.0417003 -0.0844195 0.385756
0.0414622 -0.0850744 0.385369
0.0412416 -0.0857719 0.385208
0.0410102 -0.0864412 0.384904
0.0407809 -0.0871144 0.384624
0.0405597 -0.0878084 0.384451
0.0403408 -0.0885078 0.384307
0.0401097 -0.0891732 0.383996
0.039905 -0.0899111 0.384045
0.0397243 -0.0907175 0.384426
0.0395362 -0.0915055 0.38471
0.0393542 -0.0923137 0.385085
0.0392208 -0.0932681 0.386149
0.0390866 -0.0942275 0.387218
0.0389411 -0.0951598 0.388141
0.0387931 -0.0960908 0.389044
0.0386395 -0.0970101 0.389877
0.0384375 -0.0977814 0.390019
0.0382578 -0.0986261 0.390491
0.038124 -0.0996248 0.391648
0.0525529 -0.0420102 0.370288
0.052369 -0.0427118 0.370413
0.0521906 -0.0434194 0.370592
0.0520135 -0.0441294 0.370787
0.0518263 -0.0448305 0.370887
0.0516233 -0.0455163 0.370834
0.0514142 -0.0461959 0.370722
0.0511982 -0.0468681 0.370543
0.050961 -0.047517 0.370154
0.0507238 -0.0481644 0.369761
0.0504954 -0.0488204 0.369453
0.0502641 -0.0494722 0.369116
0.0500291 -0.0501184 0.368738
0.0498051 -0.0507763 0.368467
0.049574 -0.0514249 0.368124
0.0493563 -0.0520886 0.367913
0.0491486 -0.0527642 0.367803
0.0489538 -0.0534561 0.367825
0.0487627 -0.0541533 0.367887
0.0485672 -0.0548453 0.367905
0.0483551 -0.0555154 0.36775
0.0481376 -0.0561778 0.367539
0.0479155 -0.0568329 0.367276
0.0476909 -0.0574837 0.366986
0.0474751 -0.0581463 0.366787
0.047275 -0.0588313 0.366755
0.0470829 -0.0595285 0.366809
0.0468953 -0.060233 0.366913
0.046727 -0.0609681 0.367227
0.0465599 -0.0617071 0.367559
0.0463854 -0.0624363 0.367815
0.0462127 -0.0631699 0.368093
0.0460346 -0.0638962 0.368314
0.0458379 -0.0645929 0.368333
0.0456407 -0.0652894 0.368347
0.0454429 -0.065985 0.368355
0.0452298 -0.0666543 0.368191
0.0452449 -0.0677311 0.37062
0.0454119 -0.0690965 0.374811
0.0455787 -0.0704833 0.379048
0.0457304 -0.0718636 0.383156
0.0458469 -0.0731985 0.386902
0.0457264 -0.0740946 0.387923
0.045472 -0.0747333 0.387382
0.0452439 -0.075422 0.387148
0.0450235 -0.0761254 0.387002
0.0448052 -0.0768329 0.386881
0.044592 -0.0775507 0.386821
0.0443928 -0.0782985 0.386931
0.0441898 -0.079039 0.386996
0.0439685 -0.0797403 0.386839
0.0437532 -0.0804544 0.386754
0.0435299 -0.0811505 0.386572
0.04331 -0.0818537 0.386429
0.0430966 -0.0825718 0.386368
0.0428916 -0.0833096 0.386413
0.0426787 -0.0840297 0.38636
0.042479 -0.0847813 0.386473
0.0422604 -0.0854878 0.386348
0.0420596 -0.0862386 0.386452
0.0418383 -0.0869382 0.386292
0.0416124 -0.0876257 0.386071
0.0413728 -0.0882763 0.385668
0.041133 -0.0889245 0.385258
0.0408821 -0.0895405 0.384694
0.0406563 -0.0902227 0.384463
0.0405152 -0.091139 0.385372
0.0403764 -0.0920677 0.386325
0.0402488 -0.0930345 0.387443
0.0401741 -0.0941621 0.389306
0.0400816 -0.0952494 0.390947
0.0399397 -0.0961999 0.391924
0.0397974 -0.0971561 0.392909
0.0396443 -0.0980854 0.393756
0.0394381 -0.0988554 0.39386
0.0392775 -0.0997704 0.394619
0.039133 -0.100743 0.395624
0.0530937 -0.0429428 0.3707
0.0529011 -0.0436377 0.370744
0.0527177 -0.0443419 0.370876
0.0525298 -0.0450426 0.370967
0.0523224 -0.0457244 0.370873
0.0521219 -0.0464132 0.370845
0.051906 -0.0470862 0.37067
0.0516682 -0.0477353 0.370281
0.0514301 -0.0483829 0.369887
0.0511969 -0.0490345 0.369537
0.0509609 -0.0496816 0.369157
0.0507252 -0.0503279 0.368778
0.0505015 -0.0509869 0.368515
0.0502698 -0.0516354 0.368171
0.0500559 -0.0523043 0.368
0.0498477 -0.0529799 0.367888
0.0496485 -0.0536666 0.367865
0.0494535 -0.054359 0.367886
0.0492579 -0.0550511 0.367902
0.0490459 -0.0557216 0.367749
0.0488279 -0.0563839 0.367536
0.0486094 -0.0570447 0.367315
0.0483878 -0.0577005 0.36706
0.0481752 -0.0583683 0.366898
0.0479796 -0.0590602 0.366913
0.0477886 -0.0597595 0.366978
0.0476022 -0.0604662 0.367093
0.0474344 -0.0612021 0.367408
0.0472637 -0.0619355 0.367696
0.0470859 -0.0626592 0.36791
0.0469096 -0.063387 0.368145
0.0467275 -0.0641067 0.36832
0.0465264 -0.0647962 0.368288
0.046325 -0.0654857 0.368256
0.0461235 -0.0661748 0.368221
0.0459144 -0.0668512 0.368103
0.0459349 -0.0679317 0.370547
0.0460989 -0.0692814 0.374626
0.0462603 -0.0706474 0.37872
0.0464215 -0.0720342 0.382857
0.0465464 -0.0733744 0.386625
0.0464321 -0.0742791 0.387696
0.0461894 -0.0749413 0.387298
0.0459696 -0.0756468 0.387162
0.0457647 -0.0763818 0.3872
0.0455508 -0.0770993 0.387134
0.0453448 -0.0778329 0.38716
0.0451571 -0.0786053 0.387404
0.0449615 -0.0793629 0.387559
0.0447368 -0.0800589 0.387367
0.0445207 -0.0807732 0.387277
0.0442938 -0.0814634 0.387056
0.0440635 -0.0821452 0.386793
0.0438459 -0.0828549 0.386682
0.0436429 -0.0835984 0.386752
0.0434376 -0.084337 0.386793
0.0432489 -0.0851165 0.387047
0.0430937 -0.0859784 0.387721
0.0429079 -0.0867698 0.38802
0.0427264 -0.0875739 0.388378
0.0425254 -0.0883311 0.388491
0.0423172 -0.0890712 0.388515
0.0420756 -0.0897247 0.388108
0.0418177 -0.0903331 0.387483
0.0416112 -0.0910762 0.387526
0.041486 -0.0920413 0.388643
0.0413639 -0.0930219 0.389816
0.0412469 -0.0940248 0.391074
0.04121 -0.0952632 0.393426
0.0411058 -0.0963223 0.394898
0.0409685 -0.0972943 0.395939
0.0408291 -0.0982674 0.396968
0.0406816 -0.0992225 0.397898
0.0404755 -0.100006 0.39803
0.0389623 -0.1031 0.399407
0.0400836 -0.103084 0.401647
0.0399669 -0.104172 0.403087
0.0538067 -0.0431623 0.370867
0.0536083 -0.0438522 0.370856
0.0534257 -0.0445575 0.370993
0.0532437 -0.0452642 0.371138
0.0530367 -0.0459471 0.37105
0.052836 -0.0466363 0.37102
0.0526234 -0.0473134 0.370879
0.0523808 -0.0479588 0.370451
0.0521384 -0.0486028 0.370022
0.0519043 -0.0492543 0.36967
0.0516637 -0.0498974 0.369252
0.0514229 -0.0505387 0.368829
0.0511989 -0.051198 0.368567
0.0509674 -0.0518476 0.368229
0.0507536 -0.0525172 0.368063
0.0505485 -0.053197 0.367982
0.050349 -0.0538839 0.367957
0.0501536 -0.0545761 0.367973
0.0499578 -0.0552682 0.367986
0.0497453 -0.0559388 0.367832
0.0495273 -0.0566017 0.367621
0.0493042 -0.0572571 0.367357
0.0490816 -0.0579123 0.367097
0.0488687 -0.0585802 0.366934
0.0486734 -0.0592728 0.366951
0.0484835 -0.0599737 0.367025
0.048305 -0.0606921 0.36722
0.0481416 -0.0614345 0.367576
0.047975 -0.0621741 0.367902
0.0478011 -0.0629041 0.368154
0.0476249 -0.0636323 0.368387
0.0474391 -0.0643465 0.368519
0.0472302 -0.065024 0.368405
0.0470209 -0.0657008 0.368288
0.0468116 -0.0663774 0.368169
0.0466029 -0.0670547 0.368057
0.0466061 -0.0680992 0.370265
0.0467643 -0.0694285 0.374204
0.0469315 -0.0707937 0.378284
0.0470886 -0.0721618 0.382296
0.0472168 -0.0734974 0.386029
0.0471272 -0.0744442 0.387353
0.0469051 -0.075146 0.387193
0.0466985 -0.0758774 0.387209
0.0465072 -0.0766391 0.3874
0.0463055 -0.0773816 0.387475
0.0461083 -0.0781341 0.387605
0.0459255 -0.0789171 0.387903
0.0457312 -0.0796782 0.388071
0.04551 -0.0803839 0.387926
0.0452966 -0.0811057 0.387872
0.0450659 -0.0817901 0.387613
0.0448279 -0.0824574 0.387265
0.0446029 -0.0831524 0.38707
0.0441726 -0.0845858 0.386915
0.0440021 -0.0854073 0.387384
0.0438271 -0.0874603 0.390396
0.0436868 -0.0883708 0.391272
0.0434961 -0.0891616 0.391529
0.0433087 -0.0899628 0.391832
0.0430713 -0.0906385 0.391506
0.0428244 -0.0912876 0.391053
0.0426512 -0.0921289 0.391545
0.0425483 -0.093161 0.392949
0.0422898 -0.0964513 0.397936
0.0421656 -0.0974617 0.39914
0.0420151 -0.0984048 0.40001
0.0418725 -0.0993762 0.400996
0.0417273 -0.100347 0.401961
0.0415208 -0.101141 0.402111
0.0403368 -0.100999 0.399105
0.0413568 -0.102065 0.402843
0.0401901 -0.101974 0.400084
0.041199 -0.103013 0.403669
0.0410298 -0.103932 0.404351
0.0408587 -0.10485 0.405018
0.0543221 -0.0440723 0.371021
0.0541334 -0.0447723 0.3711
0.0539517 -0.0454796 0.371246
0.0537487 -0.0461669 0.371196
0.0535483 -0.046857 0.37117
0.0533359 -0.047535 0.371032
0.0530922 -0.0481801 0.370601
0.0528483 -0.0488236 0.370164
0.0526095 -0.0494711 0.369773
0.0523673 -0.0501133 0.369346
0.0521254 -0.0507545 0.36892
0.0519009 -0.0514138 0.368656
0.051669 -0.0520638 0.36832
0.0514511 -0.0527292 0.368117
0.0512423 -0.0534051 0.368001
0.0510339 -0.0540813 0.36789
0.0508337 -0.0547674 0.367856
0.0506336 -0.0554539 0.367826
0.050425 -0.0561297 0.367712
0.0502077 -0.0567938 0.36751
0.0499885 -0.0574548 0.367289
0.0497691 -0.0581149 0.367064
0.0495599 -0.0587882 0.366939
0.0493648 -0.0594813 0.366959
0.0491793 -0.0601885 0.367076
0.0490046 -0.0609124 0.367306
0.0488417 -0.0616553 0.367661
0.048676 -0.0623957 0.367989
0.0485028 -0.063127 0.368246
0.0483275 -0.0638562 0.368482
0.0481419 -0.0645709 0.368614
0.0479287 -0.0652422 0.368458
0.0477149 -0.0659121 0.368293
0.0475008 -0.0665811 0.368125
0.0472916 -0.0672579 0.368008
0.0472855 -0.0682816 0.370076
0.0474413 -0.069597 0.373917
0.047604 -0.0709441 0.377874
0.0477709 -0.0723187 0.381916
0.0479019 -0.0736493 0.385609
0.0478291 -0.0746228 0.387091
0.0476252 -0.0753584 0.387134
0.0474363 -0.0761234 0.387346
0.0472594 -0.0769132 0.387697
0.0470749 -0.07769 0.387965
0.0468915 -0.0784711 0.38825
0.0467183 -0.0792745 0.388655
0.0465254 -0.0800401 0.388839
0.0463068 -0.0807537 0.38873
0.0460927 -0.0814766 0.388673
0.0458575 -0.0821546 0.388371
0.0456147 -0.0828146 0.387977
0.0447675 -0.0894358 0.39551
0.0443223 -0.0908843 0.395278
0.044098 -0.0916041 0.395142
0.0438685 -0.0923102 0.394939
0.0437246 -0.0932367 0.39581
0.0423372 -0.0952377 0.395746
0.0435329 -0.0953616 0.398807
0.0434149 -0.0963786 0.400052
0.0433508 -0.0975516 0.40201
0.0432042 -0.0985066 0.402918
0.043049 -0.0994447 0.403732
0.0429033 -0.100415 0.40468
0.0427577 -0.101392 0.405642
0.0425544 -0.102205 0.405849
0.0423488 -0.103015 0.406034
0.0421307 -0.103788 0.406051
0.0418975 -0.104514 0.405861
0.0416698 -0.105259 0.405752
0.0550443 -0.0442996 0.371252
0.0548659 -0.0450097 0.371424
0.0546846 -0.0457181 0.371572
0.054486 -0.0464107 0.371564
0.0542893 -0.0471053 0.371573
0.0540715 -0.0477791 0.371389
0.0538224 -0.0484202 0.370915
0.0535773 -0.0490639 0.370476
0.0533328 -0.0497065 0.370038
0.0530847 -0.0503437 0.369563
0.0528373 -0.0509799 0.369092
0.0526068 -0.0516335 0.368776
0.0523702 -0.0522791 0.368401
0.0521517 -0.0529444 0.368195
0.0519428 -0.0536206 0.368079
0.0517339 -0.0542968 0.367964
0.0515291 -0.0549777 0.367888
0.0513284 -0.0556637 0.367851
0.0511199 -0.05634 0.367739
0.0509029 -0.0570051 0.367543
0.0506804 -0.0576622 0.367292
0.050465 -0.0583283 0.36711
0.0502555 -0.0590017 0.366984
0.0500569 -0.0596903 0.366968
0.0498672 -0.0603915 0.367041
0.0496965 -0.0611208 0.367307
0.0495345 -0.0618643 0.367663
0.0493706 -0.0626072 0.368005
0.0492028 -0.0633462 0.368312
0.049032 -0.0640823 0.368591
0.0488467 -0.0647976 0.368723
0.0486329 -0.0654687 0.368563
0.0484182 -0.0661378 0.368391
0.0482026 -0.0668052 0.36821
0.0479921 -0.0674805 0.368082
0.0479897 -0.0685059 0.370152
0.048144 -0.0698102 0.37391
0.0483144 -0.0711613 0.377877
0.0484735 -0.0725127 0.381763
0.0486101 -0.073844 0.38545
0.0485449 -0.0748271 0.386985
0.0483595 -0.0755969 0.387228
0.048186 -0.0763907 0.387605
0.0480312 -0.0772221 0.388192
0.0478648 -0.0780347 0.388658
0.0476991 -0.0788516 0.389138
0.0475362 -0.0796769 0.389655
0.0473513 -0.0804609 0.38993
0.0471266 -0.0811653 0.38976
0.0469015 -0.0818685 0.389584
0.0466586 -0.0825337 0.389203
0.0464058 -0.0831759 0.388705
0.0458619 -0.0905036 0.399738
0.0455788 -0.0910953 0.398921
0.0453553 -0.0918279 0.398817
0.045141 -0.092583 0.398824
0.0449225 -0.0933279 0.398779
0.0447997 -0.0943159 0.399914
0.0446977 -0.0953645 0.40132
0.0445932 -0.0964155 0.402714
0.0444705 -0.0974261 0.403893
0.0443346 -0.0984104 0.404928
0.0441192 -0.0991838 0.404964
0.0439098 -0.0999755 0.405081
0.0437094 -0.100792 0.405311
0.0435093 -0.101613 0.405554
0.0433099 -0.102437 0.405806
0.0431121 -0.103268 0.406085
0.0428909 -0.104032 0.406062
0.042661 -0.10477 0.405921
0.042437 -0.105526 0.405862
0.0557701 -0.0445293 0.371506
0.0555977 -0.0452454 0.371728
0.0554141 -0.0459523 0.371854
0.0552249 -0.0466547 0.37193
0.0550368 -0.0473589 0.372019
0.0548148 -0.0480297 0.371801
0.0545682 -0.048675 0.371358
0.0543218 -0.049319 0.370915
0.0540714 -0.0499572 0.370431
0.0538135 -0.0505854 0.369874
0.0535595 -0.051216 0.36935
0.053319 -0.0518595 0.368946
0.0530765 -0.0524994 0.368522
0.0528487 -0.0531548 0.368232
0.0526348 -0.0538256 0.368071
0.0524211 -0.0544962 0.367911
0.0522117 -0.0551717 0.367792
0.0520063 -0.0558521 0.367711
0.0518025 -0.0565342 0.367643
0.0515898 -0.0572052 0.367492
0.0513716 -0.0578684 0.367285
0.0511604 -0.0585405 0.367146
0.0509551 -0.0592201 0.367063
0.0507527 -0.0599038 0.36701
0.0505625 -0.0606045 0.367076
0.0503923 -0.0613343 0.367342
0.0502312 -0.0620788 0.367701
0.0500689 -0.0628235 0.368053
0.0499061 -0.0635695 0.368404
0.0497361 -0.0643067 0.368685
0.0495511 -0.0650224 0.368819
0.0493369 -0.0656938 0.368657
0.0491219 -0.0663633 0.368486
0.0489023 -0.0670249 0.368266
0.0486869 -0.0676927 0.368089
0.0486108 -0.0685915 0.369358
0.0487613 -0.0698788 0.373006
0.0491098 -0.0725916 0.380913
0.0492682 -0.0739502 0.384759
0.0492903 -0.0750845 0.387193
0.0491188 -0.0758797 0.387582
0.0489598 -0.0767002 0.388109
0.0488154 -0.0775511 0.3888
0.0486676 -0.0783995 0.389462
0.0485164 -0.0792452 0.390094
0.0483517 -0.0800682 0.390586
0.0481662 -0.080853 0.390855
0.0479453 -0.0815681 0.390734
0.0477108 -0.0822552 0.39046
0.0474671 -0.0829222 0.390081
0.0472219 -0.0835845 0.389683
0.0471959 -0.0908325 0.40406
0.0468974 -0.091405 0.403105
0.046619 -0.09202 0.402377
0.0463763 -0.0927172 0.402066
0.0461626 -0.0934831 0.402098
0.0459474 -0.0942464 0.402115
0.0457826 -0.0951343 0.402735
0.0456126 -0.0960144 0.403305
0.0454355 -0.0968794 0.403793
0.0452515 -0.0977313 0.404208
0.045064 -0.0985759 0.404583
0.044857 -0.0993704 0.404718
0.0446567 -0.100185 0.404943
0.044461 -0.101014 0.405227
0.0442618 -0.101836 0.405475
0.044066 -0.102669 0.405768
0.043877 -0.103524 0.406151
0.0436638 -0.104312 0.406231
0.0434423 -0.105076 0.406203
0.0432225 -0.105846 0.406202
0.0563289 -0.0454798 0.372015
0.0561499 -0.0461917 0.37218
0.0559617 -0.0468958 0.372265
0.0557734 -0.0476005 0.372351
0.0555502 -0.0482714 0.372126
0.0553036 -0.0489181 0.371691
0.0550566 -0.0495628 0.371249
0.054805 -0.0502013 0.370763
0.0545411 -0.0508247 0.370161
0.0542806 -0.0514497 0.369586
0.0540342 -0.052088 0.369135
0.053785 -0.0527216 0.368656
0.0535518 -0.0533717 0.368321
0.0533369 -0.0540419 0.368153
0.0531183 -0.0547074 0.36795
0.052904 -0.0553774 0.367786
0.0526945 -0.0560529 0.367666
0.0524856 -0.056729 0.367552
0.0522728 -0.0574 0.3674
0.0520591 -0.0580694 0.367239
0.0518529 -0.0587483 0.367148
0.0516475 -0.0594282 0.367066
0.0514486 -0.0601168 0.367046
0.0512584 -0.0608177 0.367112
0.0510887 -0.061548 0.367377
0.0509287 -0.0622935 0.367741
0.0507709 -0.0630444 0.368131
0.0506085 -0.0637908 0.36848
0.0504428 -0.064534 0.368799
0.0502583 -0.0652507 0.368935
0.0500445 -0.0659233 0.368779
0.0498297 -0.0665941 0.368614
0.0496064 -0.0672509 0.368361
0.0493792 -0.0679004 0.368066
0.0493755 -0.0689149 0.370052
0.0495375 -0.0702151 0.373758
0.0489366 -0.071227 0.37695
0.0497231 -0.0715736 0.377745
0.0499238 -0.0729782 0.381927
0.0501044 -0.0743689 0.385942
0.0500741 -0.075408 0.387791
0.0499123 -0.0762211 0.388277
0.0497633 -0.0770605 0.388904
0.0496255 -0.0779239 0.389655
0.0494872 -0.0787908 0.390411
0.0493375 -0.0796402 0.391053
0.0491691 -0.0804575 0.3915
0.0489755 -0.0812282 0.39168
0.0487569 -0.0819505 0.39159
0.0485198 -0.0826357 0.391297
0.0474598 -0.0901767 0.404603
0.0482846 -0.0905647 0.40538
0.0480152 -0.0912119 0.404787
0.0477189 -0.0917945 0.403878
0.047449 -0.0924343 0.403267
0.0472016 -0.0931235 0.40291
0.0469694 -0.0938478 0.402729
0.0467458 -0.0945921 0.402648
0.0465542 -0.0954153 0.402946
0.0463569 -0.0962253 0.403177
0.0461688 -0.0970612 0.403524
0.0459887 -0.0979196 0.403972
0.0458034 -0.0987682 0.404364
0.0456017 -0.0995765 0.404562
0.0454105 -0.100414 0.404892
0.0452155 -0.101244 0.40518
0.0450214 -0.102078 0.405482
0.0448385 -0.102946 0.405928
0.044663 -0.103838 0.406473
0.0444563 -0.104645 0.406634
0.0442439 -0.105436 0.406723
0.0440197 -0.106195 0.406668
0.0432364 -0.107322 0.409263
0.0440319 -0.107654 0.409643
0.0570506 -0.0457047 0.372207
0.056873 -0.0464183 0.372382
0.0566895 -0.0471274 0.372507
0.0565034 -0.0478348 0.372612
0.0562823 -0.0485088 0.37241
0.0560447 -0.0491657 0.372061
0.0558014 -0.0498157 0.371659
0.0555451 -0.050451 0.371139
0.0552794 -0.0510744 0.370531
0.0550172 -0.0516991 0.36995
0.05476 -0.0523273 0.36941
0.0545052 -0.052956 0.368887
0.0542664 -0.0536009 0.368507
0.0540459 -0.0542656 0.368291
0.0538224 -0.0549261 0.368046
0.0536031 -0.0555908 0.367839
0.0533883 -0.0562604 0.367671
0.053174 -0.0569302 0.367507
0.0529564 -0.0575953 0.367312
0.0527428 -0.0582652 0.367153
0.0525372 -0.058945 0.36707
0.0523365 -0.0596312 0.367032
0.0521415 -0.0603253 0.367049
0.0519558 -0.0610324 0.367156
0.0517869 -0.0617635 0.367425
0.051632 -0.0625159 0.367832
0.0514742 -0.0632664 0.368215
0.051312 -0.0640126 0.368559
0.0511466 -0.0647562 0.368877
0.0509585 -0.0654676 0.368975
0.0507445 -0.0661406 0.36882
0.0505297 -0.0668119 0.368656
0.0503061 -0.067469 0.368404
0.050162 -0.0682516 0.368944
0.0501904 -0.0693159 0.371222
0.050382 -0.0706594 0.37517
0.0505926 -0.0720541 0.379349
0.050813 -0.0734864 0.383668
0.0509315 -0.0747659 0.386988
0.0508986 -0.0757987 0.388783
0.0507369 -0.0766136 0.389265
0.0505932 -0.0774635 0.38994
0.050457 -0.0783308 0.390701
0.0503245 -0.0792092 0.391508
0.0501788 -0.0800674 0.392185
0.049998 -0.080863 0.392498
0.0497911 -0.0816103 0.392538
0.0495731 -0.0823364 0.392459
0.0493296 -0.0830121 0.392107
0.049354 -0.0902389 0.406419
0.0490869 -0.0908965 0.405867
0.048829 -0.0915733 0.405419
0.0485374 -0.0921712 0.404582
0.0482788 -0.0928413 0.404116
0.0480322 -0.0935356 0.403777
0.0477851 -0.0942283 0.403433
0.0475471 -0.0949405 0.403189
0.0473324 -0.0957086 0.403216
0.0471089 -0.0964552 0.403139
0.0469114 -0.0972667 0.403369
0.0467322 -0.0981253 0.403816
0.0465486 -0.0989759 0.404218
0.0463561 -0.0998068 0.40452
0.0461775 -0.100676 0.404993
0.0459877 -0.101519 0.405335
0.0458019 -0.102376 0.405736
0.0456294 -0.10327 0.406299
0.0454646 -0.10419 0.406966
0.0452638 -0.105015 0.407199
0.0450596 -0.105832 0.407392
0.044828 -0.106571 0.407247
0.0576142 -0.0466607 0.372729
0.0574245 -0.0473648 0.3728
0.0572364 -0.0480711 0.372887
0.0570136 -0.0487443 0.372673
0.0567855 -0.0494119 0.372413
0.0565466 -0.0500677 0.372056
0.0562899 -0.0507041 0.371541
0.0560275 -0.0513328 0.370973
0.0557641 -0.0519584 0.370392
0.0555009 -0.0525817 0.369807
0.0552361 -0.0532013 0.369204
0.0549956 -0.0538457 0.368815
0.0547664 -0.0545015 0.368524
0.0545419 -0.055162 0.368275
0.0543177 -0.0558218 0.368025
0.0541011 -0.0564902 0.367845
0.0538811 -0.0571538 0.367632
0.0536622 -0.0578182 0.367428
0.053444 -0.058483 0.367229
0.0532385 -0.0591634 0.367148
0.0530383 -0.0598506 0.367114
0.0528481 -0.0605513 0.367175
0.0526676 -0.0612657 0.36733
0.0525003 -0.0619991 0.367609
0.052346 -0.0627522 0.368015
0.0521882 -0.0635026 0.368393
0.0520219 -0.064243 0.368693
0.0518532 -0.0649815 0.368973
0.051665 -0.0656931 0.36907
0.0514548 -0.0663725 0.368954
0.0512472 -0.0670555 0.368862
0.0510314 -0.0677258 0.368691
0.0509799 -0.0686536 0.370134
0.0510485 -0.0697801 0.372777
0.051273 -0.071172 0.376992
0.0515094 -0.0726045 0.381367
0.0517294 -0.0740316 0.38562
0.0517768 -0.0751881 0.388176
0.0517338 -0.0762026 0.389844
0.0515718 -0.0770185 0.39032
0.0514288 -0.0778708 0.390995
0.0512896 -0.0787336 0.391716
0.0511495 -0.0795989 0.392436
0.0509992 -0.0804496 0.393058
0.0508054 -0.0812224 0.393234
0.0505896 -0.0819547 0.393182
0.0503736 -0.0826868 0.393129
0.0501334 -0.0833717 0.392819
0.0501656 -0.0905838 0.406974
0.0498999 -0.0912487 0.406453
0.0496435 -0.0919308 0.406027
0.0493505 -0.0925306 0.405195
0.0490922 -0.0932045 0.404743
0.0488442 -0.0938991 0.404399
0.0485879 -0.0945736 0.40396
0.0483398 -0.0952642 0.403608
0.0481081 -0.0959928 0.40344
0.0478712 -0.0967088 0.403214
0.0476655 -0.0974998 0.403345
0.04749 -0.0983667 0.403828
0.0473127 -0.0992313 0.404292
0.0471333 -0.100095 0.404743
0.0469647 -0.100989 0.405325
0.0467834 -0.101853 0.405762
0.0466032 -0.102724 0.406221
0.0464403 -0.103645 0.406892
0.0462827 -0.104584 0.407634
0.0460874 -0.105424 0.407931
0.0458819 -0.106239 0.40811
0.0456401 -0.106952 0.407842
0.0581342 -0.0475781 0.372867
0.0579397 -0.0482785 0.372897
0.0577189 -0.0489542 0.372703
0.0574979 -0.0496292 0.372508
0.0572681 -0.0502949 0.372234
0.0570213 -0.0509426 0.371812
0.0567635 -0.0515775 0.371293
0.0565044 -0.052209 0.370757
0.0562399 -0.0528329 0.370172
0.0559688 -0.0534473 0.369523
0.0557221 -0.0540862 0.369085
0.0554871 -0.0547368 0.368749
0.0552577 -0.0553926 0.368459
0.0550285 -0.0560476 0.368169
0.0548116 -0.0567163 0.367988
0.054586 -0.0573741 0.367729
0.0543663 -0.0580382 0.36752
0.0541514 -0.0587078 0.367355
0.0539459 -0.0593887 0.367274
0.0537501 -0.0600823 0.367282
0.0535695 -0.060796 0.367431
0.0533995 -0.0615247 0.367679
0.0532334 -0.0622603 0.367968
0.0530798 -0.0630145 0.368375
0.0529222 -0.0637656 0.368749
0.0527559 -0.0645063 0.369046
0.0525839 -0.0652407 0.369292
0.0523918 -0.0659473 0.36935
0.0521802 -0.0666257 0.369224
0.0519674 -0.067302 0.369085
0.0518261 -0.0680869 0.369633
0.0518747 -0.0691692 0.372024
0.0520592 -0.0704772 0.375759
0.0523297 -0.0719409 0.380368
0.0525813 -0.0733969 0.384836
0.0527356 -0.074715 0.388387
0.0527044 -0.0757416 0.390136
0.0525832 -0.0766249 0.391007
0.0524112 -0.0774255 0.391379
0.052259 -0.0782629 0.391955
0.0521074 -0.0791049 0.392544
0.0519547 -0.0799479 0.393126
0.0517869 -0.080767 0.393562
0.0515885 -0.0815323 0.39369
0.0513616 -0.0822453 0.393526
0.0510039 -0.0909806 0.40779
0.0507287 -0.0916289 0.407179
0.0504441 -0.0922551 0.406464
0.0501468 -0.0928492 0.4056
0.0498795 -0.0935055 0.405057
0.049631 -0.0942006 0.404713
0.0493737 -0.0948757 0.404275
0.0491203 -0.0955569 0.403873
0.0488845 -0.0962777 0.403665
0.0486466 -0.0969922 0.40343
0.0484451 -0.0977935 0.403605
0.0482755 -0.0986738 0.404146
0.0481086 -0.0995639 0.404724
0.0479455 -0.100467 0.40535
0.0477874 -0.101387 0.406044
0.0476072 -0.102255 0.406489
0.047428 -0.103129 0.406953
0.0472652 -0.10405 0.407619
0.0471006 -0.104969 0.408267
0.0469039 -0.105807 0.408544
0.0466943 -0.106611 0.408669
0.0464412 -0.107297 0.40828
0.0586371 -0.0484802 0.372855
0.0584224 -0.049162 0.372714
0.0582032 -0.0498392 0.372536
0.0579762 -0.0505082 0.37229
0.0577376 -0.051165 0.371944
0.0574911 -0.0518124 0.371528
0.0572315 -0.0524448 0.370996
0.0569667 -0.0530698 0.370417
0.056693 -0.0536829 0.369755
0.0564446 -0.0543213 0.36931
0.0562032 -0.0549659 0.368922
0.0559692 -0.0556174 0.368597
0.0557388 -0.056272 0.368301
0.0555218 -0.0569414 0.368122
0.0552922 -0.0575952 0.36783
0.0550726 -0.0582602 0.367626
0.0548574 -0.05893 0.36746
0.0546555 -0.0596161 0.367412
0.054469 -0.0603219 0.367505
0.0542992 -0.0610499 0.367749
0.0541394 -0.0617926 0.368088
0.0539837 -0.0625426 0.368468
0.0538304 -0.063298 0.368874
0.0536723 -0.064049 0.36924
0.0535063 -0.064791 0.369536
0.0533302 -0.0655204 0.369742
0.0531339 -0.0662219 0.36976
0.0529213 -0.0669002 0.369628
0.0527979 -0.0677106 0.370336
0.0527643 -0.06866 0.371901
0.0529255 -0.0699153 0.375336
0.0535049 -0.0728817 0.38477
0.0536729 -0.0742051 0.388379
0.0537341 -0.0753732 0.390986
0.0536175 -0.076262 0.391887
0.053417 -0.0770151 0.391974
0.0532391 -0.0778076 0.392288
0.0530765 -0.0786281 0.392754
0.0529198 -0.0794618 0.393285
0.0527582 -0.08029 0.393773
0.0525879 -0.0811052 0.394179
0.0523927 -0.0818777 0.394339
0.0521709 -0.0826023 0.394232
0.0518693 -0.0914278 0.408858
0.0515775 -0.0920469 0.408089
0.0512657 -0.0926194 0.407099
0.0509569 -0.0931936 0.406131
0.050683 -0.0938389 0.40553
0.050425 -0.0945156 0.405091
0.0501661 -0.0951894 0.404643
0.0499075 -0.095861 0.404191
0.0496712 -0.0965825 0.403983
0.0494285 -0.0972883 0.403703
0.0492359 -0.0981105 0.403973
0.049073 -0.0990053 0.404577
0.0489132 -0.0999123 0.405226
0.0487619 -0.100844 0.405979
0.0486151 -0.101792 0.406789
0.0484365 -0.102664 0.407248
0.0482605 -0.103547 0.407743
0.048098 -0.104468 0.408399
0.0479239 -0.105362 0.40893
0.0477223 -0.106189 0.409149
0.0475066 -0.106978 0.409206
0.0475112 -0.108367 0.411852
0.0589159 -0.0500558 0.372621
0.0586949 -0.0507314 0.372429
0.0584671 -0.0513997 0.372178
0.0582326 -0.0520606 0.37187
0.0579786 -0.0527002 0.371394
0.0577079 -0.0533208 0.370773
0.0574267 -0.0539278 0.370058
0.0571624 -0.0545504 0.369484
0.0569098 -0.0551837 0.369005
0.0566747 -0.0558349 0.368675
0.0564442 -0.0564901 0.368382
0.0562278 -0.0571607 0.368211
0.0560024 -0.0578203 0.36796
0.0557827 -0.058486 0.367758
0.0555678 -0.059157 0.367597
0.0553761 -0.0598561 0.36764
0.0552001 -0.0605756 0.367825
0.0550406 -0.0613174 0.368159
0.0548918 -0.0620749 0.368593
0.0547416 -0.0628329 0.369018
0.0545888 -0.0635896 0.369424
0.0544309 -0.0643416 0.369787
0.0542645 -0.065084 0.370078
0.0540844 -0.0658088 0.370245
0.053888 -0.0665117 0.370265
0.0536745 -0.0671902 0.370128
0.0536404 -0.0681315 0.371655
0.0537237 -0.0692551 0.374292
0.0539976 -0.0706797 0.37874
0.0545867 -0.0736582 0.388146
0.0546634 -0.0748382 0.390845
0.0546259 -0.0758488 0.39248
0.0544297 -0.0766099 0.39261
0.0542277 -0.0773625 0.392685
0.0540441 -0.0781465 0.39294
0.0538711 -0.0789502 0.3933
0.0537045 -0.0797671 0.393728
0.0535384 -0.0805874 0.394165
0.0533701 -0.0814065 0.394585
0.0531855 -0.0821988 0.394849
0.0530709 -0.09133 0.411089
0.052744 -0.0918868 0.409981
0.0524432 -0.0924924 0.409134
0.0521098 -0.0930259 0.407941
0.0517925 -0.0935877 0.406905
0.0515066 -0.0942114 0.406191
0.0512363 -0.0948653 0.405635
0.050976 -0.095538 0.405178
0.0507069 -0.09619 0.404627
0.0504609 -0.0968916 0.40432
0.0502128 -0.0975865 0.403985
0.0500251 -0.0984202 0.404305
0.049864 -0.0993192 0.404922
0.0497165 -0.100254 0.405693
0.0495807 -0.101221 0.406603
0.0494437 -0.102192 0.407512
0.0492661 -0.103068 0.407975
0.0490857 -0.10394 0.408415
0.048914 -0.104837 0.408959
0.048726 -0.105695 0.409322
0.0485195 -0.106509 0.409482
0.048295 -0.107277 0.40944
0.0594048 -0.0509455 0.372487
0.0591885 -0.0516257 0.372335
0.0589594 -0.0522928 0.372076
0.0587127 -0.0529412 0.371669
0.0584452 -0.0535667 0.371084
0.058158 -0.0541692 0.37033
0.0578812 -0.0547798 0.369657
0.0576219 -0.0554069 0.369129
0.0573807 -0.0560522 0.368751
0.0571501 -0.0567082 0.368462
0.0569339 -0.0573797 0.368295
0.0567174 -0.0580503 0.368124
0.056502 -0.0587219 0.367962
0.0562966 -0.0594052 0.367886
0.0561113 -0.0601131 0.367986
0.0559421 -0.0608416 0.368228
0.0557891 -0.0615921 0.368615
0.0556457 -0.062357 0.369092
0.0554916 -0.0631105 0.369477
0.0553353 -0.0638633 0.369848
0.0551776 -0.064616 0.370209
0.055007 -0.0653533 0.370458
0.0548223 -0.0660726 0.370583
0.0546298 -0.0667817 0.370638
0.0544206 -0.0674677 0.370543
0.0544862 -0.0685518 0.372961
0.0546899 -0.0698504 0.376669
0.0553004 -0.0728097 0.386066
0.055565 -0.0742612 0.39045
0.0555405 -0.0752835 0.39217
0.0554089 -0.0761453 0.392901
0.0552167 -0.0769137 0.393068
0.0550143 -0.0776668 0.39314
0.0548258 -0.0784434 0.393345
0.0546472 -0.0792381 0.393648
0.0544717 -0.08004 0.393984
0.0543011 -0.0808522 0.39437
0.0541362 -0.0816769 0.394817
0.0539614 -0.0824867 0.395172
0.0537675 -0.0832645 0.395345
0.054017 -0.0919163 0.412865
0.0536569 -0.0924157 0.41145
0.053325 -0.0929641 0.410305
0.0529742 -0.0934686 0.408958
0.0526435 -0.094008 0.407806
0.0523409 -0.0946009 0.406933
0.0520623 -0.0952414 0.406305
0.0517947 -0.0959024 0.405785
0.0515238 -0.0965534 0.405225
0.0512862 -0.0972759 0.405012
0.0510501 -0.098002 0.404818
0.0508635 -0.0988394 0.405146
0.0507037 -0.0997411 0.405767
0.0505561 -0.100676 0.406528
0.0504113 -0.101622 0.407329
0.0502629 -0.102564 0.408099
0.0500803 -0.103428 0.408503
0.0498914 -0.104279 0.408843
0.0497111 -0.105154 0.409283
0.0495148 -0.105991 0.409547
0.0493078 -0.106803 0.409698
0.0493578 -0.108284 0.412744
0.0599048 -0.0518461 0.372443
0.0596721 -0.0525104 0.372158
0.0594243 -0.0531585 0.371746
0.0591535 -0.0537815 0.371142
0.058866 -0.0543849 0.370395
0.058572 -0.0549786 0.369588
0.0583061 -0.0555994 0.369012
0.0580582 -0.0562378 0.368583
0.0578288 -0.0568952 0.368306
0.0576175 -0.0575723 0.368181
0.0574105 -0.0582542 0.368092
0.0572042 -0.0589367 0.368009
0.0570136 -0.0596381 0.368062
0.0568442 -0.0603656 0.368297
0.0566866 -0.0611089 0.368637
0.0565391 -0.0618669 0.369068
0.0564 -0.0626377 0.369576
0.0562459 -0.0633918 0.369958
0.0560855 -0.0641397 0.370288
0.0559239 -0.064888 0.370611
0.0557532 -0.0656258 0.370856
0.0555632 -0.0663387 0.370934
0.0553663 -0.0670427 0.37095
0.0552522 -0.0678639 0.37171
0.0554253 -0.0691 0.375064
0.0563609 -0.0735291 0.389103
0.0565261 -0.0748283 0.392521
0.0564082 -0.0757085 0.393364
0.0561906 -0.0764373 0.393292
0.0559985 -0.0772066 0.393458
0.055796 -0.0779606 0.39353
0.0556029 -0.0787304 0.39369
0.0554153 -0.0795106 0.393904
0.0552351 -0.0803047 0.394191
0.0550651 -0.0811179 0.394579
0.0549085 -0.0819564 0.395097
0.0547459 -0.0827875 0.395564
0.0546756 -0.0837846 0.396924
0.0546607 -0.0848887 0.398834
0.0549192 -0.0924074 0.414144
0.0545637 -0.0929225 0.4128
0.0542102 -0.0934355 0.411466
0.0538513 -0.0939306 0.410065
0.0535061 -0.094447 0.408791
0.0531902 -0.0950174 0.407801
0.0528952 -0.0956277 0.40702
0.0526267 -0.0962897 0.4065
0.0523593 -0.0969523 0.405989
0.0521309 -0.0976983 0.40588
0.0519046 -0.0984489 0.405794
0.0517232 -0.0992999 0.406176
0.051554 -0.100182 0.406693
0.051401 -0.101104 0.407386
0.0512413 -0.102014 0.408015
0.0510781 -0.102921 0.408617
0.0508817 -0.103752 0.408868
0.050693 -0.104604 0.409204
0.0505002 -0.105447 0.409499
0.0502946 -0.106261 0.40966
0.0503567 -0.107753 0.412768
0.0606241 -0.0520688 0.372568
0.060383 -0.0527257 0.372219
0.0601267 -0.0533661 0.371744
0.0598396 -0.0539735 0.371014
0.059547 -0.0545725 0.370235
0.0592476 -0.0551613 0.369394
0.0589827 -0.0557837 0.368832
0.0587293 -0.0564164 0.368361
0.0585045 -0.0570791 0.368126
0.0582943 -0.0577574 0.36801
0.0580982 -0.0584516 0.368013
0.0578974 -0.0591408 0.367977
0.0577232 -0.0598614 0.368166
0.0575702 -0.0606085 0.368537
0.0574236 -0.0613655 0.368966
0.0572763 -0.0621239 0.369394
0.0571412 -0.0628998 0.369929
0.0569819 -0.0636478 0.370262
0.0568172 -0.0643904 0.370551
0.0566515 -0.0651336 0.370834
0.0564758 -0.0658649 0.371033
0.0562802 -0.0665706 0.371059
0.0561841 -0.0674136 0.371963
0.0561826 -0.0683929 0.373711
0.0564754 -0.069797 0.378085
0.0571417 -0.072786 0.387671
0.0573372 -0.0741116 0.391287
0.0574 -0.0752557 0.393738
0.0571852 -0.07599 0.393695
0.0569578 -0.0767049 0.393536
0.0567614 -0.077468 0.393661
0.0565553 -0.0782166 0.393698
0.0563626 -0.0789873 0.393859
0.0561755 -0.0797685 0.394076
0.0559997 -0.0805696 0.394399
0.0558405 -0.0814008 0.394881
0.0556913 -0.0822515 0.395462
0.0555253 -0.0830768 0.395891
0.0555489 -0.0842359 0.39812
0.0556268 -0.0855026 0.400886
0.0561412 -0.0922942 0.416331
0.0558039 -0.0928572 0.415204
0.0554499 -0.0933817 0.413902
0.0550834 -0.0938753 0.412464
0.0547204 -0.0943689 0.41105
0.0543619 -0.0948647 0.409667
0.0540362 -0.0954208 0.408601
0.0537293 -0.0960109 0.407716
0.053455 -0.0966649 0.407151
0.0531933 -0.0973427 0.406708
0.0529758 -0.0981149 0.406716
0.0527625 -0.0988958 0.406764
0.0525832 -0.0997539 0.407169
0.0524089 -0.100625 0.407627
0.0522428 -0.101518 0.408175
0.052067 -0.102391 0.408628
0.0518843 -0.103253 0.409019
0.0516736 -0.10405 0.409111
0.0514747 -0.104877 0.409335
0.0515595 -0.106392 0.412591
0.0608353 -0.0535794 0.371787
0.0605356 -0.0541754 0.370965
0.0602256 -0.0547576 0.370055
0.0599138 -0.0553344 0.369124
0.0596541 -0.0559626 0.36861
0.0594051 -0.0566004 0.368181
0.0591828 -0.0572659 0.367968
0.058978 -0.0579502 0.367898
0.0587927 -0.0586565 0.367988
0.0585947 -0.0593492 0.367976
0.0584367 -0.0600886 0.368297
0.0582955 -0.0608496 0.368761
0.0581508 -0.061609 0.369201
0.0580091 -0.0623742 0.36967
0.0578741 -0.0631502 0.3702
0.057705 -0.063886 0.370445
0.0575408 -0.0646294 0.370733
0.0573704 -0.0653666 0.370973
0.0571845 -0.0660847 0.371081
0.0569875 -0.0667888 0.371095
0.0570028 -0.0677817 0.372951
0.0571244 -0.0689299 0.375749
0.0578063 -0.0718894 0.385269
0.0581049 -0.0733423 0.389715
0.0581819 -0.0744928 0.392238
0.0581387 -0.0754776 0.393713
0.0579291 -0.0762199 0.393715
0.0577074 -0.076944 0.39361
0.0575167 -0.077716 0.393784
0.057315 -0.078472 0.39386
0.0571228 -0.0792438 0.394024
0.0569362 -0.0800257 0.394241
0.0567607 -0.0808273 0.394563
0.0566024 -0.0816593 0.395046
0.0564547 -0.082512 0.395632
0.0563845 -0.0834999 0.396944
0.0565064 -0.084826 0.400059
0.0566751 -0.08625 0.40364
0.0566132 -0.0907788 0.416603
0.057254 -0.0895875 0.413184
0.0574494 -0.091122 0.41713
0.0564521 -0.0916764 0.417192
0.0572634 -0.0919739 0.417475
0.0569664 -0.0926202 0.416759
0.0566416 -0.0932112 0.415772
0.0562959 -0.0937571 0.414573
0.0559276 -0.0942532 0.413145
0.0555728 -0.0947684 0.411835
0.0552149 -0.0952715 0.410484
0.0548851 -0.0958252 0.4094
0.0545761 -0.0964155 0.40851
0.0543006 -0.0970708 0.407945
0.0540386 -0.097752 0.407511
0.053833 -0.0985515 0.407641
0.0536359 -0.0993698 0.407856
0.0534538 -0.100223 0.408228
0.0532701 -0.101075 0.408587
0.0530972 -0.101954 0.409063
0.0529051 -0.102792 0.409345
0.0526996 -0.103602 0.409492
0.0524777 -0.104375 0.409472
0.0522675 -0.105175 0.409573
0.051652 -0.107945 0.415964
0.0526574 -0.107407 0.415974
0.0608901 -0.0549286 0.369764
0.0605802 -0.055508 0.368859
0.0603264 -0.0561427 0.368399
0.0600806 -0.0567842 0.368
0.0598714 -0.0574638 0.367894
0.0596756 -0.0581583 0.367898
0.0594939 -0.0588687 0.368016
0.059301 -0.0595673 0.368045
0.0592677 -0.0604506 0.369386
0.0592451 -0.0613526 0.370827
0.0592264 -0.0622661 0.372311
0.0591944 -0.0631704 0.373697
0.0590575 -0.0639525 0.374219
0.0587619 -0.0645395 0.373416
0.0584696 -0.0651273 0.372634
0.0581753 -0.0657093 0.37183
0.0578836 -0.0662914 0.371043
0.0577857 -0.0671267 0.371899
0.057922 -0.0682808 0.374766
0.0581774 -0.069611 0.37868
0.0588917 -0.0726123 0.388364
0.0590776 -0.073904 0.39178
0.0590382 -0.0748867 0.393257
0.0588929 -0.0757218 0.39382
0.0586794 -0.0764586 0.393788
0.0584627 -0.077191 0.393729
0.0582715 -0.0779622 0.393895
0.0580743 -0.0787254 0.39401
0.0578828 -0.0794984 0.394177
0.0576968 -0.0802815 0.394397
0.0575228 -0.0810852 0.394727
0.0573646 -0.081917 0.395204
0.057218 -0.0827708 0.395792
0.0572512 -0.0839298 0.398028
0.0574686 -0.0854144 0.401976
0.0577156 -0.0869698 0.406232
0.0580156 -0.0886403 0.411018
0.0582562 -0.0902294 0.415293
0.0582864 -0.0914633 0.417643
0.058086 -0.0922893 0.417848
0.0577991 -0.0929574 0.41724
0.057484 -0.0935704 0.416362
0.0571414 -0.0941267 0.415213
0.0567676 -0.0946181 0.413758
0.0564164 -0.095146 0.412507
0.0560571 -0.0956517 0.411165
0.0557207 -0.0961969 0.410036
0.055408 -0.0967844 0.409129
0.0551303 -0.097439 0.408555
0.054877 -0.0981412 0.408215
0.0546815 -0.0989632 0.408444
0.0544991 -0.0998153 0.408807
0.0543142 -0.100664 0.409148
0.0541297 -0.101516 0.409497
0.053952 -0.102385 0.409918
0.0537457 -0.103193 0.410056
0.0535205 -0.10396 0.410004
0.0532928 -0.104721 0.409926
0.053066 -0.105484 0.409856
0.0609773 -0.0563007 0.368019
0.060741 -0.0569521 0.367699
0.0605528 -0.0576541 0.367762
0.0603739 -0.0583668 0.367899
0.060197 -0.0590826 0.368054
0.0600054 -0.0597828 0.368092
0.0601142 -0.0608269 0.370568
0.0602424 -0.0619047 0.37322
0.0603759 -0.0630009 0.375937
0.0590223 -0.0670648 0.374678
0.0589291 -0.0679133 0.375575
0.059079 -0.0690892 0.378531
0.0593488 -0.0704409 0.382526
0.0597253 -0.071957 0.387458
0.0599625 -0.0733033 0.391244
0.0600256 -0.0744227 0.393569
0.0598737 -0.0752465 0.394064
0.0596354 -0.0759481 0.393819
0.0594176 -0.0766788 0.393749
0.0592015 -0.0774121 0.393695
0.0590102 -0.0781831 0.393858
0.0588179 -0.0789535 0.394013
0.058627 -0.0797274 0.394183
0.0584429 -0.0805132 0.394416
0.0582748 -0.0813259 0.394793
0.058117 -0.0821576 0.395266
0.0579653 -0.083002 0.395798
0.0581066 -0.0843357 0.398974
0.0584449 -0.0860167 0.403958
0.0590618 -0.0893522 0.413516
0.059286 -0.0909089 0.417585
0.0592047 -0.0919453 0.418882
0.0589058 -0.0925974 0.41818
0.0586197 -0.0932695 0.41759
0.0583028 -0.0938819 0.416708
0.0579623 -0.0944468 0.4156
0.0575876 -0.0949412 0.414159
0.057246 -0.0954924 0.41302
0.0568903 -0.0960106 0.411738
0.0565581 -0.0965686 0.410668
0.0562439 -0.0971568 0.40976
0.0559693 -0.0978209 0.409227
0.0557141 -0.0985225 0.408878
0.0555085 -0.0993249 0.409007
0.0553211 -0.100167 0.409316
0.055134 -0.101012 0.409634
0.0549509 -0.101867 0.409992
0.0547791 -0.102749 0.410467
0.0545836 -0.103583 0.410713
0.0543637 -0.104363 0.410715
0.054134 -0.105122 0.410623
0.053919 -0.105914 0.410675
0.0612557 -0.0578671 0.367798
0.0610773 -0.0585804 0.367938
0.0609 -0.0592958 0.368087
0.0608816 -0.0601892 0.369505
0.0611858 -0.0614541 0.373514
0.0614816 -0.0627274 0.377487
0.0603814 -0.0700755 0.383395
