ply
format ascii 1.0
element vertex 1553
property float x
property float y
property float z
end_header
-0.0402691 -0.0327303 0.477344
-0.0402441 -0.0335362 0.477158
-0.0402172 -0.0343407 0.476956
-0.0401891 -0.0351438 0.476738
-0.0401615 -0.0359467 0.476531
-0.0401361 -0.0367496 0.476341
-0.0401256 -0.0375595 0.476304
-0.0401193 -0.0383714 0.47631
-0.040113 -0.0391832 0.476315
-0.0401156 -0.0400002 0.476414
-0.0401338 -0.0408263 0.476671
-0.0401396 -0.041646 0.476802
-0.0401591 -0.0424745 0.477074
-0.0401979 -0.0433156 0.477538
-0.0402239 -0.0441506 0.47788
-0.0402474 -0.0449845 0.478188
-0.0402911 -0.0458336 0.478711
-0.040375 -0.0467121 0.479641
-0.0404499 -0.0475874 0.48048
-0.0405427 -0.0484786 0.481502
-0.0406222 -0.0493629 0.482385
-0.0407111 -0.0502578 0.483369
-0.0407676 -0.0511304 0.48402
-0.0408167 -0.0519996 0.484598
-0.0408756 -0.0528785 0.485274
-0.0409673 -0.0537869 0.486285
-0.041052 -0.0546929 0.487227
-0.0411405 -0.0556054 0.48821
-0.0412532 -0.0565424 0.489436
-0.0413489 -0.0574683 0.490492
-0.0414297 -0.058384 0.491395
-0.0414944 -0.0592875 0.49213
-0.041543 -0.0601783 0.492705
-0.0415647 -0.0610447 0.493002
-0.0415797 -0.0619052 0.493226
-0.0415779 -0.0627497 0.493284
-0.0415713 -0.0635896 0.49329
-0.04155 -0.0644139 0.493142
-0.0415262 -0.0652348 0.492972
-0.041501 -0.0660544 0.492788
-0.0414725 -0.0668688 0.492565
-0.0414451 -0.0676845 0.492361
-0.0414286 -0.0685108 0.492264
-0.0414168 -0.0693431 0.492218
-0.0414055 -0.0701754 0.492175
-0.0418008 -0.071488 0.496314
-0.0401655 -0.000852877 0.481866
-0.0400934 -0.00169184 0.48119
-0.0400498 -0.00252164 0.480815
-0.0400078 -0.00334996 0.480451
-0.0399751 -0.00417507 0.480186
-0.0399432 -0.00499918 0.479924
-0.0399214 -0.0058206 0.479775
-0.0399002 -0.00664149 0.479626
-0.0398842 -0.00746115 0.479531
-0.0398625 -0.00828106 0.479381
-0.0398457 -0.00910001 0.479278
-0.0398293 -0.00991853 0.479181
-0.0398378 -0.0107351 0.479341
-0.0398579 -0.0115518 0.479624
-0.0398804 -0.0123693 0.479925
-0.0399005 -0.0131878 0.480209
-0.0399187 -0.0140072 0.480468
-0.0399127 -0.0148268 0.480477
-0.0399013 -0.0156462 0.480436
-0.0398905 -0.0164654 0.480393
-0.0398793 -0.0172844 0.480349
-0.0398636 -0.0181028 0.480258
-0.0398422 -0.0189203 0.480113
-0.0398158 -0.0197365 0.479909
-0.0397873 -0.0205518 0.479688
-0.0397551 -0.0213656 0.479423
-0.0397134 -0.0221769 0.479066
-0.0396715 -0.0229867 0.4787
-0.0396333 -0.0237963 0.478379
-0.039587 -0.0246026 0.477967
-0.0395405 -0.0254077 0.477559
-0.039508 -0.0262149 0.477292
-0.0394809 -0.0270229 0.477083
-0.0394649 -0.0278335 0.476989
-0.0394592 -0.0286472 0.477003
-0.0394591 -0.0294626 0.477072
-0.0394488 -0.0302748 0.477041
-0.0394377 -0.0310863 0.476995
-0.039421 -0.0318956 0.476895
-0.039405 -0.0327047 0.476799
-0.0393804 -0.0335098 0.476614
-0.039364 -0.034318 0.476518
-0.0393473 -0.0351257 0.476417
-0.0393309 -0.0359331 0.47632
-0.0393156 -0.0367407 0.476232
-0.0393096 -0.0375527 0.476242
-0.039304 -0.0383649 0.476255
-0.0393032 -0.0391798 0.476317
-0.0393072 -0.0399975 0.476429
-0.0393256 -0.0408242 0.476695
-0.0393406 -0.0416496 0.476923
-0.0393745 -0.0424875 0.477348
-0.0394181 -0.0433329 0.477874
-0.0394543 -0.0441754 0.478325
-0.0394858 -0.0450159 0.478724
-0.0395241 -0.0458628 0.479198
-0.0395873 -0.0467284 0.479925
-0.0396503 -0.0475967 0.480657
-0.0397261 -0.0484768 0.481519
-0.0397992 -0.0493577 0.482352
-0.0398821 -0.0502491 0.48329
-0.039932 -0.0511175 0.483885
-0.0399692 -0.0519773 0.484346
-0.0400088 -0.0528407 0.484832
-0.0400722 -0.0537258 0.485566
-0.0401288 -0.0546079 0.486234
-0.0402055 -0.0555094 0.487106
-0.0403162 -0.0564447 0.488334
-0.0404325 -0.0573897 0.489626
-0.0405394 -0.0583295 0.490813
-0.0406344 -0.0592626 0.491883
-0.0407032 -0.060173 0.492672
-0.0407435 -0.0610586 0.493172
-0.0407675 -0.0619292 0.493497
-0.040772 -0.0627806 0.493616
-0.040772 -0.0636275 0.49369
-0.0407561 -0.0644588 0.493601
-0.0407287 -0.0652761 0.493388
-0.0406991 -0.0660911 0.493155
-0.0410647 -0.0673451 0.49705
-0.0407785 0.00180512 0.487979
-0.0399862 0.00265562 0.488304
-0.0394976 0.00166444 0.483243
-0.0402928 0.000826551 0.483033
-0.0394392 0.000823482 0.4827
-0.0402316 -1.34369e-05 0.482476
-0.0393797 -1.58458e-05 0.482148
-0.0393153 -0.000854525 0.481548
-0.0392487 -0.00169196 0.480918
-0.0392071 -0.00252106 0.480556
-0.0391662 -0.00334879 0.4802
-0.0391344 -0.00417354 0.479937
-0.0391018 -0.00499739 0.47967
-0.0390797 -0.00581869 0.479506
-0.0390539 -0.00663983 0.479311
-0.0390431 -0.00745837 0.479268
-0.0390275 -0.0082773 0.479176
-0.0390162 -0.00909539 0.479133
-0.0390053 -0.0099133 0.479092
-0.0390186 -0.0107295 0.479303
-0.0390383 -0.0115462 0.479587
-0.0390602 -0.0123637 0.479887
-0.0390798 -0.0131821 0.480171
-0.0390975 -0.0140016 0.48043
-0.0390915 -0.0148211 0.480439
-0.039081 -0.0156406 0.480401
-0.0390746 -0.01646 0.480407
-0.0390686 -0.0172796 0.480416
-0.039058 -0.0180986 0.480379
-0.0390427 -0.0189171 0.480291
-0.0390163 -0.0197337 0.480089
-0.0389842 -0.0205486 0.479821
-0.0389465 -0.0213618 0.479497
-0.0388959 -0.0221714 0.479036
-0.0388493 -0.0229803 0.478619
-0.0388113 -0.0237896 0.478291
-0.0387603 -0.0245947 0.477827
-0.0387097 -0.0253982 0.477365
-0.0386773 -0.0262052 0.477095
-0.0386462 -0.0270116 0.476839
-0.0386258 -0.0278205 0.476698
-0.0386201 -0.0286337 0.476711
-0.0386193 -0.0294484 0.476773
-0.0386041 -0.0302583 0.476684
-0.0385867 -0.031067 0.476576
-0.0385643 -0.0318732 0.476409
-0.0385424 -0.0326792 0.476255
-0.0385184 -0.0334834 0.476069
-0.0385076 -0.0342931 0.476029
-0.0384963 -0.0351026 0.475986
-0.0384855 -0.035912 0.475945
-0.0384755 -0.0367214 0.475908
-0.0384695 -0.0375329 0.475918
-0.0384683 -0.0383471 0.475979
-0.0384726 -0.0391646 0.476097
-0.0384778 -0.039983 0.476228
-0.0384972 -0.04081 0.476504
-0.0385169 -0.0416382 0.476786
-0.0385552 -0.0424794 0.477269
-0.0386 -0.0433259 0.477813
-0.0386408 -0.0441718 0.47832
-0.0386702 -0.0450118 0.478709
-0.0387026 -0.0458547 0.479123
-0.0387443 -0.0467061 0.479642
-0.0387958 -0.047566 0.480258
-0.0388584 -0.0484369 0.481
-0.0389289 -0.0493161 0.481821
-0.0390111 -0.050207 0.482764
-0.0390655 -0.0510789 0.483416
-0.039097 -0.0519339 0.483825
-0.0391202 -0.0527834 0.484148
-0.039165 -0.0536525 0.484697
-0.0391999 -0.0545147 0.485144
-0.0392598 -0.0554007 0.485851
-0.039358 -0.0563248 0.486974
-0.0394964 -0.0572895 0.488516
-0.0396229 -0.0582488 0.489939
-0.0397452 -0.0592081 0.49131
-0.0398435 -0.0601486 0.492429
-0.0399122 -0.0610633 0.49324
-0.0399415 -0.0619399 0.493627
-0.0399518 -0.0627973 0.493809
-0.0399615 -0.0636557 0.493991
-0.0399474 -0.0644889 0.493917
-0.0399204 -0.0653073 0.493707
-0.0398911 -0.0661223 0.493468
-0.0414551 -0.0686406 0.50121
-0.0406722 -0.067856 0.501862
-0.0387326 0.0033374 0.483707
-0.0386984 0.00250197 0.483416
-0.0386437 0.00166068 0.482904
-0.0385776 0.000817663 0.482272
-0.0385192 -2.10532e-05 0.48172
-0.0384565 -0.000858907 0.481127
-0.0383967 -0.00169411 0.48056
-0.0383653 -0.00252041 0.480299
-0.038326 -0.00334758 0.479953
-0.0382946 -0.00417191 0.479693
-0.038263 -0.00499545 0.479425
-0.0382404 -0.00581642 0.47926
-0.0382112 -0.00663789 0.479019
-0.0382048 -0.00745538 0.479025
-0.0381943 -0.00827334 0.478988
-0.0381883 -0.00909069 0.478997
-0.0381822 -0.00990806 0.479007
-0.0381994 -0.0107239 0.479265
-0.0382186 -0.0115405 0.479549
-0.03824 -0.012358 0.479849
-0.0382596 -0.0131765 0.480133
-0.0382763 -0.0139959 0.480392
-0.0382702 -0.0148155 0.480402
-0.0382686 -0.0156353 0.480458
-0.0382674 -0.0164553 0.480519
-0.0382666 -0.0172755 0.480581
-0.0382608 -0.0180954 0.480595
-0.03825 -0.0189147 0.480553
-0.0382195 -0.0197313 0.480305
-0.0381835 -0.020546 0.479992
-0.038142 -0.0213587 0.479619
-0.0380871 -0.0221677 0.479105
-0.0380368 -0.0229757 0.478636
-0.0379949 -0.0237841 0.47826
-0.0379404 -0.0245882 0.477749
-0.0378899 -0.0253916 0.477284
-0.0378578 -0.0261984 0.477009
-0.0378268 -0.0270047 0.476753
-0.0377983 -0.0278108 0.47652
-0.0377879 -0.0286221 0.476479
-0.0377772 -0.0294332 0.476438
-0.0377524 -0.0302389 0.476245
-0.0377263 -0.0310434 0.476039
-0.0376987 -0.0318467 0.475819
-0.0376723 -0.0326496 0.475609
-0.0376476 -0.0334524 0.475415
-0.0376413 -0.0342632 0.475421
-0.0376356 -0.0350742 0.475434
-0.0376344 -0.0358874 0.475495
-0.0376332 -0.0367007 0.475555
-0.0376312 -0.0375141 0.47561
-0.03763 -0.0383277 0.47567
-0.0376339 -0.0391445 0.475787
-0.0376388 -0.0399623 0.475913
-0.0376621 -0.0407916 0.476238
-0.0376864 -0.0416226 0.476574
-0.0377249 -0.0424639 0.477064
-0.0377688 -0.0433105 0.477615
-0.0378128 -0.0441589 0.478165
-0.0378333 -0.0449924 0.478459
-0.0378596 -0.0458313 0.478817
-0.0378855 -0.0466712 0.479172
-0.0379193 -0.0475179 0.47961
-0.0379682 -0.0483781 0.480217
-0.0380417 -0.0492593 0.481083
-0.0381195 -0.0501471 0.482
-0.0381848 -0.0510277 0.482781
-0.0382201 -0.0518855 0.483238
-0.0382378 -0.0527297 0.483506
-0.038267 -0.0535849 0.483898
-0.0382861 -0.0544321 0.484178
-0.0383279 -0.055301 0.484704
-0.038408 -0.0562077 0.485647
-0.0385283 -0.0571561 0.487028
-0.0386682 -0.0581277 0.488615
-0.0388106 -0.0591073 0.490232
-0.0389306 -0.0600698 0.491608
-0.0394089 -0.0614041 0.496859
-0.0387572 0.0041701 0.483896
-0.0379666 0.00501432 0.484182
-0.0379293 0.0041754 0.483848
-0.037902 0.00334169 0.483629
-0.0378588 0.00250286 0.483233
-0.0377979 0.00165945 0.482645
-0.037723 0.000813584 0.481905
-0.0376659 -2.44166e-05 0.481359
-0.0376093 -0.000860335 0.48082
-0.0375557 -0.00169371 0.480308
-0.0375251 -0.00251956 0.480052
-0.0374905 -0.00334547 0.47975
-0.0374603 -0.00416938 0.479496
-0.037429 -0.00499258 0.479233
-0.0374121 -0.0058124 0.479122
-0.0373877 -0.00663302 0.478931
-0.0373817 -0.00745036 0.47894
-0.0373756 -0.00826774 0.47895
-0.0373696 -0.00908509 0.478959
-0.0373635 -0.00990246 0.478969
-0.0373803 -0.0107183 0.479228
-0.0374033 -0.0115347 0.479559
-0.0374285 -0.0123522 0.47991
-0.0374524 -0.0131708 0.480247
-0.0374739 -0.0139904 0.480556
-0.0374722 -0.0148105 0.480614
-0.037471 -0.0156307 0.480674
-0.0374699 -0.0164512 0.480741
-0.0374693 -0.0172719 0.48081
-0.0374596 -0.0180917 0.480778
-0.0374485 -0.0189114 0.480731
-0.0374183 -0.0197283 0.480477
-0.0373779 -0.0205427 0.480114
-0.0373409 -0.0213564 0.479786
-0.0372915 -0.0221665 0.47932
-0.0372377 -0.0229741 0.478804
-0.037192 -0.0237818 0.478379
-0.0371378 -0.024586 0.477861
-0.0370795 -0.0253874 0.477301
-0.0370429 -0.0261929 0.476977
-0.0370125 -0.0269992 0.476719
-0.0369799 -0.0278038 0.476432
-0.0369639 -0.0286132 0.476336
-0.0369477 -0.0294222 0.476236
-0.0369187 -0.0302259 0.475991
-0.036889 -0.0310284 0.475741
-0.0368584 -0.0318297 0.475477
-0.0368276 -0.0326301 0.475218
-0.0367983 -0.0334301 0.47497
-0.0367912 -0.0342399 0.47497
-0.0367863 -0.0350505 0.474989
-0.0367901 -0.0358657 0.475108
-0.0367935 -0.0366811 0.475222
-0.0367963 -0.0374964 0.475328
-0.0367948 -0.0383094 0.475384
-0.036798 -0.0391255 0.475494
-0.0368018 -0.0399423 0.475611
-0.0368191 -0.0407678 0.475877
-0.0368418 -0.0415977 0.476204
-0.0368794 -0.0424384 0.476692
-0.0369181 -0.0432812 0.477191
-0.0369567 -0.0441257 0.47769
-0.0369752 -0.044958 0.477974
-0.0369964 -0.0457925 0.478277
-0.0370079 -0.0466211 0.478481
-0.0370299 -0.0474584 0.478798
-0.0370717 -0.0483125 0.479337
-0.0371433 -0.0491921 0.480202
-0.0372217 -0.0500802 0.481141
-0.0372963 -0.0509681 0.482038
-0.0373412 -0.0518336 0.482608
-0.0373632 -0.0526808 0.482926
-0.0373864 -0.0535305 0.483261
-0.0373956 -0.0543678 0.483435
-0.0374205 -0.0552208 0.483786
-0.0374735 -0.0561016 0.484447
-0.0375647 -0.057022 0.485532
-0.0376777 -0.0579671 0.486852
-0.0382083 -0.0593378 0.492779
-0.0371148 0.0050098 0.483875
-0.0370794 0.00417222 0.483565
-0.0370534 0.00333909 0.483352
-0.0370095 0.00250017 0.482939
-0.0369492 0.00165708 0.482349
-0.0368755 0.000811527 0.481606
-0.0368234 -2.48108e-05 0.481104
-0.0367729 -0.000858814 0.480624
-0.0367205 -0.0016918 0.48012
-0.0366905 -0.00251744 0.47986
-0.0366598 -0.00334228 0.479596
-0.03663 -0.00416601 0.479343
-0.0365999 -0.00498887 0.479088
-0.0365881 -0.00580761 0.479033
-0.0365685 -0.00662741 0.478893
-0.0365625 -0.00744475 0.478902
-0.0365609 -0.00826159 0.478959
-0.0365552 -0.00907901 0.478972
-0.0365491 -0.00989643 0.478984
-0.0365699 -0.0107121 0.479288
-0.0365972 -0.0115285 0.47967
-0.0366229 -0.0123461 0.480033
-0.0366512 -0.0131649 0.480428
-0.0366769 -0.013985 0.48079
-0.0366756 -0.0148055 0.480851
-0.0366743 -0.0156263 0.480913
-0.0366736 -0.0164472 0.480983
-0.0366736 -0.0172684 0.48106
-0.0366635 -0.0180888 0.481025
-0.0366472 -0.0189083 0.480924
-0.0366166 -0.0197253 0.480657
-0.0365765 -0.02054 0.480287
-0.0365364 -0.0213535 0.479917
-0.0364875 -0.0221638 0.47945
-0.0364343 -0.0229717 0.478933
-0.0363845 -0.0237786 0.478453
-0.0363266 -0.0245817 0.477884
-0.0362682 -0.025383 0.477313
-0.0362278 -0.0261873 0.476939
-0.0361979 -0.0269936 0.476681
-0.036161 -0.0277967 0.476343
-0.0361402 -0.0286043 0.476188
-0.0361183 -0.0294109 0.476022
-0.0360891 -0.030214 0.475771
-0.0360562 -0.0310149 0.47548
-0.036027 -0.0318161 0.475229
-0.0359968 -0.0326162 0.474968
-0.0359666 -0.0334153 0.474707
-0.0359551 -0.0342226 0.474658
-0.0359546 -0.0350349 0.474726
-0.035964 -0.0358527 0.47491
-0.0359729 -0.0366707 0.475084
-0.0359803 -0.0374885 0.475244
-0.0359783 -0.0383015 0.4753
-0.0359768 -0.0391146 0.475356
-0.0359751 -0.0399281 0.475416
-0.0359829 -0.0407476 0.475579
-0.0359958 -0.0415709 0.475799
-0.0360226 -0.0424044 0.476178
-0.0360506 -0.0432397 0.476567
-0.0360784 -0.0440764 0.476957
-0.0360922 -0.0449042 0.47719
-0.0361039 -0.0457312 0.477399
-0.0361065 -0.0465514 0.477499
-0.0361184 -0.04738 0.477715
-0.0361552 -0.0482284 0.478199
-0.0362165 -0.049099 0.478966
-0.036298 -0.0499891 0.479959
-0.0363846 -0.0508866 0.481006
-0.0364467 -0.0517661 0.481777
-0.0364824 -0.0526251 0.482259
-0.0365194 -0.0534862 0.482748
-0.0365316 -0.0543265 0.482967
-0.0365463 -0.0551695 0.48321
-0.0365782 -0.0560298 0.483643
-0.0366411 -0.0569225 0.484428
-0.0367235 -0.0578372 0.48543
-0.0362419 0.00499611 0.483327
-0.0362136 0.00416183 0.483084
-0.0361874 0.00332924 0.482865
-0.036142 0.00249027 0.48243
-0.036087 0.00164957 0.48189
-0.0360234 0.000807756 0.481249
-0.0359781 -2.62245e-05 0.480813
-0.0359381 -0.000857088 0.480437
-0.035891 -0.00168854 0.479985
-0.0358648 -0.00251311 0.479765
-0.0358342 -0.00333797 0.479497
-0.0358047 -0.00416168 0.479239
-0.0357761 -0.00498426 0.478994
-0.0357687 -0.00580208 0.478991
-0.0357499 -0.0066218 0.478855
-0.0357483 -0.00743856 0.478912
-0.0357509 -0.00825488 0.479023
-0.0357503 -0.00907194 0.479091
-0.035749 -0.00988923 0.479154
-0.035773 -0.010705 0.479508
-0.0358006 -0.0115217 0.479896
-0.035826 -0.0123398 0.480265
-0.0358597 -0.013159 0.480721
-0.0358854 -0.0139796 0.481094
-0.0358839 -0.0148008 0.481158
-0.0358822 -0.015622 0.481218
-0.0358809 -0.0164435 0.48128
-0.0358758 -0.0172649 0.481302
-0.0358658 -0.0180857 0.481264
-0.0358453 -0.0189051 0.48111
-0.0358145 -0.0197224 0.480837
-0.0357745 -0.0205374 0.480464
-0.0357353 -0.0213513 0.480095
-0.0356877 -0.0221621 0.479634
-0.0356358 -0.0229705 0.479122
-0.0355815 -0.0237765 0.478584
-0.0355185 -0.0245785 0.477948
-0.0354567 -0.0253785 0.477321
-0.0354125 -0.0261816 0.476896
-0.035383 -0.0269879 0.47664
-0.0353427 -0.0277896 0.476255
-0.0353172 -0.0285954 0.476046
-0.0352904 -0.0293999 0.47582
-0.035257 -0.030201 0.475518
-0.0352206 -0.0309998 0.475179
-0.0351919 -0.0318007 0.474929
-0.0351617 -0.0326002 0.474668
-0.0351321 -0.0333989 0.474405
-0.0351208 -0.0342056 0.474352
-0.0351201 -0.0350176 0.474424
-0.0351298 -0.0358352 0.474613
-0.0351429 -0.0366553 0.47484
-0.0351509 -0.0374732 0.475009
-0.0351536 -0.0382885 0.475117
-0.0351515 -0.0391015 0.475174
-0.03515 -0.0399146 0.475232
-0.0351486 -0.0407282 0.475295
-0.0351517 -0.0415449 0.475407
-0.0351593 -0.0423651 0.475574
-0.0351764 -0.0431922 0.475845
-0.0351944 -0.044021 0.476128
-0.0352031 -0.044844 0.476306
-0.0352144 -0.0456694 0.476514
-0.035225 -0.046495 0.476714
-0.0352375 -0.0473225 0.476931
-0.0352771 -0.0481731 0.477464
-0.0353327 -0.0490387 0.478178
-0.0354153 -0.0499298 0.479201
-0.0354996 -0.0508256 0.480243
-0.0355663 -0.051709 0.48108
-0.0356075 -0.0525723 0.48163
-0.0356541 -0.0534425 0.482243
-0.0356669 -0.0542829 0.482472
-0.0356771 -0.0551211 0.482668
-0.0356941 -0.0559665 0.482938
-0.0357269 -0.0568292 0.483395
-0.0357751 -0.0577088 0.484025
-0.0353317 0.00496501 0.482321
-0.0353136 0.00413654 0.482192
-0.0352995 0.00331007 0.48211
-0.0352639 0.00247587 0.481782
-0.0352202 0.00163973 0.481355
-0.035168 0.000802187 0.480833
-0.0351326 -2.81722e-05 0.480503
-0.0350987 -0.000856854 0.480194
-0.0350573 -0.00168659 0.479796
-0.0350319 -0.00251086 0.479581
-0.0350054 -0.00333449 0.479357
-0.0349763 -0.00415801 0.479101
-0.0349527 -0.00497955 0.478905
-0.03495 -0.00579648 0.478953
-0.0349395 -0.00661475 0.478915
-0.0349425 -0.00743098 0.479028
-0.0349505 -0.00824691 0.479198
-0.0349541 -0.00906383 0.479321
-0.0349538 -0.00988148 0.479394
-0.0349773 -0.0106977 0.479749
-0.0350083 -0.0115147 0.480185
-0.0350338 -0.0123333 0.480562
-0.0350709 -0.013153 0.481066
-0.0350964 -0.0139743 0.481442
-0.035099 -0.0147962 0.481551
-0.0350925 -0.0156179 0.48156
-0.0350906 -0.01644 0.481613
-0.0350801 -0.0172615 0.481574
-0.0350697 -0.0180829 0.481533
-0.0350414 -0.0189018 0.481283
-0.035011 -0.0197195 0.481013
-0.0349716 -0.0205348 0.480637
-0.0349329 -0.021349 0.480271
-0.0348869 -0.0221604 0.479819
-0.0348393 -0.0229699 0.479345
-0.0347821 -0.0237754 0.47876
-0.0347151 -0.0245764 0.478066
-0.034649 -0.0253751 0.477376
-0.034601 -0.0261772 0.476902
-0.0345685 -0.0269823 0.476601
-0.0345286 -0.0277841 0.476218
-0.0344997 -0.0285884 0.475961
-0.034469 -0.0293912 0.475686
-0.0344355 -0.0301918 0.475375
-0.0343945 -0.0309885 0.474983
-0.0343619 -0.0317873 0.474684
-0.034328 -0.0325845 0.47437
-0.0342909 -0.0333789 0.474017
-0.0342674 -0.0341788 0.47382
-0.0342576 -0.0349855 0.473789
-0.034262 -0.0357992 0.473917
-0.0342753 -0.0366185 0.47415
-0.0342916 -0.0374402 0.474416
-0.0343028 -0.0382599 0.474629
-0.0343098 -0.0390774 0.474788
-0.0343128 -0.039893 0.474899
-0.0343107 -0.0407058 0.474957
-0.0343088 -0.0415185 0.475011
-0.0343064 -0.0423314 0.475065
-0.034313 -0.0431508 0.475221
-0.0343249 -0.0439744 0.475438
-0.0343331 -0.0447962 0.475616
-0.0343447 -0.0456209 0.475829
-0.0343599 -0.0464492 0.476085
-0.034376 -0.0472792 0.476353
-0.0344154 -0.0481293 0.476891
-0.0344688 -0.0489928 0.477588
-0.0345448 -0.0498787 0.478555
-0.0346254 -0.050772 0.479576
-0.0346955 -0.051659 0.480473
-0.0347421 -0.0525271 0.481096
-0.0347939 -0.0534024 0.48178
-0.0348156 -0.0542507 0.482115
-0.0348301 -0.0550928 0.482362
-0.0348464 -0.055938 0.482636
-0.0348577 -0.0567782 0.482843
-0.0348763 -0.0576275 0.483143
-0.0344309 0.00493677 0.481391
-0.0344198 0.00411272 0.481342
-0.0344124 0.00329027 0.481337
-0.0343833 0.00245959 0.481078
-0.0343495 0.00162791 0.480758
-0.0343075 0.000794627 0.480349
-0.0342787 -3.30818e-05 0.480087
-0.0342507 -0.000859518 0.479839
-0.0342184 -0.00168628 0.479542
-0.0341941 -0.00250995 0.479336
-0.0341728 -0.00333208 0.479168
-0.0341532 -0.00415332 0.479016
-0.0341378 -0.00497305 0.478918
-0.0341401 -0.00578913 0.479024
-0.0341387 -0.00660611 0.479088
-0.0341463 -0.00742198 0.479256
-0.034154 -0.00823829 0.479433
-0.0341586 -0.00905556 0.479566
-0.0341579 -0.00987371 0.479638
-0.0341817 -0.0106903 0.479998
-0.0342156 -0.0115076 0.48048
-0.0342444 -0.0123267 0.480898
-0.0342842 -0.013147 0.481453
-0.0343133 -0.013969 0.481875
-0.0343201 -0.0147918 0.482037
-0.034309 -0.0156142 0.48199
-0.0343023 -0.0164367 0.48199
-0.034283 -0.0172582 0.481844
-0.0342679 -0.0180795 0.481749
-0.0342319 -0.0188978 0.481401
-0.034202 -0.0197158 0.48113
-0.0341635 -0.0205314 0.480757
-0.0341301 -0.0213467 0.480442
-0.034085 -0.0221585 0.479992
-0.0340386 -0.0229684 0.479526
-0.0339773 -0.0237732 0.478886
-0.0339073 -0.0245732 0.478137
-0.0338382 -0.0253711 0.477399
-0.0337866 -0.0261718 0.476871
-0.0337539 -0.0269768 0.476565
-0.0337188 -0.02778 0.47623
-0.0336907 -0.0285845 0.475979
-0.033661 -0.0293875 0.475707
-0.0336236 -0.0301865 0.475345
-0.0335782 -0.030981 0.474893
-0.0335374 -0.0317757 0.474486
-0.0334957 -0.0325688 0.474077
-0.0334509 -0.0333588 0.473623
-0.0334182 -0.0341534 0.473316
-0.033399 -0.0349541 0.473171
-0.0333938 -0.0357618 0.473187
-0.0334056 -0.0365792 0.473406
-0.0334181 -0.0373978 0.473635
-0.0334345 -0.0382195 0.47391
-0.0334496 -0.0390413 0.474171
-0.0334614 -0.0398618 0.474391
-0.0334603 -0.0406744 0.474461
-0.0334579 -0.0414863 0.474513
-0.03345 -0.0422944 0.474499
-0.0334473 -0.0431062 0.474547
-0.0334506 -0.0439226 0.474665
-0.0334594 -0.0447437 0.47485
-0.0334711 -0.0455678 0.475072
-0.0334944 -0.0464016 0.475429
-0.0335191 -0.0472377 0.475799
-0.0335617 -0.0480906 0.476389
-0.0336139 -0.0489535 0.477089
-0.0336913 -0.0498414 0.478093
-0.0337661 -0.0507301 0.479063
-0.0338341 -0.0516155 0.479949
-0.0338832 -0.0524863 0.480616
-0.0339383 -0.0533649 0.481352
-0.0339648 -0.0542178 0.481747
-0.0339824 -0.055063 0.482039
-0.0339989 -0.0559084 0.48232
-0.0340103 -0.0567487 0.482534
-0.0340091 -0.0575767 0.482602
-0.0335444 0.00573156 0.480515
-0.0335432 0.00491322 0.480584
-0.033532 0.00409021 0.480529
-0.0335215 0.00326794 0.48049
-0.0334976 0.00244042 0.480286
-0.0334695 0.00161196 0.48003
-0.033437 0.000782952 0.479725
-0.0334172 -4.08402e-05 0.479568
-0.0333977 -0.000864019 0.479415
-0.0333751 -0.00168743 0.479228
-0.0333596 -0.00250841 0.479121
-0.0333479 -0.00332786 0.479064
-0.0333373 -0.00414693 0.479019
-0.0333319 -0.00496465 0.479036
-0.033339 -0.00578 0.479203
-0.0333421 -0.00659656 0.479325
-0.0333542 -0.00741213 0.479551
-0.0333659 -0.00822847 0.479775
-0.0333741 -0.00904595 0.479953
-0.0333768 -0.00986448 0.480071
-0.0334036 -0.0106816 0.480475
-0.0334331 -0.0115 0.480912
-0.0334573 -0.0123199 0.481283
-0.0334926 -0.013141 0.481792
-0.0335165 -0.0139636 0.482161
-0.0335231 -0.0147869 0.482327
-0.0335128 -0.01561 0.482283
-0.0335064 -0.016433 0.48229
-0.0334865 -0.017255 0.482134
-0.0334709 -0.0180768 0.482028
-0.0334303 -0.018895 0.481623
-0.0334006 -0.0197134 0.48135
-0.0333627 -0.0205294 0.480975
-0.0333261 -0.0213444 0.480617
-0.0332778 -0.0221558 0.480116
-0.0332281 -0.022965 0.479599
-0.0331641 -0.0237688 0.478908
-0.0330914 -0.024568 0.478116
-0.0330227 -0.0253657 0.477371
-0.0329717 -0.0261664 0.47684
-0.0329396 -0.0269713 0.476531
-0.032909 -0.0277759 0.476244
-0.0328821 -0.0285808 0.476
-0.0328495 -0.0293827 0.475689
-0.0328038 -0.0301781 0.475222
-0.0327507 -0.0309685 0.474662
-0.0326975 -0.0317571 0.474103
-0.032648 -0.0325454 0.473584
-0.0325985 -0.033332 0.473069
-0.0325607 -0.0341229 0.472696
-0.0325362 -0.0349195 0.472479
-0.0325252 -0.0357231 0.472431
-0.0325324 -0.0365368 0.472598
-0.0325412 -0.037352 0.472784
-0.0325571 -0.0381723 0.47306
-0.0325773 -0.0389962 0.473385
-0.0325936 -0.0398185 0.473662
-0.0325974 -0.0406334 0.473791
-0.0325996 -0.0414475 0.4739
-0.0325919 -0.042255 0.473892
-0.032585 -0.0430626 0.473887
-0.0325876 -0.0438775 0.474
-0.032596 -0.0446974 0.474183
-0.0326165 -0.0455276 0.474513
-0.0326519 -0.0463712 0.475025
-0.0326883 -0.0472174 0.47555
-0.032735 -0.0480739 0.476194
-0.032791 -0.0489409 0.476955
-0.032859 -0.0498216 0.477864
-0.0329242 -0.0507023 0.478735
-0.0329844 -0.0515816 0.479549
-0.0330318 -0.0524511 0.480207
-0.0330847 -0.0533285 0.480935
-0.0331185 -0.0541885 0.481425
-0.0331401 -0.055038 0.481772
-0.0331609 -0.0558875 0.482105
-0.0331759 -0.0567324 0.482374
-0.03318 -0.0575656 0.482504
-0.0326747 0.00571411 0.479895
-0.0326687 0.00489448 0.479905
-0.0326584 0.00407299 0.479862
-0.0326442 0.00324992 0.47977
-0.0326247 0.00242521 0.479617
-0.0326049 0.0016009 0.479458
-0.0325769 0.0007742 0.479201
-0.0325613 -4.74377e-05 0.479095
-0.0325464 -0.000868371 0.478996
-0.0325327 -0.00168875 0.478907
-0.032522 -0.0025078 0.478863
-0.0325195 -0.00332461 0.478916
-0.0325181 -0.00414129 0.478981
-0.0325218 -0.00495702 0.479112
-0.0325341 -0.0057715 0.479345
-0.0325417 -0.0065875 0.479524
-0.0325604 -0.00740234 0.479839
-0.032572 -0.00821922 0.480063
-0.0325876 -0.00903637 0.480337
-0.032595 -0.00985519 0.480509
-0.0326251 -0.0106728 0.480964
-0.0326538 -0.011492 0.481404
-0.0326811 -0.0123128 0.481822
-0.0327119 -0.0131348 0.482282
-0.0327355 -0.0139583 0.482656
-0.0327456 -0.0147827 0.482869
-0.0327363 -0.0156067 0.482838
-0.0327303 -0.0164308 0.482846
-0.0327072 -0.0172534 0.482648
-0.0326824 -0.0180751 0.482432
-0.0326335 -0.0188928 0.481909
-0.0325997 -0.0197111 0.481579
-0.0325545 -0.0205262 0.481108
-0.0325184 -0.0213415 0.480751
-0.03247 -0.0221529 0.48024
-0.0324164 -0.0229613 0.479664
-0.0323528 -0.0237652 0.478965
-0.0322848 -0.0245655 0.478215
-0.0322148 -0.0253625 0.477433
-0.0321647 -0.0261634 0.476903
-0.0321363 -0.0269697 0.476637
-0.0321065 -0.0277746 0.476354
-0.0320768 -0.0285785 0.47607
-0.0320409 -0.029379 0.475711
-0.0319835 -0.0301692 0.475088
-0.031918 -0.0309536 0.474364
-0.0318526 -0.0317354 0.473638
-0.0317956 -0.0325191 0.473019
-0.0317424 -0.0333026 0.47245
-0.0317093 -0.0340943 0.47212
-0.0316812 -0.0348881 0.471859
-0.0316668 -0.0356885 0.471763
-0.0316689 -0.0364985 0.471875
-0.0316728 -0.0373096 0.472001
-0.0316839 -0.0381261 0.472227
-0.0317031 -0.0389481 0.472542
-0.0317192 -0.0397694 0.472824
-0.0317242 -0.0405838 0.472971
-0.031727 -0.0413972 0.473089
-0.0317204 -0.0422039 0.47309
-0.0317167 -0.0430128 0.473127
-0.0317231 -0.0438296 0.473288
-0.0317352 -0.0446518 0.473525
-0.0317668 -0.0454905 0.474
-0.0318144 -0.046344 0.474668
-0.0318595 -0.047198 0.475313
-0.0319145 -0.0480625 0.476075
-0.0319846 -0.0489434 0.477027
-0.0320477 -0.0498207 0.477889
-0.0321029 -0.0506937 0.478656
-0.0321565 -0.0515675 0.479403
-0.0321972 -0.0524317 0.479996
-0.0322379 -0.0532971 0.480582
-0.0322714 -0.0541573 0.481079
-0.0322967 -0.0550107 0.481478
-0.0323169 -0.0558597 0.481811
-0.0323314 -0.0567042 0.48208
-0.0323343 -0.0575364 0.482203
-0.0318266 0.0057063 0.47952
-0.0318163 0.00488527 0.479477
-0.0318035 0.00406314 0.479399
-0.0317808 0.0032373 0.479205
-0.0317615 0.00241323 0.479046
-0.0317417 0.00158984 0.478888
-0.0317149 0.000764237 0.478637
-0.0317002 -5.63948e-05 0.478534
-0.0316896 -0.000875116 0.478488
-0.0316839 -0.0016922 0.478502
-0.0316785 -0.00250917 0.47852
-0.0316844 -0.0033232 0.47868
-0.0316949 -0.00413659 0.478898
-0.0317074 -0.00495026 0.479138
-0.0317238 -0.00576396 0.479426
-0.0317386 -0.00657876 0.479702
-0.0317608 -0.00739338 0.480064
-0.0317723 -0.00821066 0.480292
-0.0317886 -0.0090281 0.480581
-0.0317966 -0.00984729 0.480763
-0.0318306 -0.0106651 0.481278
-0.0318665 -0.0114844 0.481817
-0.0319016 -0.0123056 0.48234
-0.031935 -0.0131286 0.482846
-0.0319658 -0.0139531 0.483318
-0.0319798 -0.0147788 0.483578
-0.0319712 -0.0156041 0.483555
-0.0319618 -0.0164293 0.483525
-0.0319346 -0.0172527 0.483272
-0.0319013 -0.0180745 0.482941
-0.0318442 -0.0188919 0.482309
-0.0318022 -0.0197095 0.481868
-0.0317498 -0.0205238 0.481298
-0.0317099 -0.0213386 0.48088
-0.031658 -0.0221492 0.480312
-0.0316002 -0.0229567 0.479674
-0.0315334 -0.0237595 0.478921
-0.0314673 -0.0245598 0.478174
-0.0313987 -0.0253569 0.477395
-0.03135 -0.0261579 0.476869
-0.0313223 -0.0269644 0.476608
-0.0312965 -0.0277707 0.476372
-0.0312673 -0.0285747 0.476089
-0.0312206 -0.0293706 0.475587
-0.031155 -0.0301565 0.474843
-0.0310803 -0.0309358 0.473988
-0.031003 -0.0317111 0.473101
-0.03094 -0.0324902 0.472391
-0.0308924 -0.0332751 0.471877
-0.0308578 -0.034065 0.471525
-0.0308311 -0.0348583 0.471276
-0.0308171 -0.0356581 0.471185
-0.0308158 -0.0364649 0.471249
-0.0308182 -0.0372744 0.471364
-0.0308276 -0.0380889 0.47157
-0.0308418 -0.0389069 0.471828
-0.0308524 -0.0397237 0.472052
-0.0308604 -0.0405391 0.472235
-0.0308635 -0.0413515 0.472357
-0.030861 -0.0421602 0.472412
-0.0308583 -0.0429689 0.472463
-0.0308681 -0.0437875 0.47267
-0.0308799 -0.0446084 0.472902
-0.0309188 -0.0454532 0.473483
-0.0309747 -0.046314 0.474271
-0.0310327 -0.0471794 0.475089
-0.0310946 -0.048051 0.475954
-0.0311748 -0.0489424 0.477052
-0.0312321 -0.0498158 0.477861
-0.0312775 -0.0506807 0.478522
-0.0313248 -0.0515495 0.479206
-0.0313559 -0.0524046 0.479689
-0.0313924 -0.0532662 0.480231
-0.0314294 -0.0541305 0.480785
-0.0314625 -0.0549924 0.481291
-0.031486 -0.0558455 0.481674
-0.0315109 -0.0567019 0.482081
-0.0315136 -0.0575337 0.482199
-0.0309945 0.00570587 0.479329
-0.030981 0.00488351 0.479245
-0.0309611 0.00405843 0.479078
-0.0309308 0.00322949 0.47878
-0.0309081 0.00240454 0.478575
-0.0308849 0.00158029 0.478367
-0.0308586 0.000755582 0.478119
-0.0308442 -6.4091e-05 0.47802
-0.0308379 -0.000880651 0.478025
-0.0308366 -0.00169558 0.478098
-0.0308397 -0.00250956 0.478221
-0.03085 -0.00332186 0.47844
-0.0308715 -0.00413201 0.478806
-0.0308913 -0.00494387 0.479144
-0.0309112 -0.00575675 0.479488
-0.03093 -0.00657099 0.479813
-0.0309554 -0.00738518 0.480227
-0.030967 -0.00820271 0.480462
-0.0309878 -0.00901995 0.48081
-0.0310031 -0.00983878 0.481099
-0.0310417 -0.0106568 0.48168
-0.0310817 -0.0114766 0.482276
-0.0311244 -0.0122984 0.48291
-0.0311616 -0.0131222 0.483477
-0.0311964 -0.013948 0.484007
-0.0312102 -0.0147749 0.484271
-0.0312046 -0.0156016 0.484292
-0.0311949 -0.016428 0.484258
-0.0311642 -0.0172523 0.483949
-0.0311269 -0.0180748 0.48356
-0.0310691 -0.0188931 0.482908
-0.0310195 -0.0197104 0.482357
-0.0309559 -0.0205234 0.481632
-0.0309078 -0.021337 0.481102
-0.0308483 -0.0221462 0.480424
-0.03078 -0.022951 0.479636
-0.0307109 -0.0237528 0.478833
-0.0306494 -0.0245542 0.478132
-0.0305824 -0.0253514 0.47736
-0.0305354 -0.0261527 0.476844
-0.0305118 -0.0269603 0.476625
-0.0304827 -0.0277653 0.476339
-0.03045 -0.0285678 0.476009
-0.0303922 -0.0293586 0.475352
-0.0303152 -0.0301386 0.474446
-0.0302324 -0.0309129 0.473468
-0.0301479 -0.0316832 0.472472
-0.0300792 -0.032458 0.471675
-0.030042 -0.0332465 0.471279
-0.0300162 -0.0340402 0.471035
-0.0299953 -0.0348355 0.470849
-0.029989 -0.0356391 0.470855
-0.0299907 -0.0364475 0.470963
-0.0299857 -0.037252 0.470986
-0.029991 -0.0380632 0.471137
-0.0299959 -0.0388748 0.471288
-0.0300014 -0.0396873 0.471447
-0.0300044 -0.0404983 0.471571
-0.0300069 -0.0413092 0.471685
-0.0300044 -0.042117 0.471741
-0.0300055 -0.0429275 0.47184
-0.0300151 -0.0437455 0.472053
-0.0300309 -0.0445691 0.472341
-0.0300805 -0.0454225 0.473066
-0.030147 -0.0462933 0.47401
-0.0302159 -0.0471696 0.47499
-0.0302848 -0.048049 0.475967
-0.030363 -0.0489404 0.477064
-0.0304152 -0.04981 0.47782
-0.0304473 -0.050663 0.478325
-0.0304814 -0.0515195 0.478854
-0.0305038 -0.0523654 0.47923
-0.030535 -0.0532221 0.479721
-0.030568 -0.0540819 0.48023
-0.0306046 -0.0549478 0.480793
-0.0306281 -0.0558009 0.481185
-0.0306532 -0.0566572 0.481599
-0.030659 -0.0574922 0.48176
-0.0301553 0.00570183 0.479049
-0.0301372 0.00487739 0.478898
-0.0301128 0.00405069 0.478672
-0.0300791 0.00322033 0.478317
-0.0300526 0.00239443 0.478059
-0.0300258 0.00156927 0.477798
-0.0299995 0.000745412 0.477548
-0.0299857 -7.33378e-05 0.47745
-0.029983 -0.000887664 0.477508
-0.0299856 -0.00170052 0.47763
-0.0299964 -0.00251128 0.477861
-0.0300148 -0.00332088 0.478185
-0.0300442 -0.00412858 0.478657
-0.0300671 -0.0049393 0.479048
-0.0300908 -0.00575121 0.479444
-0.0301127 -0.0065647 0.479823
-0.0301422 -0.00737823 0.480293
-0.0301575 -0.00819532 0.480582
-0.0301849 -0.00901188 0.48103
-0.0302078 -0.00983036 0.48142
-0.030253 -0.0106483 0.482101
-0.0302973 -0.0114686 0.482769
-0.0303515 -0.0122908 0.483564
-0.0303972 -0.0131158 0.484256
-0.030436 -0.0139429 0.484853
-0.03045 -0.0147712 0.485124
-0.0304478 -0.0155996 0.485183
-0.0304294 -0.016427 0.485038
-0.0303913 -0.0172519 0.484624
-0.0303501 -0.0180751 0.484175
-0.0302893 -0.0188939 0.483468
-0.0302291 -0.0197104 0.482767
-0.0301578 -0.0205225 0.481924
-0.0301013 -0.0213348 0.481277
-0.0300342 -0.0221424 0.480485
-0.0299637 -0.0229463 0.479646
-0.029896 -0.0237483 0.478845
-0.0298393 -0.0245509 0.478195
-0.0297738 -0.0253483 0.477426
-0.0297275 -0.0261496 0.476904
-0.0297005 -0.0269561 0.476639
-0.0296678 -0.0277595 0.476297
-0.0296277 -0.0285589 0.475862
-0.02956 -0.0293446 0.475056
-0.0294758 -0.0301204 0.47404
-0.029386 -0.03089 0.472949
-0.0293042 -0.0316599 0.471962
-0.0292411 -0.032436 0.471219
-0.0292158 -0.0332301 0.470976
-0.0291981 -0.0340275 0.470831
-0.0291846 -0.0348268 0.470739
-0.0291818 -0.0356323 0.47079
-0.0291807 -0.0364389 0.470861
-0.0291756 -0.0372434 0.470886
-0.0291773 -0.0380523 0.470995
-0.0291744 -0.0388585 0.471047
-0.0291725 -0.0396651 0.471103
-0.0291702 -0.0404722 0.471166
-0.0291684 -0.0412794 0.471228
-0.029166 -0.0420864 0.471283
-0.0291673 -0.0428966 0.471387
-0.0291799 -0.0437168 0.471646
-0.0292023 -0.0445456 0.472025
-0.0292586 -0.0454057 0.472857
-0.0293248 -0.0462773 0.473819
-0.0294003 -0.0471602 0.474897
-0.0294711 -0.0480429 0.475922
-0.0295435 -0.0489305 0.476968
-0.0295868 -0.0497929 0.477629
-0.0296136 -0.050641 0.478073
-0.0296387 -0.0514883 0.478489
-0.0296512 -0.0523244 0.478747
-0.0296771 -0.0531754 0.479178
-0.0297053 -0.05403 0.479636
-0.029745 -0.0548996 0.480253
-0.0297724 -0.055757 0.480704
-0.0298018 -0.056618 0.48118
-0.0298079 -0.0574536 0.481355
-0.0293254 0.00651696 0.478787
-0.0293059 0.00569158 0.478612
-0.0292857 0.00486694 0.478439
-0.0292591 0.00403952 0.478172
-0.0292221 0.00320812 0.477766
-0.0291948 0.00238264 0.477494
-0.0291681 0.00155825 0.47723
-0.0291394 0.000733847 0.476932
-0.0291248 -8.40902e-05 0.476828
-0.0291222 -0.000897414 0.476886
-0.0291248 -0.00170927 0.477009
-0.0291393 -0.00251786 0.477293
-0.0291647 -0.00332432 0.47772
-0.0291981 -0.00412998 0.47826
-0.0292289 -0.00493819 0.478758
-0.0292591 -0.00574802 0.479257
-0.029285 -0.00656042 0.479692
-0.0293176 -0.0073731 0.480216
-0.0293366 -0.00818955 0.480559
-0.0293666 -0.0090057 0.48105
-0.0293926 -0.00982383 0.481494
-0.0294378 -0.0106419 0.482188
-0.0294997 -0.0114614 0.483105
-0.0295719 -0.0122834 0.484163
-0.0296341 -0.0131092 0.485086
-0.0296847 -0.0139379 0.485859
-0.0297059 -0.0147682 0.486229
-0.0296947 -0.0155981 0.486171
-0.0296641 -0.0164262 0.485858
-0.029611 -0.0172511 0.485236
-0.0295597 -0.018074 0.484643
-0.0294923 -0.0188926 0.483834
-0.0294182 -0.0197072 0.482927
-0.0293399 -0.020518 0.481968
-0.0292761 -0.0213286 0.481204
-0.0292052 -0.022135 0.48035
-0.0291362 -0.0229389 0.479511
-0.0290699 -0.0237407 0.478716
-0.0290151 -0.0245432 0.478068
-0.0289546 -0.0253417 0.477344
-0.0289091 -0.026143 0.476828
-0.028882 -0.0269492 0.476554
-0.0288492 -0.0277524 0.476204
-0.0288057 -0.0285498 0.475709
-0.0287308 -0.0293317 0.474793
-0.0286448 -0.0301054 0.473728
-0.0285539 -0.0308731 0.472595
-0.0284777 -0.0316445 0.471664
-0.0284201 -0.0324225 0.470979
-0.0284025 -0.0332202 0.470832
-0.0283888 -0.0340195 0.470735
-0.0283788 -0.0348207 0.470688
-0.0283762 -0.0356264 0.470746
-0.0283747 -0.036433 0.470815
-0.0283704 -0.0372377 0.470844
-0.0283716 -0.0380465 0.470953
-0.0283649 -0.0388501 0.470955
-0.0283595 -0.0396541 0.470965
-0.0283531 -0.040458 0.470974
-0.0283478 -0.0412624 0.470991
-0.0283418 -0.0420663 0.471
-0.0283425 -0.0428757 0.471099
-0.0283555 -0.0436956 0.47136
-0.0283805 -0.0445272 0.47179
-0.0284365 -0.0453876 0.472631
-0.0285014 -0.0462592 0.473597
-0.0285741 -0.0471414 0.47467
-0.0286427 -0.0480232 0.475687
-0.0287098 -0.0489069 0.476682
-0.0287512 -0.0497679 0.47733
-0.0287765 -0.0506146 0.477763
-0.0287962 -0.0514568 0.478119
-0.0288042 -0.0522878 0.478321
-0.0288245 -0.0531328 0.478685
-0.0288474 -0.0539815 0.479081
-0.0288821 -0.0548455 0.479642
-0.0289122 -0.0557064 0.480145
-0.0289453 -0.056572 0.480683
-0.0289563 -0.0574123 0.480919
-0.0298217 -0.0582987 0.481628
-0.0289698 -0.0582572 0.481197
-0.0284678 0.00568702 0.478318
-0.0284445 0.00486076 0.478092
-0.0284134 0.00403139 0.477757
-0.0283688 0.00319705 0.477248
-0.0283353 0.00236907 0.476878
-0.0283019 0.00154261 0.476515
-0.0282727 0.000719049 0.476206
-0.028255 -9.8976e-05 0.476058
-0.0282521 -0.000911216 0.476112
-0.0282542 -0.00172188 0.476233
-0.0282721 -0.00252807 0.476566
-0.0282974 -0.00333309 0.477007
-0.0283383 -0.00413556 0.477651
-0.0283758 -0.00494082 0.478259
-0.0284168 -0.0057474 0.47891
-0.0284496 -0.00655772 0.479452
-0.0284883 -0.00736879 0.480077
-0.0285109 -0.00818443 0.480474
-0.0285368 -0.00900093 0.480921
-0.028559 -0.00981931 0.481315
-0.0285921 -0.010638 0.481861
-0.0286664 -0.0114561 0.482973
-0.028754 -0.0122774 0.484265
-0.0288394 -0.013103 0.485525
-0.0289064 -0.0139327 0.48654
-0.0289408 -0.0147647 0.4871
-0.0289205 -0.0155956 0.486918
-0.028878 -0.016424 0.486432
-0.0288102 -0.0172483 0.485598
-0.0287516 -0.0180709 0.484886
-0.028681 -0.0188893 0.484013
-0.0285968 -0.0197023 0.482948
-0.0285152 -0.0205123 0.481928
-0.0284486 -0.021322 0.481103
-0.028372 -0.0221266 0.480152
-0.0283045 -0.0229302 0.479314
-0.02824 -0.0237319 0.478522
-0.028183 -0.0245332 0.477834
-0.0281237 -0.0253312 0.477108
-0.0280823 -0.0261334 0.476634
-0.0280526 -0.0269382 0.476317
-0.0280202 -0.027741 0.475969
-0.0279771 -0.0285378 0.475467
-0.0279031 -0.0293192 0.474542
-0.0278189 -0.0300924 0.473473
-0.0277339 -0.0308618 0.472398
-0.0276636 -0.0316353 0.471527
-0.0276116 -0.0324153 0.4709
-0.0275981 -0.0332151 0.470806
-0.0275851 -0.0340147 0.470716
-0.0275754 -0.0348161 0.470673
-0.0275729 -0.0356219 0.47073
-0.027571 -0.0364283 0.470795
-0.0275656 -0.0372326 0.470816
-0.0275665 -0.0380412 0.47092
-0.0275607 -0.0388451 0.470927
-0.0275543 -0.0396489 0.470934
-0.0275488 -0.040453 0.470946
-0.0275427 -0.0412571 0.470958
-0.0275367 -0.042061 0.470968
-0.0275343 -0.0428678 0.471023
-0.0275461 -0.0436872 0.471276
-0.0275741 -0.0445218 0.471752
-0.0276253 -0.0453793 0.472553
-0.0276854 -0.0462476 0.47347
-0.0277586 -0.0471319 0.474576
-0.027821 -0.0480091 0.475529
-0.0278794 -0.0488853 0.476426
-0.0279192 -0.0497459 0.477073
-0.027944 -0.0505923 0.477506
-0.0279599 -0.0514304 0.477814
-0.0279678 -0.0522611 0.478017
-0.0279834 -0.0531012 0.478328
-0.0280009 -0.0539445 0.478666
-0.0280304 -0.0548025 0.479163
-0.0280598 -0.0556621 0.479659
-0.0280918 -0.0565271 0.480199
-0.0281063 -0.0573717 0.480491
-0.0281232 -0.0582203 0.480818
-0.0293136 -0.0595185 0.485939
-0.0281322 -0.0590603 0.48104
-0.0276455 0.00650436 0.478137
-0.0276223 0.00567775 0.477906
-0.027597 0.00485085 0.477646
-0.0275573 0.00401758 0.477187
-0.0275137 0.0031839 0.476669
-0.0274765 0.00235501 0.476245
-0.0274437 0.00152949 0.475881
-0.0274122 0.000705747 0.475533
-0.0273942 -0.000111316 0.47538
-0.0273873 -0.00092394 0.475377
-0.027386 -0.00173464 0.47545
-0.0273993 -0.00254082 0.475729
-0.0274276 -0.00334352 0.476215
-0.0274672 -0.00414461 0.476865
-0.0275046 -0.00494837 0.477485
-0.0275484 -0.00575286 0.478189
-0.0275846 -0.00656117 0.478789
-0.0276198 -0.0073716 0.47938
-0.0276448 -0.00818564 0.479824
-0.0276737 -0.00900064 0.480317
-0.0276946 -0.0098181 0.480705
-0.0277258 -0.010636 0.481238
-0.0278271 -0.0114512 0.482753
-0.027937 -0.0122712 0.484389
-0.0280479 -0.0130967 0.486038
-0.0281326 -0.0139275 0.487314
-0.0281608 -0.0147607 0.487807
-0.0281252 -0.015592 0.487403
-0.0280741 -0.0164206 0.486783
-0.0279991 -0.0172446 0.485827
-0.027933 -0.0180665 0.485
-0.0278593 -0.0188845 0.484063
-0.0277751 -0.0196974 0.482976
-0.0276919 -0.0205068 0.481903
-0.0276199 -0.021315 0.480984
-0.0275457 -0.0221196 0.480037
-0.0274788 -0.022923 0.479196
-0.0274132 -0.0237237 0.478363
-0.0273565 -0.0245247 0.477667
-0.0272978 -0.0253225 0.476938
-0.0272545 -0.0261232 0.476419
-0.0272224 -0.0269267 0.476065
-0.0271883 -0.027728 0.475677
-0.0271428 -0.028523 0.475128
-0.0270771 -0.0293069 0.474299
-0.0270015 -0.0300833 0.473331
-0.0269228 -0.0308548 0.47232
-0.0268616 -0.031632 0.471549
-0.0268139 -0.032414 0.47097
-0.0267971 -0.0332122 0.47083
-0.0267848 -0.0340121 0.470745
-0.0267753 -0.0348139 0.470709
-0.0267729 -0.0356197 0.470764
-0.0267703 -0.0364258 0.470822
-0.0267646 -0.03723 0.470837
-0.0267617 -0.0380362 0.470892
-0.0267558 -0.0388401 0.4709
-0.0267499 -0.0396439 0.470907
-0.0267439 -0.040448 0.470919
-0.0267379 -0.0412521 0.47093
-0.026732 -0.042056 0.470939
-0.0267296 -0.0428627 0.470992
-0.0267405 -0.043682 0.471244
-0.0267675 -0.0445165 0.471719
-0.0268141 -0.0453705 0.472466
-0.0268685 -0.0462349 0.473328
-0.0269392 -0.0471182 0.474421
-0.026996 -0.0479913 0.475321
-0.0270494 -0.0488638 0.47617
-0.0270883 -0.0497239 0.476815
-0.0271197 -0.0505777 0.47735
-0.0271362 -0.0514169 0.477676
-0.0271483 -0.0522526 0.477943
-0.0271637 -0.0530931 0.478259
-0.0271771 -0.0539317 0.478541
-0.0271941 -0.0547761 0.478879
-0.0272179 -0.0556297 0.479311
-0.027242 -0.0564849 0.479745
-0.0272563 -0.057329 0.480042
-0.0272722 -0.058177 0.480367
-0.0272844 -0.0590202 0.480632
-0.0284549 -0.0603117 0.485598
-0.0272824 -0.0598455 0.480698
-0.026764 0.00566057 0.477296
-0.0267365 0.00483305 0.476995
-0.0266999 0.00400203 0.476568
-0.0266562 0.0031689 0.47604
-0.026617 0.0023396 0.475572
-0.0265813 0.00151364 0.475159
-0.02655 0.000690911 0.474807
-0.0265292 -0.000126403 0.474605
-0.0265192 -0.000938968 0.474557
-0.0265169 -0.00174861 0.474619
-0.0265291 -0.00255366 0.474889
-0.0265561 -0.00335511 0.47537
-0.0265911 -0.00415587 0.475966
-0.0266236 -0.00495926 0.476527
-0.0266662 -0.00576214 0.477234
-0.0266976 -0.00656961 0.477785
-0.026736 -0.00737777 0.478426
-0.0267703 -0.00818861 0.479014
-0.0268337 -0.00899747 0.480021
-0.0268637 -0.00981341 0.480546
-0.026933 -0.0106277 0.481635
-0.0270575 -0.011442 0.483522
-0.0271816 -0.0122627 0.485395
-0.0272869 -0.0130899 0.48701
-0.0273688 -0.0139224 0.488278
-0.0273822 -0.0147568 0.488572
-0.0273352 -0.0155888 0.487994
-0.0272703 -0.0164172 0.487164
-0.0271886 -0.0172411 0.486089
-0.0271098 -0.0180617 0.48505
-0.0270266 -0.018878 0.483953
-0.0269377 -0.0196897 0.48277
-0.0268526 -0.0204982 0.481647
-0.0267787 -0.0213053 0.480683
-0.0267063 -0.0221095 0.479739
-0.0266445 -0.0229133 0.478944
-0.0265796 -0.0237136 0.478106
-0.0265244 -0.0245142 0.477412
-0.0264669 -0.0253116 0.47668
-0.0264238 -0.0261118 0.476155
-0.026389 -0.0269135 0.475749
-0.0263557 -0.0277145 0.475367
-0.0263115 -0.0285092 0.474824
-0.0262542 -0.0292961 0.474099
-0.0261882 -0.030076 0.473244
-0.0261164 -0.03085 0.472303
-0.0260626 -0.0316308 0.471626
-0.0260223 -0.0324164 0.471132
-0.0260051 -0.0332146 0.470987
-0.0259928 -0.0340148 0.470902
-0.0259869 -0.0348189 0.470911
-0.025981 -0.0356231 0.470921
-0.025975 -0.0364272 0.47093
-0.0259691 -0.0372314 0.47094
-0.0259661 -0.0380378 0.470995
-0.0259635 -0.0388446 0.471054
-0.0259613 -0.0396517 0.471114
-0.0259557 -0.0404563 0.471127
-0.0259494 -0.0412605 0.471133
-0.0259397 -0.0420618 0.471091
-0.0259304 -0.0428631 0.471052
-0.0259349 -0.0436767 0.47121
-0.0259575 -0.0445075 0.471628
-0.0259921 -0.0453516 0.472226
-0.0260376 -0.0462085 0.472983
-0.0261028 -0.0470873 0.47402
-0.0261584 -0.0479601 0.474923
-0.0262143 -0.048836 0.475827
-0.0262592 -0.0497033 0.476576
-0.0262999 -0.0505681 0.47726
-0.0263235 -0.0514158 0.477696
-0.0263426 -0.0522605 0.478075
-0.0263623 -0.0531064 0.478454
-0.0263786 -0.0539494 0.478784
-0.0263908 -0.0547889 0.479059
-0.0264093 -0.0556375 0.479429
-0.0264286 -0.0564876 0.479802
-0.0264387 -0.0573272 0.480045
-0.0264512 -0.058171 0.480326
-0.0264657 -0.0590187 0.480638
-0.026467 -0.059849 0.480754
-0.0259222 0.006463 0.476793
-0.0258996 0.00563853 0.476564
-0.0258752 0.00481379 0.476306
-0.0258374 0.00398279 0.47585
-0.025792 0.00314945 0.475281
-0.025756 0.00232265 0.474854
-0.0257247 0.00149945 0.474491
-0.0256946 0.000677904 0.474145
-0.0256774 -0.000137118 0.473988
-0.0256668 -0.000948907 0.473932
-0.0256607 -0.00175882 0.473943
-0.025669 -0.00256392 0.474163
-0.0256916 -0.00336542 0.474586
-0.0257181 -0.00416702 0.475076
-0.0257454 -0.00497009 0.475573
-0.0257817 -0.0057726 0.476206
-0.0258053 -0.00657998 0.476648
-0.0258396 -0.00738682 0.477248
-0.0258679 -0.00819654 0.477765
-0.0259691 -0.00899784 0.47935
-0.0260381 -0.00980818 0.48046
-0.0261535 -0.010618 0.482255
-0.0262909 -0.0114324 0.484372
-0.0265173 -0.0130833 0.487902
-0.0265769 -0.0139171 0.488879
-0.0265723 -0.014752 0.48891
-0.0265123 -0.0155837 0.488127
-0.026445 -0.0164122 0.487236
-0.0263609 -0.0172358 0.486101
-0.0262768 -0.0180556 0.484968
-0.0261923 -0.0188714 0.483822
-0.0261018 -0.0196822 0.482584
-0.0260181 -0.0204903 0.481455
-0.025943 -0.0212965 0.480448
-0.025872 -0.0221004 0.479499
-0.0258113 -0.0229038 0.478702
-0.0257479 -0.0237037 0.477865
-0.0256878 -0.024502 0.477078
-0.025631 -0.0252987 0.476341
-0.0255882 -0.0260982 0.47581
-0.0255538 -0.0268992 0.475396
-0.0255204 -0.0276994 0.475005
-0.0254831 -0.0284964 0.474554
-0.0254347 -0.0292864 0.473936
-0.0253784 -0.0300703 0.473202
-0.0253157 -0.0308484 0.472375
-0.0252673 -0.0316316 0.471757
-0.0252269 -0.032417 0.471253
-0.0252063 -0.0332132 0.47105
-0.0251904 -0.0340113 0.47091
-0.0251815 -0.0348134 0.470874
-0.0251755 -0.0356176 0.470884
-0.0251696 -0.0364217 0.470893
-0.0251666 -0.0372281 0.470948
-0.0251674 -0.0380374 0.471056
-0.0251683 -0.0388473 0.471171
-0.0251696 -0.0396576 0.471287
-0.0251674 -0.0404653 0.471348
-0.0251577 -0.0412671 0.471306
-0.0251445 -0.0420655 0.471209
-0.0251317 -0.0428636 0.471113
-0.0251321 -0.0436738 0.471215
-0.025147 -0.0444983 0.471534
-0.0251734 -0.0453352 0.472024
-0.0252133 -0.0461873 0.472715
-0.0252736 -0.0470624 0.473703
-0.0253253 -0.047932 0.474569
-0.0253801 -0.0488083 0.475487
-0.025431 -0.0496826 0.476336
-0.0254775 -0.0505552 0.477126
-0.0255078 -0.0514112 0.477671
-0.0255373 -0.0522688 0.478212
-0.0255633 -0.0531233 0.478694
-0.0255823 -0.0539712 0.479076
-0.025591 -0.0548075 0.479306
-0.0256082 -0.0556552 0.47966
-0.0256229 -0.0565008 0.479979
-0.0256322 -0.0573405 0.480219
-0.0256449 -0.0581851 0.480503
-0.0256597 -0.0590337 0.480822
-0.0256611 -0.0598648 0.480946
-0.0250468 0.00643201 0.475875
-0.025032 0.00561335 0.475754
-0.0250155 0.00479399 0.475602
-0.0249838 0.003967 0.475226
-0.0249428 0.0031363 0.474706
-0.0249079 0.00231078 0.474288
-0.0248774 0.00148853 0.47393
-0.024851 0.000669219 0.473628
-0.0248315 -0.000146091 0.473432
-0.0248212 -0.000956933 0.473378
-0.0248148 -0.00176601 0.473386
-0.0248195 -0.00257151 0.473553
-0.0248317 -0.00337507 0.473834
-0.0248534 -0.00417661 0.474264
-0.0248688 -0.00498134 0.474596
-0.0248934 -0.00578502 0.475061
-0.0249081 -0.00659221 0.475387
-0.0249302 -0.00739915 0.475818
-0.0249489 -0.00820804 0.4762
-0.0253724 -0.0106083 0.482878
-0.0256748 -0.0122449 0.487641
-0.0257264 -0.0130768 0.488526
-0.0257571 -0.0139115 0.489087
-0.0257291 -0.014746 0.488772
-0.0256646 -0.0155772 0.487898
-0.0255988 -0.0164054 0.48701
-0.0255171 -0.0172288 0.485877
-0.0254379 -0.0180486 0.484783
-0.0253553 -0.0188642 0.483638
-0.0252697 -0.0196754 0.48245
-0.0251881 -0.0204833 0.48132
-0.025117 -0.02129 0.480349
-0.0250442 -0.0220928 0.479349
-0.024982 -0.0228952 0.478509
-0.0249197 -0.0236949 0.477669
-0.0248615 -0.0244929 0.476885
-0.0248027 -0.0252883 0.476103
-0.0247607 -0.0260874 0.475567
-0.0247266 -0.0268878 0.475146
-0.0246904 -0.0276861 0.474703
-0.0246541 -0.0284828 0.474254
-0.0246131 -0.0292754 0.473731
-0.0245654 -0.0300628 0.473107
-0.0245113 -0.0308449 0.472393
-0.0244713 -0.0316321 0.471881
-0.0244374 -0.0324214 0.471468
-0.0244169 -0.0332179 0.471262
-0.0244008 -0.0340162 0.471117
-0.0243885 -0.0348166 0.471032
-0.0243797 -0.0356188 0.470992
-0.024373 -0.0364229 0.470996
-0.0243704 -0.0372297 0.471055
-0.0243721 -0.0380398 0.471175
-0.0243769 -0.0388531 0.471349
-0.0243816 -0.039667 0.471524
-0.0243792 -0.0404753 0.471589
-0.0243697 -0.0412774 0.471543
-0.0243531 -0.0420728 0.471386
-0.0243394 -0.0428704 0.471277
-0.0243387 -0.0436804 0.47137
-0.0243494 -0.0445018 0.471637
-0.0243683 -0.045332 0.472023
-0.0244034 -0.0461802 0.472654
-0.0244546 -0.0470474 0.473531
-0.0245019 -0.0479134 0.474349
-0.0245562 -0.0487903 0.475278
-0.0246094 -0.0496687 0.476187
-0.0246612 -0.0505491 0.477082
-0.0246974 -0.0514133 0.477731
-0.0247331 -0.0522794 0.478378
-0.0247624 -0.0531394 0.478922
-0.0247844 -0.0539923 0.479359
-0.0247929 -0.0548294 0.479594
-0.0248098 -0.0556782 0.479954
-0.0248211 -0.0565203 0.480226
-0.0248329 -0.0573645 0.48051
-0.0248455 -0.0582098 0.480798
