ply
format ascii 1.0
element vertex 1668
property float x
property float y
property float z
end_header
-0.278357 -0.135592 0.838702
-0.277602 -0.134967 0.838947
-0.276791 -0.134323 0.839104
-0.275965 -0.133676 0.839237
-0.275433 -0.133125 0.839818
-0.27503 -0.132616 0.840599
-0.274581 -0.132092 0.84131
-0.274154 -0.131574 0.842056
-0.273799 -0.131079 0.842914
-0.273471 -0.130593 0.843817
-0.273291 -0.130152 0.844952
-0.273403 -0.129804 0.846549
-0.273369 -0.129021 0.849354
-0.272761 -0.128443 0.849829
-0.27212 -0.127854 0.850251
-0.272282 -0.127515 0.85195
-0.272495 -0.127191 0.853734
-0.273278 -0.127039 0.856439
-0.278519 -0.125945 0.879487
-0.27882 -0.126447 0.878447
-0.278987 -0.125542 0.877625
-0.278811 -0.125077 0.878866
-0.278239 -0.125449 0.880562
-0.278588 -0.124596 0.880033
-0.278125 -0.125 0.881913
-0.278568 -0.124175 0.881539
-0.278047 -0.124562 0.883332
-0.278602 -0.123768 0.883141
-0.277929 -0.12411 0.884686
-0.278608 -0.12335 0.884701
-0.277636 -0.123606 0.885754
-0.278319 -0.122847 0.885775
-0.277299 -0.123088 0.886749
-0.278048 -0.122347 0.886882
-0.277027 -0.122589 0.887857
-0.277813 -0.121857 0.888051
-0.276842 -0.122114 0.889115
-0.277657 -0.121388 0.889359
-0.27677 -0.12167 0.890567
-0.277552 -0.120933 0.890755
-0.276794 -0.121253 0.892186
-0.277574 -0.120513 0.892371
-0.276709 -0.120803 0.893627
-0.277427 -0.120044 0.893705
-0.278879 -0.120991 0.898917
-0.277105 -0.119524 0.894749
-0.316859 -0.167483 0.821619
-0.315866 -0.166745 0.821636
-0.314908 -0.166021 0.821694
-0.314008 -0.165321 0.821827
-0.312869 -0.16453 0.82164
-0.312001 -0.163842 0.821808
-0.311111 -0.163148 0.821946
-0.310139 -0.162423 0.821971
-0.309251 -0.161731 0.822106
-0.308353 -0.161035 0.822224
-0.307362 -0.160305 0.822214
-0.306453 -0.159607 0.822312
-0.305722 -0.158976 0.822648
-0.304935 -0.158325 0.822907
-0.304245 -0.157709 0.823295
-0.303516 -0.15708 0.82363
-0.302718 -0.156426 0.823868
-0.301882 -0.155758 0.824053
-0.301213 -0.155152 0.824464
-0.300627 -0.154576 0.82499
-0.300061 -0.154007 0.825542
-0.29959 -0.153474 0.826227
-0.299172 -0.152959 0.826986
-0.298659 -0.15241 0.827614
-0.298053 -0.151827 0.828112
-0.297473 -0.151253 0.828646
-0.296822 -0.150655 0.829078
-0.296135 -0.150043 0.82946
-0.295451 -0.149433 0.829845
-0.294706 -0.148802 0.830141
-0.293954 -0.148169 0.830428
-0.293097 -0.1475 0.830561
-0.292425 -0.146896 0.830958
-0.291714 -0.146278 0.831296
-0.291149 -0.145712 0.831844
-0.290523 -0.145125 0.832305
-0.289907 -0.14454 0.832777
-0.289117 -0.143898 0.832999
-0.288227 -0.14322 0.833071
-0.287338 -0.142544 0.833142
-0.286485 -0.141881 0.833264
-0.285734 -0.141254 0.833532
-0.284995 -0.14063 0.833816
-0.28435 -0.140039 0.834236
-0.283737 -0.139459 0.834705
-0.283098 -0.138871 0.835133
-0.282518 -0.138302 0.835649
-0.281853 -0.137706 0.836039
-0.281213 -0.137117 0.836462
-0.280479 -0.136498 0.836745
-0.279933 -0.135942 0.837309
-0.279136 -0.135302 0.837494
-0.278324 -0.134659 0.837655
-0.277565 -0.134034 0.837894
-0.276758 -0.133394 0.838055
-0.275882 -0.132731 0.83811
-0.275285 -0.13216 0.838591
-0.274863 -0.131645 0.83934
-0.274384 -0.131111 0.840002
-0.273901 -0.130576 0.840658
-0.273566 -0.130088 0.841543
-0.273262 -0.129609 0.84248
-0.273039 -0.129155 0.843545
-0.273624 -0.128179 0.848729
-0.273018 -0.127602 0.849206
-0.273385 -0.127325 0.851224
-0.274721 -0.127345 0.854788
-0.275964 -0.12733 0.858221
-0.280003 -0.12489 0.878191
-0.279665 -0.124375 0.879169
-0.27931 -0.123854 0.880119
-0.279298 -0.123433 0.881638
-0.279304 -0.123015 0.883192
-0.279318 -0.122598 0.884766
-0.279031 -0.122094 0.885844
-0.278827 -0.121612 0.887063
-0.278599 -0.121122 0.888245
-0.278479 -0.120662 0.889612
-0.278339 -0.120195 0.890951
-0.278322 -0.119762 0.8925
-0.278109 -0.119272 0.893723
-0.27775 -0.118741 0.894703
-0.27669 -0.118977 0.895633
-0.277268 -0.118175 0.895474
-0.278635 -0.119086 0.900559
-0.276745 -0.117598 0.896178
-0.317843 -0.168218 0.821588
-0.319532 -0.168251 0.821534
-0.31846 -0.167482 0.821455
-0.317413 -0.166723 0.821406
-0.316375 -0.165969 0.821363
-0.315394 -0.165238 0.821395
-0.314471 -0.16453 0.821498
-0.313365 -0.163752 0.821356
-0.312527 -0.163077 0.821565
-0.31164 -0.162385 0.821708
-0.310667 -0.16166 0.821734
-0.309814 -0.160982 0.821916
-0.308918 -0.160288 0.822039
-0.307932 -0.159561 0.822038
-0.307092 -0.158889 0.82223
-0.306397 -0.158271 0.822616
-0.305648 -0.157634 0.822927
-0.304958 -0.157019 0.823318
-0.304223 -0.156387 0.823645
-0.30342 -0.155732 0.823879
-0.302585 -0.155065 0.824067
-0.301882 -0.154447 0.824434
-0.301295 -0.15387 0.824959
-0.300723 -0.1533 0.825505
-0.300188 -0.152742 0.826101
-0.299734 -0.152214 0.82681
-0.299221 -0.151664 0.827438
-0.29865 -0.151094 0.827986
-0.298106 -0.150533 0.82857
-0.297485 -0.149945 0.829047
-0.296794 -0.149333 0.829425
-0.296106 -0.148722 0.829804
-0.295355 -0.148088 0.830094
-0.294539 -0.147434 0.830291
-0.293612 -0.14674 0.830327
-0.292836 -0.146101 0.830576
-0.292014 -0.145445 0.830756
-0.291285 -0.144822 0.831068
-0.290553 -0.144199 0.831375
-0.289895 -0.143602 0.831787
-0.289099 -0.142957 0.831996
-0.288183 -0.142273 0.83203
-0.287384 -0.141629 0.832233
-0.286607 -0.140993 0.832464
-0.285847 -0.140363 0.832718
-0.285095 -0.139736 0.832982
-0.284478 -0.139155 0.833444
-0.283867 -0.138577 0.833915
-0.283269 -0.138002 0.834402
-0.282727 -0.137447 0.834975
-0.282033 -0.136841 0.835319
-0.281352 -0.13624 0.835682
-0.280573 -0.135607 0.835897
-0.279925 -0.135017 0.836307
-0.279121 -0.134377 0.836479
-0.278369 -0.133754 0.836729
-0.277629 -0.133136 0.836995
-0.276808 -0.132493 0.837137
-0.275871 -0.131812 0.837098
-0.275201 -0.131218 0.837464
-0.274709 -0.130681 0.838104
-0.273655 -0.129585 0.839274
-0.273299 -0.12909 0.840123
-0.27292 -0.128588 0.84094
-0.281011 -0.124231 0.87874
-0.28054 -0.123676 0.879503
-0.280125 -0.123137 0.880357
-0.280039 -0.122692 0.881754
-0.280004 -0.122261 0.883239
-0.280017 -0.121841 0.88481
-0.279764 -0.121345 0.885944
-0.279574 -0.120866 0.887187
-0.27935 -0.120376 0.888376
-0.279201 -0.119905 0.889694
-0.279022 -0.119427 0.890967
-0.278968 -0.118981 0.892454
-0.278682 -0.118469 0.893554
-0.278315 -0.117936 0.894519
-0.277797 -0.117359 0.895231
-0.277272 -0.116781 0.89593
-0.321341 -0.168326 0.821624
-0.320126 -0.167503 0.821367
-0.319013 -0.16672 0.821238
-0.317929 -0.165948 0.821141
-0.316864 -0.165185 0.821066
-0.315825 -0.164433 0.821022
-0.314886 -0.163719 0.821105
-0.313817 -0.162958 0.821014
-0.312982 -0.162285 0.821229
-0.312102 -0.161596 0.821382
-0.311161 -0.160884 0.82145
-0.310346 -0.16022 0.821685
-0.309488 -0.159541 0.821859
-0.308573 -0.158842 0.821956
-0.307798 -0.158195 0.822236
-0.307135 -0.157589 0.822667
-0.306416 -0.156963 0.823021
-0.305724 -0.156347 0.823411
-0.304989 -0.155715 0.82374
-0.304214 -0.15507 0.824014
-0.303381 -0.154404 0.824207
-0.302651 -0.153776 0.824539
-0.302028 -0.153187 0.825016
-0.301422 -0.152603 0.825515
-0.300815 -0.152021 0.826015
-0.300332 -0.151481 0.826683
-0.299816 -0.15093 0.827309
-0.299243 -0.150359 0.827854
-0.2987 -0.149798 0.82844
-0.298112 -0.149222 0.828965
-0.297421 -0.14861 0.829342
-0.296723 -0.147995 0.82971
-0.295967 -0.147361 0.829995
-0.295144 -0.146704 0.830183
-0.29412 -0.145978 0.830082
-0.293238 -0.145302 0.830181
-0.292301 -0.144608 0.830198
-0.29143 -0.143937 0.830306
-0.290555 -0.143267 0.830407
-0.289828 -0.142646 0.830718
-0.288972 -0.141983 0.830839
-0.288033 -0.141292 0.830839
-0.287228 -0.140647 0.83103
-0.286497 -0.140028 0.831328
-0.285801 -0.139421 0.831674
-0.285141 -0.138826 0.832074
-0.284634 -0.138282 0.832695
-0.284139 -0.137742 0.833336
-0.283588 -0.137183 0.833892
-0.283093 -0.136644 0.834534
-0.282393 -0.136037 0.83487
-0.281648 -0.135415 0.835138
-0.280828 -0.13477 0.835291
-0.280107 -0.134157 0.83559
-0.279277 -0.133509 0.835724
-0.278597 -0.13253 0.837469
-0.284463 -0.128157 0.873684
-0.287297 -0.128461 0.875609
-0.287727 -0.128173 0.877809
-0.28546 -0.128043 0.876793
-0.287706 -0.12775 0.879297
-0.285542 -0.127653 0.878446
-0.286938 -0.127104 0.879594
-0.285588 -0.127249 0.880046
-0.286021 -0.126414 0.879647
-0.284759 -0.126586 0.880237
-0.285246 -0.125767 0.879927
-0.284099 -0.125012 0.879603
-0.283076 -0.124295 0.879473
-0.282092 -0.12359 0.879405
-0.281547 -0.123012 0.880049
-0.281034 -0.122444 0.880744
-0.28082 -0.121961 0.881932
-0.280704 -0.121504 0.883283
-0.280649 -0.121064 0.884743
-0.280434 -0.120577 0.885939
-0.28028 -0.120106 0.887242
-0.280058 -0.119616 0.888434
-0.279906 -0.119143 0.889748
-0.27969 -0.118652 0.890958
-0.279536 -0.118176 0.892275
-0.279178 -0.117645 0.893253
-0.27877 -0.117098 0.89415
-0.278253 -0.116523 0.894862
-0.277738 -0.115947 0.895578
-0.279095 -0.116838 0.900644
-0.277202 -0.115366 0.896261
-0.323352 -0.169816 0.821587
-0.324641 -0.169691 0.820991
-0.323805 -0.16901 0.821232
-0.32242 -0.169099 0.821701
-0.322876 -0.168295 0.821352
-0.321881 -0.167555 0.821385
-0.320752 -0.166766 0.821241
-0.319622 -0.165978 0.821092
-0.318468 -0.165182 0.820907
-0.317342 -0.164397 0.820755
-0.31626 -0.16363 0.820654
-0.31529 -0.162906 0.820699
-0.314259 -0.16216 0.820658
-0.313433 -0.161491 0.820886
-0.312587 -0.160815 0.821085
-0.311682 -0.160118 0.821203
-0.310899 -0.159467 0.821481
-0.310081 -0.158803 0.82171
-0.309238 -0.15813 0.821904
-0.308501 -0.157497 0.822238
-0.307872 -0.156904 0.822715
-0.307185 -0.156289 0.823114
-0.30646 -0.155661 0.82346
-0.305722 -0.155029 0.823787
-0.304946 -0.154384 0.824063
-0.304084 -0.153708 0.824217
-0.303323 -0.153069 0.824508
-0.302695 -0.152478 0.82498
-0.302048 -0.15188 0.825425
-0.301373 -0.151272 0.825831
-0.300883 -0.150731 0.826492
-0.300362 -0.150177 0.827108
-0.299792 -0.149608 0.827659
-0.299252 -0.149048 0.82825
-0.298699 -0.148484 0.828824
-0.297976 -0.14786 0.829159
-0.297244 -0.147234 0.829479
-0.296483 -0.146598 0.829757
-0.295659 -0.145942 0.829945
-0.294575 -0.145197 0.829762
-0.293615 -0.144495 0.82975
-0.292567 -0.143764 0.82961
-0.291542 -0.143043 0.829498
-0.290507 -0.142319 0.829369
-0.289711 -0.141677 0.829579
-0.288868 -0.141019 0.82972
-0.287981 -0.140347 0.829794
-0.2872 -0.139711 0.830018
-0.286513 -0.139108 0.830378
-0.284988 -0.137476 0.832238
-0.284637 -0.136983 0.833089
-0.284155 -0.136447 0.833749
-0.28366 -0.135907 0.834391
-0.282903 -0.135281 0.834643
-0.282089 -0.134637 0.834808
-0.281167 -0.13396 0.834811
-0.280341 -0.133314 0.834954
-0.279502 -0.132665 0.835074
-0.280071 -0.132465 0.837314
-0.286504 -0.128637 0.872843
-0.290077 -0.128743 0.87742
-0.289501 -0.128154 0.878025
-0.288916 -0.127562 0.878615
-0.288162 -0.12692 0.878934
-0.287437 -0.126287 0.879299
-0.286555 -0.125609 0.879411
-0.285789 -0.124965 0.879706
-0.284843 -0.12427 0.879708
-0.283971 -0.123596 0.879828
-0.283109 -0.122927 0.87996
-0.282557 -0.122347 0.880596
-0.282026 -0.121772 0.881265
-0.28173 -0.121264 0.882318
-0.281543 -0.120785 0.883556
-0.28142 -0.120324 0.884901
-0.28121 -0.119837 0.886107
-0.281052 -0.119363 0.887402
-0.280797 -0.118862 0.888541
-0.280606 -0.118377 0.88979
-0.280321 -0.117866 0.890885
-0.280064 -0.117361 0.892029
-0.279637 -0.11681 0.892892
-0.279194 -0.116254 0.893729
-0.278682 -0.115679 0.894448
-0.278208 -0.115114 0.895235
-0.277746 -0.114552 0.896043
-0.325923 -0.169561 0.820383
-0.325207 -0.168926 0.82078
-0.324325 -0.168229 0.820963
-0.323381 -0.167509 0.821066
-0.322395 -0.166774 0.821111
-0.321257 -0.165983 0.820958
-0.320109 -0.165189 0.820787
-0.318859 -0.164359 0.820479
-0.317726 -0.163574 0.820319
-0.316602 -0.162792 0.820166
-0.315629 -0.162068 0.820206
-0.314628 -0.161335 0.820208
-0.313845 -0.160683 0.820492
-0.313004 -0.160009 0.820698
-0.312164 -0.159337 0.820903
-0.311414 -0.158698 0.821225
-0.310603 -0.158037 0.821464
-0.309799 -0.15738 0.821713
-0.309105 -0.156762 0.822104
-0.308481 -0.156171 0.82259
-0.307828 -0.155569 0.823036
-0.307136 -0.154953 0.823428
-0.306429 -0.154332 0.823799
-0.305691 -0.1537 0.824126
-0.304827 -0.153025 0.824281
-0.304027 -0.152372 0.82452
-0.303322 -0.151753 0.824888
-0.302631 -0.15114 0.825274
-0.301916 -0.150519 0.825626
-0.301394 -0.149965 0.826241
-0.300842 -0.149402 0.826817
-0.300299 -0.14884 0.827404
-0.299758 -0.148281 0.827996
-0.299214 -0.147719 0.828581
-0.298526 -0.147108 0.828967
-0.297828 -0.146495 0.829337
-0.297096 -0.145869 0.829657
-0.296277 -0.145215 0.829854
-0.295225 -0.144482 0.829717
-0.294267 -0.143782 0.829711
-0.293111 -0.143016 0.82942
-0.291913 -0.142237 0.829062
-0.290764 -0.141476 0.828771
-0.289866 -0.140801 0.828835
-0.288956 -0.140121 0.828877
-0.288098 -0.139461 0.828994
-0.287356 -0.13884 0.829275
-0.286667 -0.138236 0.829632
-0.285966 -0.137629 0.829969
-0.285484 -0.136336 0.833356
-0.285258 -0.135882 0.834394
-0.284643 -0.135302 0.834861
-0.283815 -0.134654 0.835013
-0.282921 -0.133985 0.835062
-0.281644 -0.133195 0.834538
-0.280499 -0.132448 0.834205
-0.279721 -0.13182 0.834418
-0.280537 -0.131695 0.837024
-0.291106 -0.128502 0.876446
-0.290568 -0.127923 0.877111
-0.289984 -0.127331 0.877702
-0.289396 -0.126738 0.878288
-0.288649 -0.126099 0.87862
-0.287971 -0.12548 0.87906
-0.287121 -0.124812 0.879225
-0.286396 -0.12418 0.879587
-0.285601 -0.123529 0.879836
-0.284888 -0.122901 0.880214
-0.284182 -0.122276 0.880603
-0.283637 -0.121697 0.881252
-0.283106 -0.121122 0.881925
-0.282707 -0.120583 0.882813
-0.282425 -0.120076 0.883894
-0.282178 -0.119578 0.885038
-0.281934 -0.11908 0.886186
-0.28171 -0.118587 0.887373
-0.281416 -0.118074 0.888447
-0.281153 -0.117568 0.889575
-0.280831 -0.117046 0.890607
-0.280505 -0.116522 0.891636
-0.28007 -0.115968 0.892484
-0.279593 -0.115403 0.893263
-0.279116 -0.114837 0.894043
-0.278683 -0.114282 0.894897
-0.278292 -0.113738 0.895826
-0.327392 -0.169502 0.820007
-0.326534 -0.168813 0.820227
-0.325828 -0.168182 0.820638
-0.324938 -0.167483 0.820814
-0.323939 -0.166743 0.820847
-0.322917 -0.165996 0.820848
-0.321741 -0.165192 0.820647
-0.320525 -0.164375 0.820391
-0.31921 -0.163522 0.82
-0.318074 -0.162737 0.819839
-0.316946 -0.161956 0.819681
-0.315974 -0.161233 0.819723
-0.315011 -0.160515 0.819775
-0.314258 -0.159874 0.8201
-0.313418 -0.159202 0.820307
-0.31258 -0.158531 0.820516
-0.311833 -0.157894 0.820843
-0.311053 -0.157245 0.821124
-0.310288 -0.156602 0.821424
-0.309633 -0.155999 0.821868
-0.309047 -0.155421 0.822406
-0.30843 -0.154832 0.822901
-0.307773 -0.154229 0.823341
-0.307108 -0.153623 0.823769
-0.306403 -0.153004 0.824144
-0.305569 -0.152339 0.824341
-0.30476 -0.151684 0.824571
-0.304013 -0.15105 0.824882
-0.303247 -0.150411 0.825167
-0.302462 -0.149766 0.825424
-0.301872 -0.149188 0.825947
-0.301284 -0.148612 0.826473
-0.300711 -0.148041 0.82702
-0.300171 -0.14748 0.827611
-0.299658 -0.14693 0.828241
-0.299009 -0.146333 0.82868
-0.29835 -0.145732 0.829105
-0.297685 -0.145131 0.829522
-0.296935 -0.1445 0.829817
-0.295952 -0.143791 0.829781
-0.295006 -0.143096 0.829794
-0.293878 -0.142341 0.829545
-0.292609 -0.14154 0.82909
-0.291406 -0.140762 0.828724
-0.290424 -0.14006 0.82867
-0.289433 -0.139355 0.828598
-0.288503 -0.138671 0.82861
-0.286849 -0.135854 0.834379
-0.286806 -0.135457 0.835691
-0.286267 -0.1349 0.836275
-0.285661 -0.134322 0.836758
-0.284988 -0.133722 0.837144
-0.283806 -0.132963 0.836771
-0.282432 -0.132143 0.836105
-0.281645 -0.131511 0.836312
-0.282748 -0.13147 0.839351
-0.291627 -0.129075 0.875756
-0.291361 -0.127613 0.875765
-0.290849 -0.127042 0.876471
-0.29031 -0.126463 0.877132
-0.289729 -0.125872 0.877728
-0.289054 -0.125254 0.878174
-0.288445 -0.124655 0.878726
-0.287704 -0.124019 0.879066
-0.28705 -0.123408 0.879544
-0.286363 -0.122787 0.879966
-0.285717 -0.122178 0.880456
-0.285079 -0.121573 0.880957
-0.284571 -0.121003 0.881668
-0.284069 -0.120434 0.882389
-0.283645 -0.119888 0.883239
-0.283324 -0.119368 0.884257
-0.283011 -0.118851 0.885293
-0.28269 -0.118331 0.886317
-0.28236 -0.117808 0.88733
-0.281995 -0.117274 0.888285
-0.281666 -0.11675 0.889304
-0.281308 -0.116216 0.890276
-0.280944 -0.115682 0.891241
-0.280506 -0.115127 0.892083
-0.280026 -0.11456 0.892856
-0.279552 -0.113995 0.89364
-0.279151 -0.113448 0.894549
-0.278795 -0.112913 0.895535
-0.327966 -0.168738 0.819803
-0.327157 -0.168068 0.820085
-0.326419 -0.167426 0.820458
-0.325497 -0.166715 0.820593
-0.324437 -0.165954 0.820551
-0.323337 -0.165179 0.820454
-0.322116 -0.16436 0.820197
-0.320892 -0.163541 0.819931
-0.319577 -0.162691 0.819542
-0.318446 -0.161909 0.819387
-0.317361 -0.161145 0.819288
-0.31639 -0.160425 0.819333
-0.315426 -0.159707 0.819384
-0.314675 -0.159067 0.819712
-0.313869 -0.158408 0.819964
-0.313032 -0.157738 0.820175
-0.312316 -0.157113 0.820544
-0.311572 -0.156477 0.820874
-0.310872 -0.155858 0.821262
-0.310253 -0.155268 0.821755
-0.309736 -0.154714 0.822385
-0.309155 -0.154138 0.82293
-0.308567 -0.15356 0.823465
-0.307942 -0.152968 0.82395
-0.307249 -0.152352 0.82434
-0.306415 -0.151688 0.824541
-0.305598 -0.15103 0.824762
-0.30478 -0.150372 0.824979
-0.303943 -0.149708 0.825169
-0.30312 -0.14905 0.825374
-0.302491 -0.148459 0.825846
-0.301838 -0.14786 0.826283
-0.301257 -0.147286 0.826819
-0.300715 -0.146725 0.827408
-0.300234 -0.146185 0.828082
-0.299623 -0.145601 0.828576
-0.299004 -0.145015 0.829059
-0.298349 -0.144416 0.829489
-0.297661 -0.143806 0.829874
-0.29675 -0.143123 0.829942
-0.295849 -0.142443 0.830022
-0.294805 -0.141717 0.829895
-0.293594 -0.140937 0.829528
-0.292406 -0.140165 0.829186
-0.291433 -0.139466 0.829149
-0.290445 -0.138763 0.829086
-0.289519 -0.138081 0.829108
-0.288536 -0.134695 0.838629
-0.287802 -0.134075 0.838932
-0.28711 -0.133468 0.839297
-0.286066 -0.13275 0.839137
-0.284923 -0.132004 0.838828
-0.284661 -0.131533 0.839827
-0.28578 -0.131489 0.842896
-0.290106 -0.132574 0.854683
-0.287153 -0.132058 0.848792
-0.29043 -0.131728 0.854144
-0.289442 -0.131968 0.855115
-0.28977 -0.131124 0.854583
-0.288759 -0.131356 0.855519
-0.289119 -0.130523 0.855034
-0.288189 -0.130779 0.856092
-0.288539 -0.129943 0.855593
-0.287516 -0.130171 0.856507
-0.292446 -0.127388 0.874881
-0.291898 -0.126806 0.875529
-0.291367 -0.126229 0.876202
-0.290847 -0.125656 0.876895
-0.290263 -0.125064 0.877487
-0.289625 -0.124456 0.877993
-0.289084 -0.123877 0.878654
-0.288415 -0.123261 0.879111
-0.287833 -0.12267 0.879703
-0.287224 -0.122071 0.880254
-0.286621 -0.121474 0.880815
-0.286023 -0.120879 0.881382
-0.285517 -0.120309 0.882099
-0.284946 -0.119721 0.882711
-0.28448 -0.119161 0.883493
-0.284084 -0.118621 0.884392
-0.283699 -0.118083 0.88531
-0.283336 -0.11755 0.886265
-0.282963 -0.117014 0.887207
-0.282526 -0.11646 0.888044
-0.282158 -0.115925 0.888997
-0.281769 -0.115383 0.889918
-0.281375 -0.114839 0.890832
-0.280939 -0.114284 0.891676
-0.280459 -0.113717 0.892449
-0.279982 -0.113151 0.893228
-0.27958 -0.112604 0.894135
-0.279195 -0.112061 0.895071
-0.328671 -0.168022 0.819762
-0.327897 -0.167366 0.820091
-0.32711 -0.166706 0.820404
-0.326154 -0.165983 0.820499
-0.325022 -0.165196 0.820365
-0.323837 -0.164391 0.820161
-0.322533 -0.163543 0.819799
-0.321295 -0.162722 0.819518
-0.319944 -0.16186 0.819086
-0.318817 -0.161082 0.818937
-0.317805 -0.160346 0.818932
-0.316875 -0.15964 0.819032
-0.315952 -0.158939 0.819138
-0.315234 -0.158311 0.819509
-0.31446 -0.157664 0.819806
-0.313622 -0.156995 0.820017
-0.312911 -0.156372 0.820394
-0.312165 -0.155735 0.820721
-0.311467 -0.155117 0.821113
-0.310848 -0.154528 0.821609
-0.310335 -0.153975 0.822244
-0.309788 -0.15341 0.822834
-0.30924 -0.152845 0.823423
-0.308687 -0.152278 0.824005
-0.308032 -0.151676 0.824452
-0.307268 -0.151037 0.824748
-0.30649 -0.150392 0.825024
-0.305672 -0.149735 0.825244
-0.304799 -0.149059 0.825387
-0.303934 -0.148386 0.825538
-0.303258 -0.14778 0.825947
-0.302533 -0.147156 0.826287
-0.301948 -0.146581 0.826818
-0.301405 -0.146019 0.827407
-0.300926 -0.145479 0.828085
-0.300318 -0.144896 0.828585
-0.299733 -0.14432 0.829115
-0.299047 -0.143711 0.829505
-0.298327 -0.143091 0.829845
-0.297511 -0.14244 0.830049
-0.296685 -0.141785 0.830236
-0.29569 -0.141077 0.830183
-0.294584 -0.140332 0.829967
-0.293531 -0.139606 0.829824
-0.292565 -0.138909 0.829799
-0.291682 -0.138241 0.829892
-0.29102 -0.134548 0.841289
-0.290117 -0.133872 0.841353
-0.289442 -0.133269 0.841751
-0.288573 -0.132605 0.841861
-0.287654 -0.131927 0.841893
-0.287611 -0.13152 0.843229
-0.290065 -0.131077 0.851141
-0.290737 -0.130879 0.853582
-0.290136 -0.130293 0.854109
-0.289536 -0.129707 0.854637
-0.288956 -0.129127 0.855194
-0.293488 -0.12715 0.873927
-0.293105 -0.126615 0.874831
-0.29256 -0.126035 0.875485
-0.292046 -0.125462 0.876187
-0.291551 -0.124895 0.876921
-0.290937 -0.124295 0.877466
-0.290302 -0.123688 0.877979
-0.289767 -0.12311 0.878648
-0.28913 -0.122503 0.879157
-0.288551 -0.121912 0.879758
-0.287947 -0.121315 0.880319
-0.287354 -0.12072 0.880897
-0.286792 -0.120134 0.881523
-0.286285 -0.119564 0.88224
-0.285677 -0.118965 0.882794
-0.285197 -0.118401 0.883555
-0.284758 -0.117848 0.884383
-0.284298 -0.117289 0.88518
-0.283867 -0.116737 0.886024
-0.283457 -0.116191 0.886904
-0.282982 -0.115627 0.887678
-0.28258 -0.115081 0.888573
-0.282188 -0.114538 0.889489
-0.2818 -0.113996 0.890412
-0.281368 -0.113441 0.891263
-0.280891 -0.112875 0.892041
-0.28038 -0.1123 0.892763
-0.279943 -0.111743 0.893609
-0.279517 -0.111189 0.894477
-0.329418 -0.167321 0.819774
-0.328662 -0.166672 0.820127
-0.327854 -0.166004 0.820415
-0.326891 -0.165279 0.820502
-0.325679 -0.164464 0.820271
-0.324379 -0.163619 0.819922
-0.322959 -0.162731 0.819415
-0.321643 -0.161882 0.819034
-0.320285 -0.16102 0.818594
-0.319162 -0.160245 0.818452
-0.318191 -0.159525 0.818502
-0.317332 -0.158846 0.818695
-0.316481 -0.158172 0.818896
-0.31577 -0.157547 0.819277
-0.315 -0.156902 0.81958
-0.314193 -0.156244 0.819832
-0.313482 -0.15562 0.820209
-0.312736 -0.154985 0.82054
-0.312078 -0.154381 0.820984
-0.311526 -0.153815 0.82157
-0.31102 -0.153264 0.822215
-0.310474 -0.152699 0.822807
-0.309988 -0.152156 0.823481
-0.309472 -0.151601 0.824114
-0.308826 -0.151002 0.824574
-0.308134 -0.150388 0.82497
-0.307423 -0.149766 0.825339
-0.306611 -0.149111 0.82557
-0.305739 -0.148436 0.825716
-0.304928 -0.147782 0.825945
-0.304251 -0.147174 0.826355
-0.303484 -0.146537 0.82664
-0.302897 -0.14596 0.827171
-0.302348 -0.145396 0.827754
-0.301811 -0.144836 0.828353
-0.301201 -0.144251 0.828851
-0.300611 -0.143674 0.829377
-0.299882 -0.143051 0.829709
-0.299087 -0.142406 0.829947
-0.298325 -0.141773 0.830229
-0.297533 -0.141129 0.830465
-0.296646 -0.140457 0.830568
-0.295651 -0.139749 0.830514
-0.294775 -0.139081 0.830626
-0.293963 -0.138434 0.830825
-0.293179 -0.137797 0.831063
-0.29281 -0.137294 0.831894
-0.294169 -0.134992 0.84351
-0.293181 -0.134288 0.843461
-0.292187 -0.133583 0.843401
-0.291526 -0.132982 0.843827
-0.290826 -0.13237 0.844194
-0.290145 -0.131763 0.844589
-0.290118 -0.131356 0.845954
-0.290428 -0.131052 0.847828
-0.290615 -0.130707 0.849525
-0.290898 -0.13039 0.851371
-0.29108 -0.13004 0.853073
-0.290559 -0.129478 0.85372
-0.290032 -0.128914 0.854359
-0.289756 -0.128425 0.855381
-0.289604 -0.127971 0.856591
-0.294019 -0.126341 0.873677
-0.293679 -0.125818 0.874649
-0.293203 -0.125257 0.87541
-0.292728 -0.124695 0.876177
-0.292274 -0.124139 0.876973
-0.291625 -0.123528 0.877466
-0.29096 -0.122913 0.877932
-0.290394 -0.122326 0.878554
-0.289754 -0.121718 0.879058
-0.289203 -0.121135 0.879705
-0.288593 -0.120535 0.880257
-0.288027 -0.119948 0.880879
-0.287495 -0.11937 0.881556
-0.286957 -0.11879 0.882223
-0.286279 -0.118172 0.882665
-0.285721 -0.117587 0.883301
-0.285178 -0.117006 0.88396
-0.284621 -0.116421 0.884597
-0.284192 -0.115869 0.885443
-0.283755 -0.115316 0.886278
-0.28328 -0.114751 0.887053
-0.282876 -0.114205 0.887944
-0.282513 -0.113669 0.888905
-0.282128 -0.113127 0.889833
-0.281733 -0.112582 0.890744
-0.281293 -0.112025 0.891582
-0.280779 -0.111448 0.892299
-0.280336 -0.11089 0.893135
-0.279904 -0.110333 0.893989
-0.329935 -0.166533 0.819496
-0.32921 -0.165896 0.819888
-0.328415 -0.165232 0.820192
-0.327488 -0.164522 0.820327
-0.326266 -0.163705 0.820086
-0.324924 -0.162846 0.819686
-0.323456 -0.161943 0.81912
-0.322133 -0.161094 0.818733
-0.320775 -0.160234 0.818295
-0.31969 -0.159474 0.818203
-0.318788 -0.15878 0.818345
-0.317968 -0.158116 0.818589
-0.317122 -0.157443 0.818798
-0.316417 -0.156821 0.819188
-0.315679 -0.156187 0.819535
-0.314841 -0.155519 0.819748
-0.314158 -0.154905 0.820163
-0.313417 -0.154272 0.820501
-0.312789 -0.153679 0.820987
-0.312247 -0.153116 0.821587
-0.311773 -0.152575 0.822275
-0.311228 -0.15201 0.822871
-0.310773 -0.151477 0.823587
-0.310257 -0.150923 0.824222
-0.309646 -0.150335 0.824729
-0.309028 -0.149745 0.825227
-0.308356 -0.149138 0.825652
-0.307581 -0.148495 0.825935
-0.306742 -0.147831 0.826129
-0.305933 -0.147178 0.826363
-0.305227 -0.146561 0.826736
-0.304461 -0.145923 0.827024
-0.303874 -0.145346 0.827558
-0.303323 -0.14478 0.828141
-0.30275 -0.144208 0.828693
-0.3021 -0.14361 0.829138
-0.301433 -0.143006 0.829559
-0.300627 -0.142358 0.829785
-0.299788 -0.141699 0.829964
-0.298985 -0.141053 0.83019
-0.298158 -0.140399 0.830379
-0.297365 -0.139757 0.830616
-0.296511 -0.139095 0.830763
-0.29575 -0.138465 0.831041
-0.29517 -0.137893 0.831574
-0.294671 -0.137347 0.832223
-0.294907 -0.135618 0.843191
-0.295518 -0.134869 0.843083
-0.294843 -0.134262 0.843496
-0.294263 -0.133685 0.844047
-0.293629 -0.133091 0.844517
-0.293299 -0.132591 0.845436
-0.292994 -0.132097 0.846392
-0.292746 -0.131621 0.847434
-0.292507 -0.131147 0.848494
-0.292461 -0.130729 0.849842
-0.292181 -0.13024 0.850846
-0.29194 -0.129763 0.851911
-0.291644 -0.129268 0.852897
-0.291159 -0.128716 0.853599
-0.290771 -0.128193 0.854448
-0.29073 -0.127772 0.855825
-0.29088 -0.127405 0.857496
-0.294737 -0.126009 0.872221
-0.294487 -0.125513 0.87333
-0.294212 -0.125008 0.874402
-0.293852 -0.124479 0.875347
-0.293475 -0.123944 0.876263
-0.29312 -0.123415 0.877218
-0.292498 -0.122812 0.877755
-0.291821 -0.122193 0.878204
-0.291217 -0.121594 0.878768
-0.290537 -0.120975 0.879213
-0.289948 -0.120381 0.879799
-0.289295 -0.11977 0.880285
-0.288689 -0.119171 0.880843
-0.288116 -0.118582 0.881455
-0.287541 -0.117992 0.882064
-0.286799 -0.117357 0.882403
-0.286174 -0.116754 0.88293
-0.285559 -0.116153 0.883472
-0.28493 -0.11555 0.883992
-0.284504 -0.114999 0.884843
-0.284075 -0.114447 0.885689
-0.28361 -0.113885 0.886478
-0.283206 -0.113338 0.887371
-0.282841 -0.112802 0.888327
-0.282454 -0.112259 0.889249
-0.282062 -0.111714 0.890165
-0.281658 -0.111165 0.891062
-0.281149 -0.110591 0.891787
-0.280734 -0.110039 0.892669
-0.280298 -0.109481 0.893517
-0.330377 -0.165717 0.819121
-0.329689 -0.165093 0.819562
-0.328884 -0.164428 0.819854
-0.327996 -0.163732 0.820039
-0.326841 -0.162941 0.819885
-0.325462 -0.162071 0.819441
-0.323989 -0.161168 0.81887
-0.322733 -0.160345 0.818571
-0.321413 -0.159501 0.818185
-0.320407 -0.158769 0.818197
-0.319584 -0.158104 0.818443
-0.318831 -0.157464 0.818775
-0.317983 -0.156791 0.818984
-0.317308 -0.156179 0.819415
-0.316503 -0.155522 0.819677
-0.315659 -0.154852 0.819885
-0.314939 -0.154226 0.820253
-0.314195 -0.153591 0.820589
-0.31357 -0.152999 0.821081
-0.313098 -0.152459 0.821774
-0.312664 -0.151933 0.822518
-0.312154 -0.151379 0.823161
-0.311729 -0.150855 0.823918
-0.311211 -0.150299 0.824553
-0.31057 -0.149701 0.825023
-0.309949 -0.14911 0.825518
-0.309276 -0.148502 0.825944
-0.30847 -0.147849 0.826187
-0.307632 -0.147185 0.826386
-0.306863 -0.146546 0.826676
-0.306162 -0.14593 0.827058
-0.305407 -0.145296 0.827364
-0.304848 -0.144727 0.827938
-0.304295 -0.144161 0.828521
-0.303682 -0.143575 0.82902
-0.302992 -0.142963 0.829412
-0.302248 -0.142334 0.829729
-0.301367 -0.141662 0.829853
-0.300454 -0.140979 0.82993
-0.299615 -0.140321 0.830107
-0.29875 -0.139656 0.830245
-0.297986 -0.139024 0.830525
-0.29723 -0.138395 0.830812
-0.296576 -0.137798 0.831243
-0.296021 -0.137233 0.831813
-0.295679 -0.136736 0.832687
-0.295681 -0.136347 0.834052
-0.296663 -0.134682 0.842356
-0.296058 -0.134097 0.84287
-0.295448 -0.133511 0.84338
-0.294945 -0.132957 0.844043
-0.294327 -0.132367 0.844539
-0.293971 -0.131858 0.84542
-0.293622 -0.131351 0.846312
-0.293316 -0.130855 0.847268
-0.29304 -0.130369 0.848272
-0.29296 -0.12994 0.849569
-0.292702 -0.129457 0.850606
-0.29251 -0.128993 0.851744
-0.292336 -0.128533 0.852911
-0.291966 -0.128014 0.853786
-0.291713 -0.12753 0.854841
-0.291897 -0.127171 0.856558
-0.2922 -0.126846 0.858462
-0.292971 -0.126654 0.861085
-0.295587 -0.125717 0.870974
-0.295235 -0.125191 0.871921
-0.295096 -0.124725 0.873201
-0.294954 -0.124256 0.874479
-0.294757 -0.123771 0.875676
-0.294493 -0.123267 0.876772
-0.294248 -0.122767 0.8779
-0.293619 -0.12216 0.87843
-0.2929 -0.12153 0.878816
-0.292217 -0.120909 0.879259
-0.291463 -0.120269 0.879588
-0.29077 -0.119646 0.880012
-0.290045 -0.119016 0.880385
-0.289367 -0.118397 0.880831
-0.288756 -0.117798 0.881383
-0.288117 -0.11719 0.88189
-0.287302 -0.116537 0.882114
-0.286604 -0.115915 0.882523
-0.285913 -0.115295 0.882943
-0.285212 -0.114673 0.883346
-0.28475 -0.114112 0.884136
-0.284323 -0.11356 0.884984
-0.283867 -0.113001 0.885786
-0.283466 -0.112455 0.886682
-0.2831 -0.111918 0.887635
-0.282708 -0.111373 0.888547
-0.282351 -0.110836 0.88952
-0.281984 -0.110297 0.890478
-0.281515 -0.109731 0.891267
-0.281137 -0.109188 0.892211
-0.280673 -0.108624 0.893013
-0.330807 -0.164897 0.818733
-0.330149 -0.164285 0.819211
-0.329322 -0.163611 0.819476
-0.328471 -0.16293 0.81971
-0.327373 -0.162161 0.819629
-0.326066 -0.161318 0.819278
-0.324668 -0.160445 0.818806
-0.323527 -0.159664 0.818656
-0.322287 -0.158849 0.818377
-0.321364 -0.158148 0.818497
-0.320546 -0.157485 0.818752
-0.319795 -0.156845 0.819089
-0.318939 -0.15617 0.819291
-0.31829 -0.155567 0.819758
-0.317448 -0.154897 0.819973
-0.316631 -0.154237 0.82022
-0.315875 -0.153598 0.820544
-0.315122 -0.15296 0.820869
-0.3145 -0.152368 0.821367
-0.314097 -0.151851 0.822153
-0.313674 -0.151328 0.822914
-0.313201 -0.150786 0.823609
-0.312779 -0.150262 0.824372
-0.312222 -0.149692 0.824956
-0.311539 -0.149079 0.825372
-0.310878 -0.148475 0.825817
-0.310168 -0.147854 0.826194
-0.309354 -0.147198 0.82643
-0.30851 -0.146533 0.826623
-0.307774 -0.145905 0.826961
-0.30711 -0.145301 0.827395
-0.306423 -0.144689 0.827797
-0.305866 -0.144121 0.828376
-0.305314 -0.143553 0.828962
-0.304628 -0.142943 0.829364
-0.303897 -0.142318 0.829701
-0.303079 -0.141665 0.829918
-0.302129 -0.140971 0.829949
-0.301148 -0.140267 0.829934
-0.30024 -0.139588 0.830017
-0.299338 -0.138911 0.830105
-0.298538 -0.138268 0.830335
-0.297812 -0.137649 0.830667
-0.297161 -0.137053 0.831103
-0.29668 -0.136512 0.831778
-0.296407 -0.136035 0.832749
-0.296464 -0.135661 0.834193
-0.296775 -0.135365 0.836005
-0.29658 -0.135845 0.838082
-0.297268 -0.135123 0.838083
-0.297648 -0.134844 0.840009
-0.297021 -0.135191 0.841483
-0.297565 -0.13442 0.841274
-0.297306 -0.133941 0.842291
-0.296752 -0.133371 0.842882
-0.296225 -0.132809 0.843512
-0.295765 -0.132268 0.844239
-0.295125 -0.131673 0.844705
-0.294706 -0.131143 0.845494
-0.294285 -0.130613 0.84628
-0.293907 -0.130095 0.847132
-0.293573 -0.12959 0.848049
-0.29353 -0.129171 0.849401
-0.293346 -0.128708 0.850546
-0.293254 -0.128272 0.851833
-0.293188 -0.127842 0.853162
-0.292951 -0.127361 0.854239
-0.292849 -0.126919 0.855522
-0.293191 -0.126604 0.857479
-0.293595 -0.126304 0.859537
-0.294271 -0.126079 0.862015
-0.29496 -0.125855 0.864524
-0.295347 -0.126497 0.867639
-0.295752 -0.125657 0.8672
-0.295826 -0.125253 0.868793
-0.295784 -0.124814 0.87021
-0.295819 -0.124397 0.871752
-0.295719 -0.12394 0.873091
-0.295644 -0.123488 0.874474
-0.295694 -0.12307 0.876054
-0.295637 -0.12262 0.877472
-0.295226 -0.122073 0.878344
-0.294618 -0.121472 0.878908
-0.293908 -0.120843 0.879313
-0.293143 -0.1202 0.879629
-0.292346 -0.119549 0.879894
-0.291615 -0.118916 0.88026
-0.290857 -0.118276 0.880584
-0.29011 -0.11764 0.880922
-0.289457 -0.117028 0.881408
-0.288742 -0.1164 0.881794
-0.287857 -0.11573 0.881907
-0.287086 -0.115089 0.882199
-0.286348 -0.114457 0.882545
-0.285539 -0.113807 0.882771
-0.285002 -0.113228 0.883439
-0.284539 -0.112667 0.884227
-0.28405 -0.112099 0.884977
-0.283619 -0.111546 0.885819
-0.283249 -0.111007 0.886765
-0.282854 -0.110461 0.887669
-0.282499 -0.109925 0.888644
-0.282205 -0.109403 0.889721
-0.28181 -0.108856 0.890631
-0.281474 -0.108322 0.891643
-0.281045 -0.107766 0.892502
-0.330446 -0.163417 0.818657
-0.329633 -0.162749 0.818939
-0.328833 -0.162088 0.819237
-0.327865 -0.161366 0.819321
-0.326676 -0.160567 0.819123
-0.325406 -0.159741 0.818816
-0.324422 -0.159016 0.818868
-0.323302 -0.158246 0.818745
-0.322418 -0.157558 0.81892
-0.321599 -0.156894 0.819174
-0.320844 -0.156254 0.819511
-0.319946 -0.155563 0.819661
-0.319301 -0.154962 0.820135
-0.318451 -0.154289 0.820344
-0.317635 -0.153629 0.820593
-0.316901 -0.152998 0.820949
-0.316182 -0.152372 0.821323
-0.315592 -0.15179 0.821865
-0.315233 -0.151287 0.822711
-0.314849 -0.150775 0.823525
-0.31438 -0.150234 0.824228
-0.313923 -0.149697 0.824947
-0.313292 -0.149102 0.825436
-0.31253 -0.148462 0.825748
-0.311754 -0.147819 0.826041
-0.310928 -0.147159 0.826265
-0.310069 -0.146489 0.826443
-0.309222 -0.145823 0.826634
-0.308515 -0.145205 0.827013
-0.307887 -0.144613 0.827498
-0.307266 -0.144023 0.827992
-0.306711 -0.143454 0.828575
-0.306158 -0.142886 0.829161
-0.305436 -0.142265 0.829516
-0.3047 -0.141638 0.829849
-0.303847 -0.140974 0.830018
-0.302893 -0.140278 0.830046
-0.301909 -0.139575 0.830029
-0.300964 -0.138885 0.830064
-0.300024 -0.138196 0.830101
-0.299216 -0.137551 0.830322
-0.298488 -0.136931 0.830651
-0.297806 -0.136326 0.831044
-0.297326 -0.135784 0.831722
-0.297107 -0.135324 0.832771
-0.297119 -0.134934 0.83415
-0.297421 -0.134632 0.835946
-0.297818 -0.134358 0.837888
-0.298187 -0.134072 0.839794
-0.298111 -0.133649 0.841069
-0.297904 -0.133185 0.84216
-0.297378 -0.132623 0.842792
-0.296887 -0.132072 0.843475
-0.296434 -0.131532 0.844214
-0.29586 -0.130956 0.844776
-0.295443 -0.130427 0.84557
-0.294989 -0.129886 0.846308
-0.294609 -0.129367 0.847158
-0.294308 -0.128871 0.848126
-0.294245 -0.128444 0.849447
-0.294103 -0.127992 0.850656
-0.294079 -0.127574 0.852042
-0.294081 -0.127162 0.853473
-0.293956 -0.126711 0.854717
-0.294004 -0.12631 0.856227
-0.294428 -0.126015 0.858308
-0.294794 -0.1257 0.860307
-0.295345 -0.125436 0.862597
-0.295839 -0.125152 0.864809
-0.296262 -0.124846 0.866922
-0.296245 -0.124415 0.868373
-0.296062 -0.123936 0.869574
-0.29618 -0.123539 0.87124
-0.296503 -0.123198 0.873229
-0.296827 -0.122854 0.875228
-0.297126 -0.122501 0.877195
-0.297223 -0.12209 0.878855
-0.296877 -0.121559 0.879833
-0.296123 -0.120917 0.880175
-0.295334 -0.120266 0.880462
-0.294457 -0.119592 0.880607
-0.293547 -0.11891 0.880697
-0.292671 -0.118238 0.880839
-0.291812 -0.117572 0.881005
-0.290987 -0.116915 0.881221
-0.290263 -0.116285 0.881597
-0.289473 -0.115638 0.881866
-0.288514 -0.114948 0.881863
-0.287667 -0.114288 0.882035
-0.286822 -0.11363 0.882209
-0.285905 -0.112953 0.882262
-0.285259 -0.112347 0.882753
-0.284721 -0.111766 0.883419
-0.284157 -0.11118 0.884042
-0.28369 -0.110617 0.884825
-0.283319 -0.110078 0.885764
-0.282959 -0.109541 0.886726
-0.282639 -0.109013 0.887756
-0.282416 -0.108508 0.888947
-0.282096 -0.107979 0.889981
-0.281832 -0.107462 0.891112
-0.281437 -0.106913 0.892027
-0.329886 -0.161868 0.81833
-0.329134 -0.161224 0.818689
-0.328275 -0.160541 0.81891
-0.327238 -0.159798 0.818905
-0.326125 -0.159028 0.8188
-0.325339 -0.158374 0.819106
-0.324335 -0.157644 0.819133
-0.323512 -0.156979 0.819389
-0.322716 -0.156323 0.819677
-0.321987 -0.155691 0.820049
-0.321055 -0.154989 0.820159
-0.320411 -0.154388 0.820638
-0.319563 -0.153715 0.820852
-0.318748 -0.153056 0.821107
-0.318015 -0.152425 0.821467
-0.317334 -0.151811 0.821893
-0.316748 -0.15123 0.822442
-0.316358 -0.150715 0.82325
-0.315973 -0.150202 0.824065
-0.315501 -0.149659 0.824767
-0.314971 -0.149097 0.825391
-0.314297 -0.148486 0.825825
-0.313483 -0.147829 0.826072
-0.312591 -0.147147 0.826212
-0.311651 -0.14645 0.826285
-0.310745 -0.145766 0.826402
-0.30986 -0.145088 0.826543
-0.309126 -0.144461 0.826887
-0.308502 -0.143869 0.827378
-0.307914 -0.14329 0.827917
-0.307361 -0.142722 0.828505
-0.306808 -0.142154 0.829092
-0.306118 -0.141543 0.829491
-0.305381 -0.140916 0.829824
-0.304529 -0.140253 0.829998
-0.303575 -0.139559 0.830029
-0.302619 -0.138865 0.830052
-0.301637 -0.138163 0.830037
-0.30069 -0.137474 0.830068
-0.299845 -0.136817 0.830237
-0.299114 -0.136196 0.830564
-0.298431 -0.135591 0.830958
-0.297983 -0.135059 0.831682
-0.297811 -0.134612 0.832795
-0.297802 -0.134213 0.834145
-0.298086 -0.133903 0.835915
-0.298413 -0.133604 0.837753
-0.298728 -0.1333 0.839581
-0.29875 -0.132905 0.840996
-0.298546 -0.13244 0.842091
-0.298089 -0.131899 0.842823
-0.297626 -0.131356 0.843548
-0.297179 -0.130818 0.844297
-0.296642 -0.130252 0.844915
-0.296257 -0.129731 0.845755
-0.29583 -0.129198 0.846535
-0.295448 -0.128677 0.847383
-0.295148 -0.12818 0.848354
-0.295062 -0.127744 0.84964
-0.294982 -0.127309 0.850941
-0.295 -0.126901 0.852391
-0.295044 -0.126498 0.853885
-0.294997 -0.126069 0.855248
-0.295213 -0.125713 0.857009
-0.295584 -0.125398 0.859009
-0.295949 -0.12508 0.861009
-0.296304 -0.124756 0.863002
-0.296613 -0.124418 0.864933
-0.296711 -0.124018 0.86655
-0.296544 -0.123544 0.867771
-0.296355 -0.123062 0.868962
-0.296555 -0.122687 0.87075
-0.297041 -0.122387 0.872987
-0.298096 -0.122238 0.876109
-0.298558 -0.121045 0.881361
-0.297834 -0.12041 0.881755
-0.296922 -0.119725 0.881855
-0.295961 -0.119029 0.881876
-0.29493 -0.118315 0.881783
-0.293908 -0.117604 0.881698
-0.292934 -0.116908 0.881686
-0.291963 -0.116213 0.881676
-0.291123 -0.115553 0.881871
-0.29022 -0.114877 0.881963
-0.289159 -0.114162 0.881797
-0.28821 -0.113477 0.881808
-0.287326 -0.112809 0.88192
-0.286334 -0.112115 0.881855
-0.285582 -0.111482 0.882175
-0.284963 -0.110882 0.882709
-0.284326 -0.110277 0.883211
-0.28379 -0.109698 0.883878
-0.283352 -0.109143 0.884709
-0.282994 -0.108606 0.885671
-0.282709 -0.108087 0.886755
-0.28253 -0.107592 0.888016
-0.282251 -0.107071 0.889115
-0.282057 -0.106571 0.89036
-0.281694 -0.106029 0.891326
-0.283599 -0.106968 0.897224
-0.281327 -0.105486 0.892286
-0.330255 -0.161028 0.817867
-0.329491 -0.16038 0.81821
-0.328719 -0.159729 0.818542
-0.327816 -0.159034 0.818707
-0.326859 -0.158319 0.818801
-0.326204 -0.157711 0.819276
-0.325307 -0.157019 0.819441
-0.324517 -0.156365 0.819741
-0.323711 -0.155706 0.82002
-0.323014 -0.155085 0.820436
-0.322123 -0.154397 0.8206
-0.321481 -0.153796 0.821085
-0.320634 -0.153124 0.821304
-0.319846 -0.152474 0.821597
-0.319123 -0.151845 0.821972
-0.318486 -0.151247 0.822459
-0.317945 -0.15068 0.82307
-0.317583 -0.150173 0.823917
-0.317149 -0.149642 0.82467
-0.316631 -0.149083 0.825313
-0.316026 -0.148495 0.825842
-0.315311 -0.14787 0.826224
-0.31442 -0.147188 0.82637
-0.313448 -0.146481 0.826408
-0.312459 -0.145768 0.826419
-0.311513 -0.145071 0.826483
-0.310595 -0.144383 0.826582
-0.309865 -0.143757 0.826932
-0.309276 -0.143177 0.827473
-0.308657 -0.142587 0.827972
-0.308069 -0.142008 0.828512
-0.307512 -0.141438 0.829095
-0.306823 -0.140827 0.829497
-0.30609 -0.140201 0.829837
-0.305276 -0.139552 0.830066
-0.304356 -0.138868 0.830144
-0.303402 -0.138176 0.830175
-0.302417 -0.137474 0.830158
-0.301468 -0.136784 0.830188
-0.300587 -0.136117 0.83031
-0.299821 -0.135486 0.830589
-0.299136 -0.13488 0.830982
-0.298691 -0.134348 0.831711
-0.298521 -0.1339 0.832829
-0.298508 -0.133499 0.834171
-0.298783 -0.133184 0.835928
-0.299101 -0.132879 0.837752
-0.299422 -0.132573 0.839586
-0.299457 -0.132181 0.84102
-0.29926 -0.131717 0.842125
-0.298804 -0.131175 0.842859
-0.298341 -0.130632 0.843584
-0.297858 -0.130082 0.844282
-0.297328 -0.129518 0.844912
-0.296947 -0.128997 0.845758
-0.296554 -0.128473 0.846589
-0.296169 -0.127951 0.847434
-0.295867 -0.127451 0.848399
-0.295807 -0.127022 0.849726
-0.295791 -0.126603 0.851121
-0.295881 -0.126213 0.852678
-0.296001 -0.125831 0.854285
-0.296093 -0.125438 0.855855
-0.296353 -0.125091 0.857683
-0.296662 -0.124756 0.85959
-0.296951 -0.124413 0.861476
-0.297163 -0.124046 0.863253
-0.297261 -0.123646 0.864864
-0.297168 -0.123192 0.866191
-0.296929 -0.122697 0.867301
-0.296636 -0.122186 0.868331
-0.30088 -0.121139 0.88235
-0.300351 -0.120554 0.883053
-0.299443 -0.119869 0.883168
-0.298406 -0.119151 0.883079
-0.297327 -0.118423 0.882921
-0.29617 -0.117677 0.882636
-0.295024 -0.116935 0.882363
-0.293926 -0.116207 0.88216
-0.292839 -0.115482 0.881969
-0.291914 -0.114801 0.882031
-0.290903 -0.114098 0.881954
-0.289764 -0.113365 0.881668
-0.288744 -0.112663 0.881567
-0.287823 -0.111986 0.881621
-0.286763 -0.111277 0.881447
-0.285908 -0.110619 0.881601
-0.285214 -0.110001 0.882013
-0.284499 -0.109378 0.88239
-0.283894 -0.108782 0.882943
-0.283426 -0.10822 0.883722
-0.283069 -0.107683 0.884682
-0.282786 -0.107164 0.885766
-0.282641 -0.106676 0.887081
-0.282398 -0.106164 0.888239
-0.282212 -0.105664 0.889492
-0.281852 -0.105123 0.89046
-0.281512 -0.104586 0.891466
-0.328367 -0.158259 0.818474
-0.3275 -0.157577 0.818684
-0.326921 -0.156995 0.819256
-0.326107 -0.156332 0.819528
-0.325317 -0.155678 0.81983
-0.324483 -0.15501 0.820074
-0.323793 -0.154391 0.820501
-0.32294 -0.153717 0.820718
-0.3223 -0.153115 0.821205
-0.32155 -0.152477 0.821551
-0.320796 -0.151838 0.821891
-0.320184 -0.151247 0.822412
-0.319627 -0.150674 0.823006
-0.319123 -0.150119 0.823668
-0.318721 -0.149598 0.824465
-0.318237 -0.149049 0.825154
-0.317601 -0.14845 0.825645
-0.316885 -0.147825 0.82603
-0.316133 -0.147189 0.826365
-0.315207 -0.146495 0.826467
-0.3142 -0.145777 0.826461
-0.313175 -0.145054 0.826425
-0.312223 -0.144355 0.826484
-0.311303 -0.143667 0.826583
-0.310575 -0.143042 0.826938
-0.310021 -0.142473 0.827526
-0.309399 -0.141883 0.828023
-0.308771 -0.14129 0.828511
-0.308208 -0.140718 0.829086
-0.307519 -0.140107 0.82949
-0.306792 -0.139483 0.829839
-0.306051 -0.138856 0.83017
-0.305165 -0.138185 0.830298
-0.304214 -0.137493 0.830335
-0.303261 -0.136802 0.830365
-0.302314 -0.136114 0.8304
-0.301401 -0.135437 0.830481
-0.300628 -0.134804 0.830753
-0.299939 -0.134197 0.831142
-0.299495 -0.133665 0.831873
-0.299304 -0.133208 0.83296
-0.299228 -0.132787 0.834216
-0.29946 -0.132456 0.83591
-0.299739 -0.132137 0.837677
-0.30002 -0.131817 0.839453
-0.300099 -0.131435 0.840948
-0.299942 -0.130982 0.84211
-0.299484 -0.130439 0.842843
-0.29904 -0.129901 0.843597
-0.298523 -0.12934 0.844246
-0.297996 -0.128777 0.844881
-0.297619 -0.128256 0.845733
-0.297262 -0.127742 0.846617
-0.296911 -0.127229 0.847512
-0.296609 -0.126729 0.84848
-0.29658 -0.126305 0.84985
-0.296599 -0.125895 0.851297
-0.296696 -0.125505 0.852863
-0.2968 -0.125115 0.854446
-0.296924 -0.124729 0.856064
-0.297091 -0.124353 0.857752
-0.29736 -0.124004 0.859599
-0.29765 -0.123659 0.861485
-0.297827 -0.123281 0.863208
-0.297828 -0.122852 0.864672
-0.297686 -0.122383 0.865924
-0.296908 -0.121309 0.867689
-0.300739 -0.121545 0.880611
-0.302679 -0.120644 0.884038
-0.301825 -0.119972 0.884245
-0.300815 -0.11926 0.884207
-0.299701 -0.118522 0.884004
-0.298572 -0.117782 0.883773
-0.297366 -0.117024 0.883416
-0.296172 -0.11627 0.883073
-0.29496 -0.115513 0.882695
-0.293722 -0.114751 0.882271
-0.292612 -0.114024 0.882044
-0.291416 -0.113276 0.881674
-0.290166 -0.112517 0.881213
-0.289077 -0.111798 0.881002
-0.288122 -0.111115 0.881004
-0.28706 -0.110406 0.880829
-0.286201 -0.109748 0.880976
-0.285472 -0.109123 0.881331
-0.284755 -0.1085 0.881704
-0.284115 -0.107896 0.8822
-0.283643 -0.107332 0.882969
-0.283278 -0.106794 0.883915
-0.282994 -0.106274 0.884996
-0.282818 -0.105778 0.886258
-0.282609 -0.105273 0.887468
-0.282387 -0.104764 0.888662
-0.282027 -0.104223 0.889628
-0.281663 -0.10368 0.89059
-0.283524 -0.104587 0.896407
-0.281198 -0.103114 0.891385
-0.328788 -0.157439 0.818077
-0.327924 -0.156759 0.818292
-0.327395 -0.156194 0.818927
-0.32662 -0.155545 0.819249
-0.325854 -0.1549 0.819583
-0.325096 -0.154258 0.819925
-0.324481 -0.153664 0.820448
-0.323669 -0.153004 0.820719
-0.323066 -0.152415 0.821255
-0.322389 -0.151802 0.821698
-0.321669 -0.151174 0.822083
-0.321131 -0.150607 0.822702
-0.320651 -0.150059 0.823397
-0.320156 -0.149507 0.824074
-0.319683 -0.148961 0.82478
-0.319149 -0.148395 0.825406
-0.318395 -0.147757 0.825743
-0.317567 -0.147095 0.825981
-0.316778 -0.146447 0.82627
-0.315855 -0.145756 0.826379
-0.31482 -0.145029 0.826336
-0.313797 -0.144307 0.826305
-0.312844 -0.143609 0.826364
-0.311922 -0.142922 0.826463
-0.311194 -0.142297 0.826818
-0.310639 -0.141727 0.827407
-0.309981 -0.141125 0.827855
-0.309311 -0.140519 0.828287
-0.308738 -0.139944 0.828849
-0.308047 -0.139333 0.829251
-0.307328 -0.138713 0.829614
-0.306656 -0.138107 0.830039
-0.305874 -0.137468 0.830312
-0.30499 -0.136798 0.830442
-0.304112 -0.13613 0.830579
-0.303231 -0.135464 0.83071
-0.302349 -0.134796 0.830836
-0.301572 -0.134162 0.831105
-0.300875 -0.133552 0.831484
-0.300429 -0.133018 0.832216
-0.300208 -0.132552 0.833263
-0.300105 -0.13212 0.83448
-0.30027 -0.131766 0.836079
-0.300477 -0.131423 0.837743
-0.300661 -0.131072 0.839379
-0.3007 -0.130676 0.840817
-0.300505 -0.130211 0.841925
-0.300045 -0.129667 0.842655
-0.299601 -0.129128 0.843409
-0.299112 -0.128575 0.844098
-0.298614 -0.12802 0.844776
-0.298239 -0.1275 0.845632
-0.297919 -0.126994 0.846569
-0.297606 -0.126491 0.84752
-0.297346 -0.126002 0.848549
-0.297324 -0.125579 0.849931
-0.297348 -0.125168 0.851384
-0.297416 -0.124767 0.852907
-0.29745 -0.124356 0.854385
-0.297538 -0.123958 0.855949
-0.297586 -0.123548 0.857459
-0.297801 -0.123181 0.859223
-0.298065 -0.122826 0.861067
-0.298312 -0.122464 0.862893
-0.298394 -0.122056 0.864476
-0.298232 -0.121581 0.865699
-0.301285 -0.11931 0.880798
-0.301936 -0.119031 0.883323
-0.30192 -0.118577 0.884826
-0.300838 -0.117847 0.884677
-0.299668 -0.117097 0.884387
-0.298394 -0.116323 0.883929
-0.297132 -0.115553 0.883483
-0.29582 -0.114772 0.882952
-0.294498 -0.113991 0.8824
-0.293239 -0.113227 0.881941
-0.291921 -0.112451 0.88138
-0.290589 -0.111673 0.880792
-0.289427 -0.110939 0.880468
-0.288408 -0.110241 0.880367
-0.287379 -0.109542 0.880245
-0.286522 -0.108885 0.880396
-0.285765 -0.108253 0.880705
-0.285082 -0.107639 0.881133
-0.284442 -0.107036 0.881629
-0.283938 -0.106465 0.882347
-0.283538 -0.105917 0.883234
-0.283249 -0.105396 0.884304
-0.283004 -0.104883 0.885451
-0.282758 -0.104369 0.886597
-0.282503 -0.103852 0.887733
-0.282139 -0.10331 0.888691
-0.281708 -0.102752 0.88954
-0.281275 -0.102193 0.890386
-0.328214 -0.155895 0.817731
-0.327735 -0.155347 0.818428
-0.327013 -0.154717 0.818819
-0.326309 -0.154093 0.81923
-0.325626 -0.153477 0.819669
-0.325048 -0.152896 0.82024
-0.324272 -0.152249 0.820558
-0.32371 -0.151673 0.82115
-0.323079 -0.151075 0.821651
-0.322405 -0.150463 0.822097
-0.321909 -0.149909 0.822772
-0.321498 -0.149383 0.823557
-0.321011 -0.148832 0.824244
-0.320504 -0.148275 0.824908
-0.319927 -0.147694 0.825478
-0.319122 -0.14704 0.825751
-0.318215 -0.146353 0.825887
-0.317388 -0.145693 0.826127
-0.316464 -0.145002 0.826237
-0.315462 -0.144287 0.82624
-0.314476 -0.143579 0.82626
-0.313526 -0.142882 0.826325
-0.312602 -0.142195 0.826424
-0.31187 -0.141568 0.826775
-0.31128 -0.140988 0.827317
-0.310585 -0.140374 0.827717
-0.309911 -0.139767 0.828145
-0.309335 -0.139191 0.828703
-0.308674 -0.138589 0.829147
-0.30799 -0.13798 0.829559
-0.307358 -0.137386 0.830039
-0.306616 -0.13676 0.830369
-0.305771 -0.136103 0.830557
-0.304929 -0.135447 0.830745
-0.304085 -0.13479 0.830928
-0.30321 -0.134126 0.831067
-0.30243 -0.133491 0.831335
-0.301761 -0.132889 0.831756
-0.301313 -0.132354 0.832485
-0.301024 -0.131866 0.833438
-0.300915 -0.13143 0.834646
-0.30101 -0.131054 0.836147
-0.301113 -0.130678 0.837662
-0.301221 -0.130302 0.839191
-0.301249 -0.129901 0.84061
-0.301024 -0.129426 0.841675
-0.300598 -0.128892 0.842454
-0.300158 -0.128353 0.843213
-0.299637 -0.127791 0.843858
-0.299102 -0.127225 0.844483
-0.298724 -0.126703 0.845334
-0.298407 -0.126198 0.846275
-0.298135 -0.125705 0.847285
-0.297951 -0.125237 0.848425
-0.297977 -0.124826 0.849875
-0.298035 -0.124422 0.851378
-0.298129 -0.124026 0.852939
-0.298145 -0.123608 0.85439
