ply
format ascii 1.0
element vertex 1731
property float x
property float y
property float z
end_header
-0.225131 -0.215556 1.09994
-0.223488 -0.215796 1.09961
-0.221924 -0.216084 1.09951
-0.220358 -0.216369 1.09939
-0.218807 -0.216663 1.09932
-0.217345 -0.217013 1.09952
-0.21594 -0.2174 1.09989
-0.214586 -0.217823 1.10042
-0.213289 -0.218282 1.10113
-0.212024 -0.218764 1.10195
-0.210768 -0.219254 1.1028
-0.209449 -0.219702 1.10345
-0.208013 -0.220068 1.10373
-0.206501 -0.220382 1.10375
-0.204938 -0.220658 1.10361
-0.203411 -0.220958 1.10358
-0.2019 -0.221268 1.10359
-0.200467 -0.221633 1.10386
-0.199035 -0.221997 1.10413
-0.197706 -0.222436 1.10475
-0.196364 -0.222866 1.10532
-0.195199 -0.223428 1.10649
-0.194015 -0.223977 1.10761
-0.192776 -0.224489 1.10855
-0.191498 -0.224972 1.10936
-0.190157 -0.225407 1.10995
-0.188676 -0.225737 1.11006
-0.187262 -0.226116 1.11039
-0.185877 -0.226517 1.11083
-0.184333 -0.226793 1.1107
-0.1828 -0.227076 1.1106
-0.181256 -0.227349 1.11046
-0.179675 -0.227589 1.11018
-0.178794 -0.228396 1.11244
-0.178102 -0.229365 1.11543
-0.17803 -0.230858 1.12075
-0.174113 -0.238314 1.13893
-0.175193 -0.236452 1.13882
-0.176051 -0.238845 1.14806
-0.175483 -0.241186 1.1502
-0.176809 -0.241182 1.15703
-0.177246 -0.243269 1.16486
-0.17695 -0.24473 1.16991
-0.175151 -0.244858 1.16906
-0.173346 -0.244975 1.16817
-0.171552 -0.245097 1.1673
-0.169817 -0.245268 1.16665
-0.168097 -0.245449 1.16605
-0.16644 -0.245685 1.1657
-0.164808 -0.245941 1.16543
-0.163161 -0.24618 1.16509
-0.161544 -0.246445 1.16487
-0.159998 -0.246774 1.16493
-0.158388 -0.24704 1.16472
-0.158642 -0.249146 1.17248
-0.274323 -0.208352 1.11568
-0.272815 -0.208731 1.11594
-0.27126 -0.209085 1.11608
-0.269647 -0.209407 1.11606
-0.268037 -0.20973 1.11605
-0.266436 -0.210056 1.11605
-0.264683 -0.210298 1.11564
-0.262882 -0.210513 1.1151
-0.260901 -0.210625 1.11405
-0.258815 -0.210676 1.1127
-0.256675 -0.210691 1.11119
-0.254639 -0.210759 1.10994
-0.252654 -0.210851 1.10881
-0.250776 -0.210999 1.10797
-0.24897 -0.211184 1.10732
-0.247265 -0.211424 1.10693
-0.245573 -0.211671 1.10658
-0.243826 -0.211882 1.10607
-0.242035 -0.212064 1.10541
-0.240235 -0.212238 1.10472
-0.238444 -0.212413 1.10404
-0.236706 -0.212618 1.10351
-0.235013 -0.212846 1.10309
-0.233373 -0.213105 1.10282
-0.231726 -0.213357 1.10252
-0.229975 -0.213542 1.10191
-0.228281 -0.21376 1.10145
-0.226646 -0.214012 1.10116
-0.225023 -0.214269 1.1009
-0.223378 -0.21451 1.10057
-0.221837 -0.214816 1.10054
-0.220302 -0.215123 1.10053
-0.218803 -0.215452 1.10062
-0.217365 -0.215821 1.1009
-0.215984 -0.216225 1.10135
-0.214632 -0.21665 1.1019
-0.213338 -0.217114 1.10263
-0.212105 -0.217619 1.10356
-0.210848 -0.21811 1.10441
-0.209529 -0.21856 1.10507
-0.208087 -0.218925 1.10533
-0.206579 -0.219244 1.10538
-0.204993 -0.219508 1.10517
-0.203442 -0.219793 1.10507
-0.201897 -0.220082 1.10498
-0.200426 -0.220422 1.10513
-0.198908 -0.220727 1.10512
-0.197875 -0.221382 1.10673
-0.196488 -0.221781 1.10716
-0.195692 -0.222617 1.10961
-0.194908 -0.223469 1.11212
-0.193693 -0.224004 1.11316
-0.192448 -0.224519 1.11411
-0.191127 -0.224978 1.11481
-0.189641 -0.225311 1.11492
-0.188236 -0.225706 1.11532
-0.187524 -0.22664 1.11818
-0.185723 -0.226727 1.11717
-0.184841 -0.227536 1.11946
-0.177518 -0.237285 1.14939
-0.177686 -0.23909 1.15605
-0.177706 -0.240788 1.16222
-0.177514 -0.242322 1.16764
-0.176705 -0.243328 1.17069
-0.174955 -0.243501 1.17003
-0.173177 -0.243647 1.16925
-0.171381 -0.243771 1.16838
-0.169641 -0.24394 1.16772
-0.167912 -0.244117 1.16709
-0.166234 -0.244335 1.16664
-0.164603 -0.244594 1.16639
-0.162979 -0.244859 1.16615
-0.161387 -0.245149 1.16604
-0.159842 -0.245483 1.16611
-0.158232 -0.245752 1.1659
-0.274093 -0.206928 1.11625
-0.272587 -0.207309 1.11652
-0.271068 -0.207683 1.11676
-0.269533 -0.208048 1.11695
-0.26799 -0.208407 1.11712
-0.266458 -0.208771 1.11731
-0.264862 -0.209102 1.11733
-0.263194 -0.20939 1.11715
-0.261354 -0.209585 1.11649
-0.259338 -0.209679 1.11535
-0.25722 -0.209713 1.1139
-0.255047 -0.209712 1.11228
-0.252914 -0.209727 1.11076
-0.250867 -0.209784 1.10945
-0.24893 -0.209898 1.10843
-0.247132 -0.210089 1.1078
-0.245436 -0.210334 1.10743
-0.243691 -0.210549 1.10692
-0.241935 -0.210754 1.10637
-0.240204 -0.210972 1.10588
-0.238479 -0.21119 1.1054
-0.236747 -0.211401 1.10489
-0.235076 -0.211645 1.10454
-0.233398 -0.211884 1.10416
-0.231689 -0.212101 1.10369
-0.229899 -0.212266 1.10296
-0.2282 -0.212483 1.1025
-0.22651 -0.212703 1.10205
-0.224885 -0.212961 1.10178
-0.223265 -0.21322 1.10153
-0.221726 -0.213528 1.10151
-0.220191 -0.213838 1.1015
-0.218719 -0.214186 1.10168
-0.217281 -0.214556 1.10197
-0.215898 -0.214962 1.10242
-0.214596 -0.21542 1.10312
-0.213327 -0.215902 1.10394
-0.212121 -0.216427 1.10496
-0.210884 -0.216932 1.10588
-0.209587 -0.217398 1.10662
-0.208142 -0.217765 1.10689
-0.206666 -0.218109 1.10705
-0.205189 -0.218451 1.1072
-0.203751 -0.21882 1.10748
-0.202201 -0.219109 1.10739
-0.200647 -0.219395 1.10727
-0.199027 -0.219629 1.10693
-0.198326 -0.220525 1.10968
-0.197294 -0.221188 1.11133
-0.196973 -0.222376 1.11542
-0.196566 -0.223512 1.11926
-0.195656 -0.224284 1.1214
-0.194375 -0.224786 1.12228
-0.193039 -0.225246 1.12297
-0.191302 -0.225403 1.12225
-0.1896 -0.225581 1.12164
-0.188601 -0.226301 1.12352
-0.186506 -0.22617 1.12149
-0.18616 -0.227406 1.12574
-0.183646 -0.228103 1.12063
-0.18574 -0.228596 1.12977
-0.182442 -0.228664 1.12178
-0.179989 -0.238216 1.16056
-0.179333 -0.239324 1.16412
-0.17861 -0.240386 1.16745
-0.177759 -0.241348 1.17033
-0.176452 -0.241916 1.17143
-0.17475 -0.242136 1.17097
-0.173002 -0.24231 1.17031
-0.171204 -0.242437 1.16944
-0.169483 -0.242627 1.16886
-0.167771 -0.242821 1.1683
-0.166094 -0.243044 1.16787
-0.164487 -0.24333 1.16772
-0.16291 -0.243639 1.16768
-0.161358 -0.243972 1.16774
-0.159812 -0.24431 1.16783
-0.159944 -0.24627 1.17507
-0.27223 -0.20582 1.11677
-0.270741 -0.206209 1.11708
-0.269248 -0.206596 1.11739
-0.267785 -0.206998 1.11777
-0.266319 -0.207399 1.11814
-0.26479 -0.207766 1.11835
-0.26319 -0.208094 1.11835
-0.261509 -0.208377 1.11813
-0.25957 -0.208518 1.1172
-0.257521 -0.208595 1.11595
-0.25534 -0.208594 1.11432
-0.253166 -0.208592 1.11269
-0.250947 -0.208559 1.11091
-0.248931 -0.208633 1.10967
-0.247058 -0.208784 1.10882
-0.2453 -0.208996 1.10829
-0.243553 -0.209212 1.10778
-0.241861 -0.209457 1.10741
-0.240192 -0.209713 1.1071
-0.238539 -0.209977 1.10683
-0.236867 -0.210227 1.1065
-0.235194 -0.210473 1.10615
-0.233504 -0.210708 1.10575
-0.231727 -0.210888 1.10508
-0.229877 -0.211019 1.10418
-0.228144 -0.211218 1.10362
-0.226423 -0.211422 1.10308
-0.22474 -0.211646 1.10264
-0.223115 -0.211905 1.10237
-0.221602 -0.212231 1.10244
-0.2201 -0.212564 1.10254
-0.218687 -0.212951 1.1029
-0.217302 -0.213357 1.10336
-0.215942 -0.21378 1.10389
-0.214637 -0.214238 1.10459
-0.213339 -0.214702 1.10533
-0.212099 -0.215206 1.10625
-0.210806 -0.215674 1.107
-0.209503 -0.216138 1.10772
-0.208084 -0.216524 1.10808
-0.206739 -0.216959 1.10867
-0.205406 -0.217404 1.10931
-0.204136 -0.217893 1.11015
-0.202643 -0.218227 1.11026
-0.201425 -0.218754 1.11128
-0.200173 -0.219258 1.1122
-0.199883 -0.220454 1.11636
-0.199264 -0.222853 1.12469
-0.197738 -0.224631 1.13008
-0.196412 -0.225113 1.13085
-0.193401 -0.225806 1.13114
-0.190374 -0.226483 1.13136
-0.188148 -0.226268 1.12891
-0.182367 -0.239038 1.17142
-0.181006 -0.239561 1.17232
-0.179595 -0.240042 1.17302
-0.178122 -0.24047 1.17349
-0.176319 -0.240608 1.17265
-0.17459 -0.240808 1.17209
-0.172823 -0.240968 1.17136
-0.171031 -0.241103 1.17052
-0.169354 -0.241336 1.17012
-0.167664 -0.241554 1.16965
-0.166034 -0.241824 1.16942
-0.164477 -0.24216 1.16949
-0.162945 -0.242516 1.16965
-0.161412 -0.242871 1.16981
-0.159862 -0.243207 1.16989
-0.272151 -0.206792 1.12631
-0.267671 -0.205635 1.11866
-0.266241 -0.206057 1.11914
-0.264776 -0.206458 1.11952
-0.26324 -0.206823 1.1197
-0.261634 -0.207149 1.1197
-0.259796 -0.207348 1.11904
-0.257858 -0.20749 1.11811
-0.255649 -0.207481 1.11641
-0.253402 -0.207444 1.11458
-0.251128 -0.207385 1.11265
-0.248978 -0.20739 1.11104
-0.247003 -0.207487 1.10991
-0.245264 -0.207712 1.10943
-0.24354 -0.207945 1.10899
-0.24188 -0.208211 1.10872
-0.240301 -0.208523 1.10868
-0.238708 -0.208824 1.10859
-0.237039 -0.209078 1.10827
-0.235361 -0.209326 1.10792
-0.233637 -0.209544 1.10742
-0.231801 -0.209691 1.10658
-0.229885 -0.209787 1.10549
-0.22809 -0.209952 1.10475
-0.226306 -0.21012 1.10402
-0.224586 -0.210324 1.10348
-0.222958 -0.210583 1.1032
-0.221448 -0.210913 1.10328
-0.219978 -0.211267 1.10348
-0.218596 -0.211676 1.10395
-0.217215 -0.212086 1.10442
-0.215855 -0.21251 1.10496
-0.214522 -0.212951 1.10558
-0.213194 -0.213396 1.10622
-0.211948 -0.213896 1.10713
-0.210626 -0.214346 1.10779
-0.209293 -0.21479 1.10842
-0.207976 -0.215246 1.10911
-0.206742 -0.215758 1.11007
-0.205531 -0.216288 1.11111
-0.204347 -0.216839 1.11225
-0.203079 -0.217333 1.11312
-0.201947 -0.217923 1.11445
-0.200668 -0.224112 1.13632
-0.199527 -0.224739 1.13777
-0.198183 -0.225219 1.13852
-0.196806 -0.225676 1.13917
-0.19525 -0.225998 1.13919
-0.193597 -0.226245 1.13885
-0.184024 -0.239226 1.17953
-0.182065 -0.239255 1.17816
-0.180091 -0.239264 1.1767
-0.178091 -0.239244 1.17512
-0.176251 -0.239354 1.17414
-0.174467 -0.239509 1.17337
-0.172673 -0.23965 1.17253
-0.170884 -0.23979 1.1717
-0.169232 -0.240049 1.17141
-0.167593 -0.240317 1.17117
-0.166014 -0.240638 1.17116
-0.164509 -0.241025 1.17145
-0.163023 -0.241428 1.17182
-0.161513 -0.24181 1.17209
-0.159979 -0.242166 1.17225
-0.267437 -0.204209 1.11924
-0.266048 -0.204651 1.11983
-0.264639 -0.205084 1.12036
-0.263152 -0.205475 1.12068
-0.261602 -0.205832 1.12083
-0.259835 -0.206073 1.12038
-0.258013 -0.206281 1.11977
-0.255792 -0.20627 1.11804
-0.253403 -0.206161 1.11581
-0.251112 -0.206099 1.11384
-0.248983 -0.206119 1.1123
-0.247037 -0.206237 1.11125
-0.245396 -0.20652 1.11106
-0.243672 -0.206756 1.11062
-0.242035 -0.207039 1.11042
-0.240488 -0.207371 1.11048
-0.238894 -0.207675 1.1104
-0.237194 -0.207915 1.11
-0.235509 -0.208163 1.10963
-0.233779 -0.20838 1.10912
-0.23191 -0.208513 1.10819
-0.229993 -0.208612 1.1071
-0.22816 -0.208758 1.10625
-0.226307 -0.208888 1.10532
-0.224495 -0.209038 1.10451
-0.222831 -0.209277 1.10412
-0.221295 -0.209593 1.10413
-0.219831 -0.209952 1.10435
-0.21848 -0.210382 1.10491
-0.217124 -0.210809 1.10547
-0.215764 -0.211234 1.10601
-0.214429 -0.211675 1.10663
-0.213098 -0.212119 1.10727
-0.211821 -0.2126 1.10808
-0.210494 -0.213048 1.10874
-0.209209 -0.213525 1.10953
-0.207951 -0.214021 1.11042
-0.206783 -0.214579 1.1116
-0.205686 -0.215188 1.11303
-0.204612 -0.215816 1.11454
-0.203485 -0.21641 1.11589
-0.202728 -0.217265 1.11849
-0.201293 -0.223116 1.13311
-0.203281 -0.221884 1.13606
-0.203101 -0.223197 1.14079
-0.202231 -0.224025 1.14321
-0.200991 -0.22459 1.14436
-0.199608 -0.225051 1.14502
-0.198175 -0.225477 1.14551
-0.196667 -0.225845 1.14573
-0.195198 -0.226243 1.14609
-0.191605 -0.237196 1.17776
-0.192585 -0.236359 1.17541
-0.194596 -0.236726 1.18455
-0.192881 -0.236986 1.18422
-0.190566 -0.237992 1.17991
-0.191137 -0.23722 1.18376
-0.189494 -0.238766 1.18196
-0.189415 -0.23747 1.18337
-0.187781 -0.239015 1.18158
-0.187701 -0.23772 1.183
-0.185897 -0.239118 1.18054
-0.185867 -0.237869 1.18216
-0.184027 -0.238008 1.18127
-0.182152 -0.238114 1.18024
-0.180211 -0.238156 1.17892
-0.178205 -0.238137 1.17732
-0.176301 -0.238199 1.1761
-0.174477 -0.238324 1.17518
-0.172627 -0.23842 1.17413
-0.170834 -0.238562 1.17329
-0.169206 -0.238846 1.17311
-0.167639 -0.239183 1.17316
-0.166112 -0.239554 1.17338
-0.164658 -0.239992 1.1739
-0.16322 -0.240445 1.17449
-0.161707 -0.240828 1.17476
-0.160168 -0.241186 1.17492
-0.267133 -0.202744 1.11963
-0.265753 -0.203192 1.12024
-0.264387 -0.203647 1.12089
-0.262934 -0.204057 1.12131
-0.261447 -0.204449 1.12163
-0.259774 -0.204741 1.12144
-0.258258 -0.205116 1.12168
-0.256358 -0.205283 1.12085
-0.254314 -0.20537 1.1196
-0.252196 -0.20541 1.11812
-0.250196 -0.205511 1.11696
-0.248176 -0.205595 1.11573
-0.246319 -0.205766 1.11494
-0.244441 -0.205922 1.11408
-0.242678 -0.206138 1.11354
-0.240997 -0.206399 1.11322
-0.239216 -0.2066 1.11261
-0.237444 -0.206803 1.11201
-0.235664 -0.206998 1.11137
-0.233898 -0.207199 1.11076
-0.232027 -0.207335 1.10983
-0.230111 -0.207439 1.10875
-0.228273 -0.207586 1.10789
-0.226384 -0.207698 1.10686
-0.224529 -0.207827 1.10592
-0.222804 -0.208031 1.10535
-0.221236 -0.208329 1.10526
-0.219742 -0.208672 1.1054
-0.218385 -0.209099 1.10595
-0.217026 -0.209525 1.1065
-0.215664 -0.209949 1.10704
-0.214327 -0.210391 1.10766
-0.21302 -0.210852 1.10838
-0.211745 -0.211334 1.10921
-0.210442 -0.2118 1.10995
-0.209239 -0.212332 1.11101
-0.208066 -0.212886 1.11218
-0.206961 -0.213489 1.11358
-0.205948 -0.214155 1.1153
-0.204937 -0.214828 1.11703
-0.203918 -0.215499 1.11876
-0.203056 -0.220298 1.13
-0.203306 -0.220676 1.13763
-0.202737 -0.221708 1.14105
-0.201577 -0.222325 1.14246
-0.200411 -0.22294 1.14387
-0.199055 -0.223421 1.14462
-0.197645 -0.223861 1.14518
-0.196139 -0.224232 1.14541
-0.194657 -0.224619 1.14572
-0.195326 -0.227852 1.15216
-0.19485 -0.226269 1.15203
-0.195595 -0.228358 1.16041
-0.197957 -0.236143 1.18494
-0.198361 -0.233603 1.18213
-0.197842 -0.234797 1.18619
-0.196259 -0.236423 1.18469
-0.196119 -0.23506 1.18585
-0.194463 -0.235372 1.18574
-0.192747 -0.235634 1.18541
-0.191026 -0.23589 1.18504
-0.189326 -0.236159 1.18474
-0.187609 -0.236412 1.18437
-0.18583 -0.23661 1.18375
-0.1841 -0.236846 1.18329
-0.182313 -0.237029 1.18261
-0.180427 -0.237125 1.18152
-0.178441 -0.237131 1.18002
-0.176502 -0.237168 1.17867
-0.174596 -0.237229 1.17743
-0.172663 -0.237258 1.17606
-0.170904 -0.237435 1.17537
-0.169297 -0.237742 1.17528
-0.167736 -0.238089 1.17538
-0.166259 -0.23851 1.17582
-0.164889 -0.23903 1.17671
-0.163427 -0.239464 1.17721
-0.161912 -0.239851 1.17749
-0.261251 -0.203041 1.12233
-0.259616 -0.203356 1.12224
-0.251427 -0.204897 1.1217
-0.249344 -0.204956 1.1203
-0.24735 -0.20506 1.11914
-0.24539 -0.205177 1.11807
-0.243633 -0.205404 1.11756
-0.24184 -0.205608 1.11694
-0.239882 -0.205715 1.11583
-0.237966 -0.205841 1.11482
-0.236045 -0.20596 1.11378
-0.234156 -0.206094 1.11282
-0.232284 -0.206234 1.11189
-0.23037 -0.206345 1.11083
-0.228534 -0.206498 1.10998
-0.22664 -0.206612 1.10894
-0.224749 -0.206724 1.1079
-0.222957 -0.206891 1.10714
-0.22135 -0.207168 1.10694
-0.219819 -0.20749 1.10696
-0.218429 -0.207899 1.10742
-0.217065 -0.208325 1.10797
-0.215673 -0.208733 1.10842
-0.214308 -0.209156 1.10896
-0.212974 -0.209602 1.1096
-0.211702 -0.210087 1.11044
-0.210405 -0.210558 1.1112
-0.209234 -0.211112 1.11238
-0.208122 -0.211707 1.11376
-0.207073 -0.212348 1.11535
-0.206 -0.212975 1.11688
-0.204965 -0.213632 1.11855
-0.203949 -0.214306 1.12029
-0.203356 -0.215274 1.12347
-0.203179 -0.217758 1.12663
-0.203012 -0.216423 1.12753
-0.202853 -0.217712 1.13225
-0.202507 -0.218884 1.13639
-0.201955 -0.219923 1.13987
-0.200847 -0.220573 1.14145
-0.199711 -0.221206 1.14296
-0.198385 -0.221707 1.14381
-0.196977 -0.222148 1.14437
-0.195491 -0.222531 1.14466
-0.194511 -0.22329 1.14676
-0.195116 -0.225242 1.15457
-0.197349 -0.231247 1.17255
-0.197361 -0.230008 1.17423
-0.198354 -0.23234 1.18376
-0.197659 -0.233396 1.18719
-0.195903 -0.233636 1.18673
-0.19423 -0.233937 1.18657
-0.192512 -0.234199 1.18622
-0.190815 -0.234476 1.18595
-0.189166 -0.23479 1.18585
-0.1875 -0.235085 1.18568
-0.185799 -0.235352 1.18536
-0.184173 -0.235676 1.18532
-0.182494 -0.235955 1.18507
-0.18066 -0.236102 1.1842
-0.178724 -0.236156 1.1829
-0.176801 -0.236215 1.18164
-0.174794 -0.236196 1.18001
-0.172754 -0.236139 1.17822
-0.171006 -0.236331 1.17758
-0.169375 -0.236622 1.17741
-0.167794 -0.236955 1.17744
-0.166383 -0.237439 1.17817
-0.165076 -0.238019 1.17933
-0.163585 -0.238434 1.17974
-0.163679 -0.240312 1.18687
-0.162017 -0.241758 1.1847
-0.254483 -0.20406 1.12706
-0.252474 -0.204171 1.12592
-0.250394 -0.20424 1.12455
-0.248319 -0.204307 1.12318
-0.246311 -0.204405 1.12199
-0.24447 -0.204593 1.12126
-0.24262 -0.204771 1.12049
-0.24051 -0.204799 1.11894
-0.238448 -0.204849 1.11752
-0.236443 -0.204925 1.11624
-0.234509 -0.205039 1.11516
-0.232603 -0.205164 1.11414
-0.230715 -0.205296 1.11317
-0.228939 -0.205488 1.11251
-0.227046 -0.205609 1.11148
-0.225155 -0.205726 1.11045
-0.223323 -0.205875 1.10958
-0.221623 -0.2061 1.1091
-0.21997 -0.206351 1.10876
-0.218489 -0.206706 1.10895
-0.217041 -0.207081 1.10924
-0.215594 -0.207456 1.10952
-0.21425 -0.207895 1.11014
-0.212942 -0.208358 1.11086
-0.211693 -0.20886 1.11179
-0.210453 -0.209368 1.11274
-0.209364 -0.209977 1.11419
-0.208279 -0.210591 1.11567
-0.207177 -0.211198 1.1171
-0.206039 -0.211783 1.11843
-0.204924 -0.212386 1.11984
-0.203853 -0.213022 1.12141
-0.203052 -0.213847 1.1239
-0.202562 -0.214891 1.12747
-0.202204 -0.216037 1.13152
-0.201743 -0.217122 1.13527
-0.201206 -0.218163 1.13879
-0.200166 -0.218859 1.14061
-0.199041 -0.219498 1.14215
-0.197744 -0.220016 1.14309
-0.196314 -0.220439 1.14358
-0.194825 -0.22082 1.14385
-0.194362 -0.221957 1.14779
-0.195354 -0.224188 1.15701
-0.197549 -0.228899 1.17655
-0.198321 -0.231052 1.1853
-0.197454 -0.231975 1.18811
-0.19569 -0.232211 1.18762
-0.194014 -0.232512 1.18745
-0.192296 -0.232777 1.18712
-0.190605 -0.233062 1.18687
-0.188985 -0.2334 1.18688
-0.187375 -0.233743 1.18693
-0.185751 -0.234076 1.18691
-0.184179 -0.234448 1.1871
-0.182579 -0.234797 1.18716
-0.180823 -0.235014 1.18661
-0.178956 -0.235133 1.1856
-0.177082 -0.235241 1.18454
-0.176719 -0.236637 1.18955
-0.256433 -0.203911 1.12803
-0.257059 -0.202935 1.13105
-0.25514 -0.203105 1.13018
-0.253217 -0.20327 1.12929
-0.25125 -0.203407 1.12826
-0.249071 -0.203424 1.12661
-0.247055 -0.203525 1.12541
-0.245213 -0.203719 1.12469
-0.243295 -0.203865 1.12374
-0.241088 -0.203846 1.12192
-0.238966 -0.203869 1.12034
-0.236885 -0.203909 1.11885
-0.234911 -0.204005 1.11765
-0.232973 -0.204117 1.11655
-0.231133 -0.204281 1.11573
-0.22941 -0.204511 1.11524
-0.22752 -0.204639 1.11424
-0.225602 -0.204747 1.11314
-0.223709 -0.204864 1.11209
-0.221908 -0.205033 1.11132
-0.220131 -0.205213 1.1106
-0.218585 -0.205531 1.11059
-0.217103 -0.205887 1.11078
-0.215651 -0.206261 1.11106
-0.21433 -0.206717 1.11175
-0.213043 -0.207195 1.11256
-0.211823 -0.207717 1.11358
-0.210607 -0.208242 1.11463
-0.209569 -0.208885 1.11625
-0.20843 -0.209466 1.11757
-0.207263 -0.210031 1.1188
-0.20606 -0.210575 1.11992
-0.204892 -0.211143 1.12116
-0.203759 -0.211738 1.12254
-0.202959 -0.212562 1.12504
-0.202295 -0.213484 1.12803
-0.201769 -0.214509 1.13152
-0.201249 -0.215549 1.13506
-0.20057 -0.216487 1.1381
-0.19957 -0.217207 1.14005
-0.198468 -0.21786 1.14167
-0.197149 -0.218361 1.14254
-0.195717 -0.218782 1.14301
-0.194765 -0.219553 1.14519
-0.194931 -0.221147 1.1514
-0.196058 -0.223472 1.16114
-0.196437 -0.226517 1.16667
-0.197268 -0.22589 1.1713
-0.198332 -0.22823 1.18105
-0.198537 -0.229952 1.18777
-0.197205 -0.23052 1.18888
-0.195466 -0.230777 1.18848
-0.193819 -0.231102 1.18842
-0.192129 -0.231392 1.1882
-0.190468 -0.231702 1.18806
-0.188855 -0.232048 1.18811
-0.187271 -0.232416 1.18826
-0.185676 -0.232775 1.18837
-0.184134 -0.233174 1.18867
-0.182582 -0.233566 1.18894
-0.180903 -0.23385 1.1887
-0.179113 -0.234038 1.18801
-0.177341 -0.234239 1.18738
-0.25776 -0.200807 1.12975
-0.256611 -0.201385 1.13105
-0.255064 -0.201754 1.13124
-0.253413 -0.202067 1.13112
-0.251682 -0.202335 1.13077
-0.249642 -0.202434 1.12953
-0.247606 -0.202531 1.12828
-0.24574 -0.202716 1.1275
-0.243797 -0.202855 1.12649
-0.241561 -0.202827 1.1246
-0.239415 -0.202843 1.12296
-0.237301 -0.202871 1.12138
-0.235325 -0.20297 1.12019
-0.233381 -0.203085 1.11908
-0.231566 -0.203269 1.11835
-0.229891 -0.203532 1.11802
-0.228055 -0.203698 1.11719
-0.22611 -0.203796 1.11602
-0.224174 -0.203893 1.11486
-0.2223 -0.204024 1.11386
-0.220419 -0.204147 1.11284
-0.218781 -0.204412 1.11255
-0.217292 -0.204767 1.11273
-0.215836 -0.205142 1.113
-0.214491 -0.205584 1.11363
-0.213204 -0.206065 1.11445
-0.212011 -0.206605 1.11557
-0.210795 -0.207134 1.11663
-0.209703 -0.207743 1.11809
-0.208528 -0.208302 1.1193
-0.207298 -0.208827 1.12033
-0.205979 -0.209296 1.12108
-0.204779 -0.209844 1.12222
-0.203696 -0.210472 1.12377
-0.202796 -0.211227 1.12595
-0.202052 -0.212093 1.12867
-0.201454 -0.213066 1.13192
-0.200792 -0.214003 1.13499
-0.199984 -0.214848 1.13758
-0.199004 -0.215579 1.13961
-0.197901 -0.216228 1.14122
-0.196557 -0.21671 1.14199
-0.195119 -0.217125 1.14244
-0.194771 -0.218328 1.14677
-0.195485 -0.220317 1.15496
-0.197829 -0.225051 1.17497
-0.198757 -0.227283 1.18426
-0.198331 -0.228525 1.18868
-0.196903 -0.229021 1.18944
-0.195171 -0.229286 1.18908
-0.193551 -0.229634 1.18912
-0.191914 -0.229967 1.1891
-0.190304 -0.230318 1.18916
-0.188744 -0.230709 1.18942
-0.187214 -0.231124 1.18979
-0.185643 -0.231503 1.19
-0.184123 -0.231923 1.19039
-0.182572 -0.232319 1.19068
-0.180917 -0.232626 1.19054
-0.179182 -0.232867 1.19008
-0.177493 -0.233141 1.18979
-0.257605 -0.198246 1.12609
-0.256681 -0.198933 1.12799
-0.255523 -0.199502 1.12926
-0.254151 -0.199961 1.12993
-0.25261 -0.200331 1.13012
-0.251031 -0.20068 1.13019
-0.249253 -0.200921 1.1297
-0.247437 -0.201139 1.12908
-0.245726 -0.201411 1.12876
-0.243916 -0.201627 1.12814
-0.241804 -0.201673 1.12662
-0.239694 -0.201714 1.12508
-0.237641 -0.201782 1.12369
-0.235701 -0.201909 1.12263
-0.233783 -0.202043 1.1216
-0.232022 -0.202264 1.12104
-0.230346 -0.202531 1.12072
-0.228535 -0.202716 1.11999
-0.226524 -0.202781 1.11862
-0.224519 -0.202845 1.11726
-0.222541 -0.202918 1.11595
-0.22059 -0.203004 1.11472
-0.218893 -0.203238 1.11426
-0.217405 -0.203596 1.11444
-0.215979 -0.203992 1.11482
-0.21466 -0.204453 1.11554
-0.2134 -0.204952 1.11646
-0.212233 -0.20551 1.11767
-0.211017 -0.206041 1.11874
-0.20987 -0.206617 1.12004
-0.208603 -0.207118 1.12096
-0.207279 -0.207584 1.12169
-0.205849 -0.207981 1.12207
-0.204623 -0.208513 1.12314
-0.203544 -0.209143 1.12471
-0.202622 -0.209882 1.12681
-0.201838 -0.21072 1.12942
-0.201174 -0.211645 1.13245
-0.200396 -0.2125 1.13512
-0.199481 -0.213268 1.13735
-0.198469 -0.213974 1.13926
-0.197342 -0.214604 1.14079
-0.196598 -0.215508 1.14368
-0.195774 -0.216363 1.14631
-0.196101 -0.21805 1.15308
-0.19867 -0.222886 1.17379
-0.19919 -0.22479 1.18156
-0.199511 -0.226571 1.18868
-0.198536 -0.227406 1.19112
-0.196685 -0.227586 1.19033
-0.194985 -0.227877 1.19008
-0.193397 -0.228251 1.19025
-0.191786 -0.228607 1.19033
-0.190175 -0.228961 1.1904
-0.188609 -0.229349 1.19064
-0.187078 -0.229764 1.19101
-0.185506 -0.230145 1.19122
-0.183985 -0.230566 1.19162
-0.182428 -0.230959 1.19189
-0.180794 -0.231287 1.19184
-0.179113 -0.231574 1.1916
-0.179129 -0.233275 1.19817
-0.257871 -0.195915 1.12361
-0.256774 -0.196508 1.12502
-0.255754 -0.197142 1.12666
-0.254551 -0.197685 1.12779
-0.253268 -0.198188 1.1287
-0.251796 -0.198592 1.12908
-0.250333 -0.199002 1.12948
-0.248698 -0.199319 1.12939
-0.247042 -0.199624 1.12923
-0.245375 -0.199921 1.12903
-0.243659 -0.20019 1.12869
-0.241702 -0.200325 1.12762
-0.239719 -0.20044 1.12646
-0.237735 -0.20055 1.12529
-0.235908 -0.200744 1.12456
-0.234051 -0.200918 1.12373
-0.232352 -0.201178 1.12336
-0.230734 -0.201482 1.12323
-0.229006 -0.201721 1.12276
-0.22704 -0.201819 1.12155
-0.225054 -0.2019 1.12025
-0.222977 -0.201922 1.11865
-0.220935 -0.20196 1.11714
-0.219172 -0.202159 1.11649
-0.217604 -0.202472 1.11643
-0.216156 -0.202857 1.11675
-0.214864 -0.203338 1.11757
-0.213653 -0.203869 1.11865
-0.212483 -0.204427 1.11987
-0.211266 -0.204959 1.12095
-0.210087 -0.205517 1.12216
-0.208784 -0.205997 1.12297
-0.207393 -0.206422 1.12349
-0.205923 -0.206797 1.12376
-0.20467 -0.207312 1.12474
-0.203543 -0.207912 1.12616
-0.202571 -0.208617 1.12811
-0.201727 -0.209413 1.13051
-0.200973 -0.210276 1.13325
-0.200081 -0.211052 1.13554
-0.199081 -0.211759 1.13747
-0.198013 -0.212424 1.13919
-0.197438 -0.213437 1.14266
-0.197358 -0.214806 1.1479
-0.197229 -0.216156 1.15304
-0.198235 -0.21833 1.1623
-0.199612 -0.220799 1.173
-0.20027 -0.22278 1.18122
-0.20014 -0.224212 1.18667
-0.199848 -0.22554 1.19159
-0.198356 -0.225993 1.19214
-0.196504 -0.226175 1.19135
-0.194856 -0.226509 1.19131
-0.193273 -0.226889 1.1915
-0.191688 -0.227267 1.19168
-0.1901 -0.227642 1.19185
-0.188508 -0.228011 1.19199
-0.186947 -0.228404 1.19226
-0.185395 -0.228803 1.19255
-0.183844 -0.229204 1.19285
-0.182261 -0.229578 1.19301
-0.180644 -0.229922 1.19304
-0.180636 -0.231587 1.1995
-0.258895 -0.195289 1.12201
-0.259498 -0.193144 1.12049
-0.258306 -0.193681 1.12162
-0.2572 -0.194264 1.12299
-0.25607 -0.194837 1.1243
-0.254995 -0.195441 1.12578
-0.25377 -0.19597 1.12685
-0.252504 -0.19648 1.1278
-0.251097 -0.196917 1.12836
-0.249681 -0.19735 1.1289
-0.248123 -0.197708 1.12902
-0.246537 -0.19805 1.12906
-0.244939 -0.198385 1.12906
-0.243264 -0.198677 1.12884
-0.24144 -0.198886 1.12816
-0.239607 -0.199086 1.12744
-0.237719 -0.199254 1.12656
-0.235957 -0.199488 1.12603
-0.234187 -0.199714 1.12546
-0.232549 -0.200011 1.12529
-0.23094 -0.200324 1.12519
-0.2293 -0.200618 1.125
-0.227392 -0.200754 1.12397
-0.225436 -0.200858 1.12278
-0.223412 -0.200918 1.12136
-0.221412 -0.200987 1.11999
-0.219666 -0.201201 1.1194
-0.218116 -0.201531 1.11942
-0.216665 -0.201917 1.11974
-0.215289 -0.202351 1.12031
-0.214044 -0.202864 1.1213
-0.212812 -0.203387 1.12234
-0.21154 -0.203887 1.12325
-0.210307 -0.204413 1.1243
-0.208995 -0.20489 1.12509
-0.207569 -0.205297 1.12551
-0.206067 -0.205653 1.12567
-0.204835 -0.206184 1.12674
-0.203705 -0.206783 1.12816
-0.202676 -0.207452 1.12993
-0.201746 -0.208191 1.13206
-0.200878 -0.208975 1.13441
-0.199826 -0.209642 1.13616
-0.198712 -0.210272 1.13771
-0.197559 -0.210877 1.13913
-0.197573 -0.212292 1.14467
-0.198169 -0.214128 1.15233
-0.19881 -0.216019 1.16024
-0.201924 -0.22118 1.18296
-0.201858 -0.222646 1.18863
-0.201085 -0.223616 1.19178
-0.200196 -0.22451 1.19455
-0.19821 -0.224602 1.19329
-0.196409 -0.224827 1.19269
-0.194789 -0.225184 1.19276
-0.193231 -0.225586 1.19306
-0.191673 -0.225987 1.19335
-0.190109 -0.226382 1.19362
-0.188486 -0.226731 1.19366
-0.186917 -0.227122 1.1939
-0.185335 -0.227502 1.19409
-0.183732 -0.227862 1.19418
-0.182095 -0.228195 1.19414
-0.182143 -0.229891 1.20081
-0.26052 -0.192524 1.11891
-0.259853 -0.190884 1.1183
-0.258891 -0.191531 1.12005
-0.257712 -0.192073 1.12121
-0.25658 -0.192641 1.12251
-0.255422 -0.193198 1.12374
-0.254263 -0.193757 1.12498
-0.252971 -0.194249 1.12586
-0.251669 -0.194738 1.1267
-0.250263 -0.195174 1.12726
-0.248855 -0.19561 1.12781
-0.24739 -0.196016 1.1282
-0.245865 -0.19639 1.12841
-0.244332 -0.196759 1.1286
-0.242729 -0.197089 1.12857
-0.241035 -0.19737 1.12828
-0.239308 -0.19763 1.12787
-0.237522 -0.197856 1.12729
-0.23585 -0.19814 1.12703
-0.234196 -0.198434 1.12682
-0.23262 -0.198769 1.12684
-0.231077 -0.199122 1.12695
-0.229556 -0.199486 1.12713
-0.227773 -0.1997 1.12649
-0.225914 -0.199865 1.12562
-0.224017 -0.200005 1.1246
-0.222099 -0.20013 1.1235
-0.220394 -0.200374 1.12306
-0.218805 -0.200686 1.12297
-0.217313 -0.201054 1.12319
-0.215817 -0.201419 1.12339
-0.214475 -0.201877 1.12409
-0.213122 -0.202329 1.12475
-0.211788 -0.202793 1.12547
-0.210497 -0.203285 1.12634
-0.209212 -0.203782 1.12723
-0.207815 -0.204209 1.12776
-0.206345 -0.204589 1.12804
-0.205111 -0.205121 1.12912
-0.203971 -0.205717 1.13052
-0.202878 -0.206345 1.13209
-0.201833 -0.207009 1.13383
-0.200826 -0.207701 1.13573
-0.199657 -0.20829 1.13708
-0.199034 -0.20925 1.14034
-0.198415 -0.210222 1.14365
-0.199063 -0.212071 1.15146
-0.200335 -0.214375 1.16157
-0.200539 -0.218704 1.17215
-0.201667 -0.216752 1.17202
-0.202742 -0.21898 1.18167
-0.203494 -0.221009 1.19027
-0.202785 -0.222019 1.19366
-0.201436 -0.222578 1.19474
-0.200016 -0.22309 1.19558
-0.198092 -0.223231 1.19455
-0.196344 -0.223498 1.19416
-0.194748 -0.223875 1.19432
-0.193192 -0.224281 1.19464
-0.191664 -0.224707 1.19505
-0.19012 -0.225121 1.1954
-0.188495 -0.225472 1.19544
-0.186897 -0.225844 1.19558
-0.185307 -0.226219 1.19575
-0.185343 -0.227878 1.20231
-0.260109 -0.188588 1.11585
-0.259028 -0.18917 1.11726
-0.258045 -0.189803 1.11895
-0.256902 -0.190361 1.1202
-0.255788 -0.190935 1.12155
-0.254665 -0.191507 1.12288
-0.253475 -0.192048 1.12403
-0.252119 -0.192506 1.12471
-0.250809 -0.192989 1.12553
-0.249406 -0.193424 1.12609
-0.248005 -0.193861 1.12665
-0.246601 -0.194297 1.12721
-0.245162 -0.194715 1.12766
-0.243686 -0.195113 1.12801
-0.242152 -0.195481 1.12819
-0.240561 -0.195816 1.12819
-0.238969 -0.19615 1.12819
-0.237286 -0.196433 1.1279
-0.235685 -0.196759 1.12786
-0.234121 -0.197104 1.12793
-0.232601 -0.197472 1.12812
-0.231091 -0.197845 1.12834
-0.229633 -0.198248 1.12871
-0.228 -0.198549 1.12855
-0.226272 -0.198796 1.12808
-0.224532 -0.199032 1.12757
-0.222739 -0.199234 1.12688
-0.221129 -0.199541 1.12675
-0.21953 -0.199853 1.12665
-0.217995 -0.200201 1.12675
-0.21642 -0.200524 1.12672
-0.214974 -0.200923 1.1271
-0.213493 -0.201301 1.12736
-0.212088 -0.201725 1.12787
-0.210788 -0.202214 1.12872
-0.209511 -0.202719 1.12965
-0.208178 -0.203189 1.13041
-0.206793 -0.203628 1.13099
-0.205559 -0.204163 1.13208
-0.204363 -0.204725 1.13331
-0.203179 -0.205297 1.13459
-0.202018 -0.205886 1.13595
-0.200837 -0.206466 1.13726
-0.199517 -0.206955 1.1381
-0.199403 -0.208253 1.14315
-0.199356 -0.209611 1.14848
-0.204352 -0.217334 1.18322
-0.204756 -0.219098 1.19054
-0.204856 -0.220671 1.19685
-0.203564 -0.221275 1.19817
-0.201681 -0.22146 1.19733
-0.199808 -0.221645 1.19651
-0.197967 -0.221853 1.19579
-0.196304 -0.222184 1.19572
-0.194738 -0.222585 1.196
-0.193208 -0.223012 1.19642
-0.191675 -0.22344 1.19683
-0.190136 -0.223858 1.19721
-0.188483 -0.224192 1.19716
-0.186858 -0.224544 1.1972
-0.185236 -0.224899 1.19725
-0.185448 -0.229615 1.20922
-0.187027 -0.227931 1.21074
-0.262214 -0.187402 1.11292
-0.263024 -0.185386 1.11201
-0.261653 -0.185825 1.1126
-0.261186 -0.188006 1.11445
-0.260444 -0.18634 1.11364
-0.259288 -0.186883 1.11483
-0.258122 -0.187422 1.116
-0.257095 -0.18803 1.11756
-0.256004 -0.188609 1.11895
-0.254894 -0.189182 1.1203
-0.253774 -0.189753 1.12163
-0.252578 -0.190287 1.12276
-0.251247 -0.190757 1.12351
-0.249937 -0.191236 1.12432
-0.248569 -0.191688 1.12497
-0.247175 -0.192126 1.12555
-0.245806 -0.192579 1.1262
-0.244431 -0.193029 1.12683
-0.242994 -0.193446 1.12729
-0.241529 -0.193848 1.12766
-0.240062 -0.19425 1.12803
-0.23857 -0.194637 1.12832
-0.236986 -0.194975 1.12833
-0.235455 -0.195341 1.1285
-0.233953 -0.195721 1.12875
-0.232466 -0.196108 1.12905
-0.231012 -0.196514 1.12945
-0.229613 -0.19695 1.13001
-0.228151 -0.197352 1.13038
-0.226573 -0.197687 1.13039
-0.225022 -0.198036 1.13047
-0.223357 -0.198318 1.1302
-0.22181 -0.198666 1.13029
-0.220183 -0.198967 1.13012
-0.218583 -0.199282 1.13003
-0.216935 -0.199566 1.12978
-0.215423 -0.199931 1.12996
-0.213871 -0.20027 1.13
-0.212448 -0.200686 1.13047
-0.21117 -0.201192 1.13141
-0.20992 -0.201717 1.13245
-0.208626 -0.202215 1.13335
-0.207323 -0.202709 1.13422
-0.206063 -0.203232 1.13524
-0.204808 -0.20376 1.13629
-0.203507 -0.204259 1.13719
-0.202224 -0.204772 1.13815
-0.20087 -0.20524 1.13888
-0.200009 -0.206034 1.14132
-0.200487 -0.207724 1.14846
-0.201066 -0.209503 1.15604
-0.204743 -0.214845 1.18042
-0.205771 -0.217014 1.18993
-0.205412 -0.218251 1.19456
-0.204872 -0.219375 1.19858
-0.203087 -0.219634 1.19811
-0.201324 -0.219903 1.1977
-0.199541 -0.220155 1.19721
-0.197764 -0.220413 1.19674
-0.196158 -0.220788 1.19688
-0.194643 -0.221228 1.19737
-0.193116 -0.221661 1.19781
-0.191608 -0.222108 1.19832
-0.190091 -0.222547 1.1988
-0.188434 -0.222882 1.19873
-0.186782 -0.223215 1.19868
-0.186803 -0.224842 1.20518
-0.267103 -0.184868 1.11987
-0.262573 -0.183861 1.11199
-0.261151 -0.184276 1.11245
-0.259838 -0.184742 1.1132
-0.25862 -0.185253 1.11422
-0.25738 -0.185755 1.11518
-0.256295 -0.186332 1.11658
-0.255181 -0.186899 1.1179
-0.254006 -0.187437 1.11907
-0.252852 -0.187988 1.1203
-0.251625 -0.188503 1.12133
-0.250299 -0.188973 1.12208
-0.249021 -0.189466 1.12298
-0.24772 -0.189949 1.12381
-0.246368 -0.190408 1.12451
-0.245043 -0.19088 1.12528
-0.243737 -0.191363 1.12611
-0.242341 -0.191801 1.12668
-0.240945 -0.192239 1.12725
-0.239546 -0.192676 1.12782
-0.238143 -0.193111 1.12837
-0.236652 -0.193499 1.12866
-0.235186 -0.193899 1.12903
-0.233722 -0.194301 1.12939
-0.232262 -0.194705 1.12978
-0.230807 -0.19511 1.13017
-0.229405 -0.195547 1.13073
-0.228004 -0.195982 1.13129
-0.226492 -0.196356 1.13151
-0.225088 -0.19679 1.13206
-0.223574 -0.197162 1.13226
-0.222142 -0.19758 1.13273
-0.220597 -0.197933 1.13283
-0.219043 -0.19828 1.1329
-0.217372 -0.198555 1.13259
-0.215802 -0.198889 1.1326
-0.214195 -0.199199 1.13248
-0.212737 -0.199599 1.13284
-0.211483 -0.200121 1.13388
-0.210268 -0.20067 1.13505
-0.209027 -0.201204 1.13614
-0.207798 -0.201748 1.13728
-0.206559 -0.202288 1.13839
-0.20527 -0.202797 1.13934
-0.203881 -0.203244 1.13996
-0.202474 -0.203681 1.14051
-0.200971 -0.204055 1.14074
-0.200568 -0.205148 1.14478
-0.201589 -0.207193 1.15385
-0.202791 -0.209385 1.16367
-0.206232 -0.214558 1.18734
-0.206536 -0.216231 1.19432
-0.2055 -0.217004 1.19654
-0.204366 -0.217714 1.19842
-0.202667 -0.218032 1.19826
-0.20096 -0.218343 1.19806
-0.199235 -0.218639 1.19779
-0.197523 -0.218942 1.19755
-0.195976 -0.219363 1.19792
-0.194489 -0.219826 1.19852
-0.192985 -0.220276 1.19905
-0.191476 -0.220725 1.19956
-0.189956 -0.221164 1.20004
-0.189929 -0.22273 1.2063
-0.2676 -0.182693 1.1181
-0.263511 -0.181908 1.11143
-0.262017 -0.18229 1.11169
-0.260562 -0.182689 1.11205
-0.259169 -0.183116 1.11259
-0.25788 -0.183592 1.11341
-0.256574 -0.184061 1.11418
-0.25542 -0.184603 1.11538
-0.254268 -0.185148 1.1166
-0.253052 -0.185664 1.11764
-0.251897 -0.186211 1.11886
-0.250672 -0.186725 1.11989
-0.249321 -0.187179 1.12057
-0.248053 -0.187675 1.12148
-0.24679 -0.188174 1.12242
-0.245447 -0.188635 1.12313
-0.244189 -0.18914 1.12409
-0.242983 -0.189671 1.1252
-0.24166 -0.190145 1.12599
-0.240362 -0.190633 1.12684
-0.239056 -0.191117 1.12768
-0.237687 -0.191568 1.12833
-0.236258 -0.191989 1.12881
-0.234852 -0.192423 1.12935
-0.23342 -0.192841 1.12982
-0.231989 -0.193262 1.13029
-0.230559 -0.193682 1.13076
-0.229155 -0.194117 1.13132
-0.227811 -0.194585 1.13206
-0.226388 -0.19501 1.13256
-0.22505 -0.195482 1.13332
-0.22362 -0.195904 1.1338
-0.222241 -0.196354 1.13444
-0.220723 -0.196725 1.13463
-0.219199 -0.197092 1.13481
-0.21759 -0.197408 1.13471
-0.21603 -0.197751 1.13476
-0.214454 -0.198084 1.13475
-0.213025 -0.198503 1.13522
-0.211773 -0.19903 1.13628
-0.21056 -0.199582 1.13747
-0.20934 -0.200131 1.13864
-0.208158 -0.200706 1.13996
-0.206938 -0.201261 1.14115
-0.205649 -0.201774 1.14212
-0.204327 -0.202267 1.14298
-0.20299 -0.202752 1.14379
-0.201535 -0.203162 1.1442
-0.201616 -0.204571 1.14996
-0.203137 -0.206939 1.16083
-0.207636 -0.214193 1.19399
-0.207243 -0.215397 1.19851
-0.205608 -0.215763 1.19859
-0.20392 -0.216093 1.19848
-0.202248 -0.216431 1.19841
-0.200566 -0.216762 1.19831
-0.198872 -0.21708 1.19814
-0.197192 -0.217408 1.19803
-0.195675 -0.217849 1.19851
-0.194243 -0.218352 1.19932
-0.192737 -0.218804 1.19985
-0.191232 -0.219255 1.20038
-0.189706 -0.219692 1.20084
-0.189979 -0.224374 1.21294
-0.191426 -0.222561 1.2139
-0.265375 -0.179322 1.10909
-0.264141 -0.179818 1.11004
-0.26294 -0.180331 1.11109
-0.261448 -0.180713 1.11135
-0.259932 -0.181083 1.11155
-0.258475 -0.18148 1.1119
-0.25709 -0.181911 1.11246
-0.255715 -0.182346 1.11304
-0.254468 -0.182841 1.11397
-0.253281 -0.183367 1.11508
-0.25206 -0.183877 1.11611
-0.25093 -0.184433 1.11739
-0.249741 -0.184961 1.11851
-0.248431 -0.185434 1.1193
-0.247229 -0.185959 1.1204
-0.245997 -0.186472 1.12142
-0.244685 -0.186946 1.12221
-0.243429 -0.187449 1.12317
-0.242284 -0.188009 1.12446
-0.240996 -0.188499 1.12534
-0.239739 -0.189006 1.12631
-0.238471 -0.189508 1.12726
-0.237136 -0.189978 1.12801
-0.235739 -0.190415 1.12858
-0.234367 -0.190864 1.12923
-0.232965 -0.1913 1.12979
-0.231565 -0.191736 1.13035
-0.230163 -0.192171 1.13091
-0.228759 -0.192606 1.13146
-0.227417 -0.193075 1.13221
-0.226025 -0.193516 1.1328
-0.224717 -0.194006 1.13366
-0.223344 -0.19446 1.13432
-0.221996 -0.194928 1.13506
-0.220563 -0.195349 1.13553
-0.219104 -0.195755 1.13592
-0.217583 -0.196124 1.13611
-0.216111 -0.196522 1.13645
-0.214618 -0.196906 1.13672
-0.213272 -0.197378 1.13748
-0.212073 -0.197938 1.13872
-0.21086 -0.198491 1.13992
-0.209637 -0.199043 1.14111
-0.208478 -0.199633 1.14251
-0.207237 -0.200178 1.14365
-0.205925 -0.200679 1.14455
-0.204685 -0.201227 1.14571
-0.203435 -0.201771 1.14684
-0.202076 -0.202246 1.1476
-0.20265 -0.20397 1.15511
-0.206718 -0.210823 1.18649
-0.207729 -0.212938 1.19597
-0.206736 -0.213735 1.19835
-0.205162 -0.214142 1.19865
-0.203526 -0.214509 1.19872
-0.201856 -0.21485 1.19867
-0.200178 -0.215182 1.19857
-0.198509 -0.215519 1.1985
-0.196851 -0.215865 1.19847
-0.195311 -0.216291 1.19887
-0.193905 -0.216813 1.19978
-0.192427 -0.217284 1.20042
-0.192505 -0.218894 1.20703
-0.269745 -0.180204 1.11646
-0.265973 -0.177227 1.10763
-0.264832 -0.177761 1.10883
-0.263596 -0.178255 1.10977
-0.262365 -0.178753 1.11074
-0.26085 -0.179125 1.11094
-0.259302 -0.17948 1.11104
-0.257813 -0.179862 1.11131
-0.256389 -0.180274 1.11175
-0.254949 -0.180678 1.11214
-0.253667 -0.181155 1.11298
-0.252448 -0.181662 1.114
-0.251204 -0.18216 1.11495
-0.250048 -0.1827 1.11615
-0.248894 -0.183243 1.11737
-0.247619 -0.18373 1.11825
-0.246451 -0.18427 1.11944
-0.245246 -0.184794 1.12053
-0.243961 -0.185279 1.1214
-0.242702 -0.185778 1.12235
-0.241587 -0.186352 1.12372
-0.240332 -0.186856 1.12469
-0.239107 -0.187378 1.12575
-0.237873 -0.187896 1.1268
-0.236573 -0.188382 1.12765
-0.235179 -0.188819 1.12823
-0.23381 -0.18927 1.12888
-0.232413 -0.189707 1.12945
-0.231017 -0.190144 1.13003
-0.229647 -0.190596 1.13068
-0.228247 -0.191033 1.13125
-0.226932 -0.191515 1.13207
-0.225569 -0.191972 1.13276
-0.224263 -0.192462 1.13362
-0.222898 -0.19292 1.1343
-0.221634 -0.193436 1.13531
-0.220266 -0.193893 1.13599
-0.218869 -0.194335 1.13658
-0.217461 -0.19477 1.13713
-0.216101 -0.195234 1.13785
-0.214668 -0.195656 1.13832
-0.21338 -0.196163 1.13928
-0.212207 -0.19674 1.14062
-0.210989 -0.197293 1.14182
-0.209789 -0.197859 1.14309
-0.208631 -0.198453 1.14451
-0.20737 -0.198985 1.14559
-0.206086 -0.199506 1.1466
-0.204961 -0.200128 1.14817
-0.203788 -0.200722 1.14958
-0.20257 -0.201292 1.15084
-0.203643 -0.203329 1.16013
-0.206086 -0.207678 1.18007
-0.20709 -0.209754 1.18944
-0.207836 -0.211686 1.19801
-0.206287 -0.212112 1.1984
-0.204742 -0.212539 1.1988
-0.203109 -0.212909 1.19888
-0.201439 -0.213251 1.19883
-0.199761 -0.213585 1.19873
-0.198092 -0.213923 1.19866
-0.196435 -0.214268 1.19863
-0.196504 -0.215832 1.2051
-0.26703 -0.176658 1.10623
-0.267416 -0.174483 1.10423
-0.266385 -0.175058 1.1057
-0.265324 -0.175623 1.10709
-0.264166 -0.176148 1.10823
-0.262928 -0.176641 1.10917
-0.261671 -0.177125 1.11006
-0.26019 -0.177511 1.11035
-0.258643 -0.177867 1.11046
-0.257119 -0.178233 1.11062
-0.255623 -0.17861 1.11086
-0.254173 -0.179009 1.11122
-0.252862 -0.17947 1.11197
-0.251651 -0.179979 1.11301
-0.250443 -0.180491 1.11405
-0.249349 -0.181058 1.11543
-0.248233 -0.181617 1.11675
-0.24699 -0.182118 1.11772
-0.245858 -0.182673 1.11901
-0.244683 -0.183209 1.12018
-0.243399 -0.183694 1.12105
-0.242111 -0.184178 1.12191
-0.240992 -0.184747 1.12327
-0.239735 -0.185249 1.12423
-0.238513 -0.18577 1.12531
-0.23728 -0.186288 1.12635
-0.236006 -0.186785 1.12728
-0.23461 -0.187221 1.12785
-0.233242 -0.187671 1.1285
-0.231848 -0.188109 1.12908
-0.230457 -0.188548 1.12967
-0.229092 -0.189002 1.13033
-0.227695 -0.189439 1.1309
-0.226353 -0.189906 1.13165
-0.225015 -0.190375 1.1324
-0.223709 -0.190864 1.13327
-0.222376 -0.191338 1.13405
-0.221205 -0.191904 1.13535
-0.219956 -0.192429 1.13641
-0.218625 -0.192908 1.13721
-0.217305 -0.193394 1.13806
-0.216003 -0.193893 1.13897
-0.214574 -0.194318 1.13946
-0.213292 -0.194829 1.14044
-0.212146 -0.195423 1.14188
-0.210952 -0.195991 1.14317
-0.209832 -0.196605 1.14471
-0.208729 -0.197232 1.14633
-0.207523 -0.1978 1.14761
-0.20626 -0.198336 1.1487
-0.205264 -0.199039 1.15072
-0.204181 -0.199692 1.15246
-0.203115 -0.20036 1.15428
-0.203791 -0.202138 1.1622
-0.204901 -0.205514 1.17017
-0.204597 -0.204022 1.17068
-0.205473 -0.205975 1.17951
-0.206783 -0.209667 1.19589
-0.20555 -0.210298 1.1974
-0.204293 -0.210918 1.19885
-0.202717 -0.211324 1.19914
-0.202659 -0.212762 1.20501
-0.268538 -0.173948 1.10302
-0.269062 -0.171843 1.1014
-0.267865 -0.172343 1.10241
-0.266717 -0.172865 1.10356
-0.265686 -0.173438 1.10502
-0.264625 -0.174 1.10641
-0.263465 -0.174523 1.10755
-0.262229 -0.175014 1.10849
-0.260975 -0.175498 1.10938
-0.259496 -0.175884 1.10967
-0.257946 -0.176239 1.10976
-0.256385 -0.176587 1.10982
-0.254827 -0.176936 1.10988
-0.253375 -0.177332 1.11023
-0.252064 -0.177792 1.11098
-0.250858 -0.178301 1.11202
-0.249716 -0.178842 1.11325
-0.248658 -0.179423 1.11472
-0.247571 -0.179993 1.11612
-0.246365 -0.180509 1.11719
-0.245264 -0.181077 1.11857
-0.244101 -0.181617 1.11978
-0.24285 -0.182117 1.12074
-0.241563 -0.1826 1.1216
-0.240443 -0.183167 1.12296
-0.239185 -0.183667 1.12392
-0.237962 -0.184186 1.12499
-0.236728 -0.184701 1.12603
-0.235452 -0.185196 1.12695
-0.234053 -0.18563 1.12751
-0.232683 -0.186079 1.12815
-0.231288 -0.186515 1.12872
-0.229893 -0.186952 1.12929
-0.228528 -0.187404 1.12995
-0.227132 -0.18784 1.13053
-0.225765 -0.188294 1.13119
-0.224451 -0.188775 1.13202
-0.223175 -0.189278 1.13298
-0.221873 -0.189769 1.13385
-0.220738 -0.190353 1.13527
-0.219579 -0.190926 1.13662
-0.218289 -0.191428 1.13755
-0.217033 -0.19195 1.13861
-0.215788 -0.192481 1.1397
-0.214415 -0.192939 1.14038
-0.213158 -0.193466 1.14145
-0.212013 -0.19406 1.1429
-0.210819 -0.194627 1.14419
-0.209729 -0.195259 1.14585
-0.208633 -0.195891 1.1475
-0.207432 -0.196462 1.1488
-0.206212 -0.197025 1.15005
-0.205337 -0.197802 1.1525
-0.204362 -0.198522 1.15462
-0.203455 -0.199291 1.15701
-0.203766 -0.200832 1.16368
-0.204128 -0.202424 1.17062
-0.204482 -0.204031 1.1776
-0.205416 -0.20745 1.19263
-0.204536 -0.208308 1.19541
-0.203612 -0.209142 1.19805
-0.202325 -0.209741 1.19939
-0.202736 -0.214308 1.21146
-0.203999 -0.212338 1.21166
-0.27025 -0.171341 1.10037
-0.26976 -0.169817 1.10025
-0.26847 -0.170276 1.10101
-0.267219 -0.170752 1.10188
-0.266061 -0.171268 1.10299
-0.265042 -0.171843 1.10449
-0.263983 -0.172405 1.10588
-0.262823 -0.172925 1.10701
-0.261553 -0.1734 1.10786
-0.260267 -0.173868 1.10866
-0.258759 -0.174241 1.10887
-0.25721 -0.174595 1.10896
-0.255653 -0.174945 1.10902
-0.254095 -0.175294 1.10908
-0.252645 -0.175689 1.10943
-0.251337 -0.176149 1.11018
-0.250137 -0.176659 1.11123
-0.249024 -0.17721 1.11254
-0.247972 -0.177792 1.11403
-0.246916 -0.178374 1.11551
-0.245774 -0.178919 1.11677
-0.244738 -0.179515 1.11833
-0.243613 -0.180072 1.11965
-0.242426 -0.180601 1.12079
-0.24114 -0.181084 1.12166
-0.23999 -0.181635 1.12293
-0.238728 -0.182132 1.12387
-0.237477 -0.182636 1.12486
-0.236216 -0.183137 1.12582
-0.234938 -0.18363 1.12673
-0.233539 -0.184063 1.12728
-0.232138 -0.184495 1.12784
-0.23074 -0.184929 1.12839
-0.229343 -0.185364 1.12896
-0.227946 -0.185798 1.12952
-0.226546 -0.186232 1.13008
-0.225148 -0.186666 1.13064
-0.22381 -0.187134 1.13139
-0.222507 -0.187621 1.13226
-0.221235 -0.188126 1.13323
-0.220131 -0.188725 1.13474
-0.219037 -0.189332 1.13629
-0.217808 -0.189867 1.13743
-0.216613 -0.190422 1.13867
-0.215423 -0.190983 1.13995
-0.214078 -0.191457 1.14073
-0.21282 -0.191982 1.14179
-0.211701 -0.19259 1.14333
-0.210559 -0.193188 1.1448
-0.20953 -0.193854 1.14666
-0.20847 -0.194507 1.14844
-0.207297 -0.195095 1.14985
-0.206103 -0.195673 1.15119
-0.205171 -0.196414 1.15346
-0.204139 -0.197099 1.15539
-0.20321 -0.197851 1.1577
-0.203164 -0.199162 1.16314
-0.203133 -0.200496 1.16869
-0.2031 -0.201843 1.1743
-0.205033 -0.205784 1.18537
-0.205289 -0.204633 1.18792
-0.207485 -0.207464 1.20173
-0.270698 -0.16789 1.09972
-0.269261 -0.168289 1.1001
-0.267906 -0.168721 1.10069
-0.266595 -0.169172 1.1014
-0.265372 -0.169659 1.10234
-0.264344 -0.170229 1.10381
-0.263251 -0.170773 1.10511
-0.262089 -0.17129 1.10623
-0.260816 -0.171762 1.10707
-0.259528 -0.172228 1.10786
-0.25802 -0.172601 1.10806
-0.256476 -0.172956 1.10816
-0.254922 -0.173307 1.10823
-0.253402 -0.173672 1.10838
-0.251959 -0.17407 1.10875
-0.250655 -0.17453 1.10951
-0.249482 -0.17505 1.11063
-0.24837 -0.1756 1.11194
-0.247317 -0.176178 1.11342
-0.246297 -0.176774 1.11501
-0.245215 -0.177345 1.11643
-0.244219 -0.177957 1.11811
-0.243157 -0.178543 1.1196
-0.242003 -0.179087 1.12085
-0.240747 -0.179583 1.1218
-0.239565 -0.180117 1.12298
-0.2383 -0.180612 1.12392
-0.237047 -0.181114 1.12489
-0.235787 -0.181614 1.12586
-0.234513 -0.182109 1.12678
-0.233143 -0.182556 1.12743
-0.231716 -0.182974 1.12789
-0.230287 -0.183392 1.12836
-0.228859 -0.183811 1.12883
-0.227402 -0.184214 1.1292
-0.225944 -0.184616 1.12957
-0.22454 -0.185047 1.13011
-0.223201 -0.185513 1.13086
-0.221873 -0.185984 1.13165
-0.220632 -0.186505 1.13271
-0.219552 -0.187114 1.1343
-0.218485 -0.187734 1.13594
-0.217286 -0.188283 1.13716
-0.21615 -0.18887 1.1386
-0.214964 -0.189431 1.13989
-0.213646 -0.18992 1.14076
-0.212361 -0.190429 1.14174
-0.211241 -0.191034 1.14327
-0.210102 -0.191631 1.14475
-0.209124 -0.192326 1.14679
-0.2081 -0.192998 1.14869
-0.206986 -0.19362 1.1503
-0.205822 -0.194216 1.15175
-0.204915 -0.19497 1.1541
-0.203883 -0.195653 1.15604
-0.202977 -0.196418 1.15844
-0.202586 -0.197507 1.16268
-0.202202 -0.198613 1.16699
-0.201818 -0.199731 1.17134
-0.270112 -0.16633 1.09935
-0.26871 -0.166743 1.09982
-0.267337 -0.167167 1.10036
-0.265971 -0.167594 1.10092
-0.264681 -0.168052 1.10168
-0.263616 -0.168603 1.10305
-0.262458 -0.169119 1.10417
-0.261294 -0.169633 1.10529
-0.259988 -0.170089 1.10603
-0.258698 -0.170553 1.10681
-0.257222 -0.170938 1.10709
-0.255714 -0.171308 1.10728
-0.254201 -0.171676 1.10746
-0.25275 -0.172069 1.1078
-0.25137 -0.172495 1.10834
-0.250067 -0.172954 1.10909
-0.24892 -0.173484 1.11029
-0.24784 -0.174046 1.11169
-0.246817 -0.174637 1.11325
-0.245832 -0.175247 1.11494
-0.244784 -0.175832 1.11646
-0.243821 -0.176458 1.11823
-0.242761 -0.177042 1.11974
-0.24161 -0.177586 1.12099
-0.240353 -0.178081 1.12194
-0.239139 -0.178599 1.12302
-0.23787 -0.179091 1.12395
-0.236612 -0.17959 1.12491
-0.235357 -0.180092 1.12589
-0.234087 -0.180587 1.12683
-0.232749 -0.18105 1.12757
-0.231321 -0.181468 1.12804
-0.229893 -0.181886 1.1285
-0.228465 -0.182304 1.12897
-0.226949 -0.182678 1.12916
-0.225456 -0.183062 1.12943
-0.224016 -0.183474 1.12985
-0.22265 -0.183924 1.13051
-0.221296 -0.184381 1.13121
-0.22008 -0.184913 1.13235
-0.218971 -0.185504 1.13385
-0.217876 -0.186106 1.13539
-0.216703 -0.186667 1.1367
-0.215567 -0.187252 1.13814
-0.214386 -0.187814 1.13944
-0.213098 -0.188319 1.1404
-0.211841 -0.188842 1.14147
-0.210692 -0.189429 1.14291
-0.209577 -0.190037 1.14447
-0.208604 -0.190733 1.14653
-0.207609 -0.191418 1.14852
-0.206526 -0.192056 1.15024
-0.205366 -0.192653 1.15171
-0.204409 -0.193374 1.15389
-0.203348 -0.194037 1.15573
-0.202406 -0.194776 1.158
-0.201719 -0.195678 1.16119
-0.201048 -0.196598 1.16448
-0.200412 -0.197547 1.16793
-0.270991 -0.164384 1.09868
-0.269561 -0.164784 1.09907
-0.268169 -0.165201 1.09956
-0.266767 -0.165613 1.10002
-0.265338 -0.166014 1.10041
-0.264012 -0.166457 1.10108
-0.262909 -0.16699 1.10234
-0.261717 -0.167489 1.10337
-0.260555 -0.168002 1.10449
-0.259253 -0.168458 1.10523
-0.257965 -0.168922 1.10602
-0.256493 -0.169307 1.1063
-0.25502 -0.169692 1.10658
-0.253544 -0.170075 1.10686
-0.252128 -0.170484 1.10729
-0.250784 -0.170924 1.10793
-0.249514 -0.171397 1.10878
-0.24837 -0.171926 1.10998
-0.247287 -0.172485 1.11137
-0.24627 -0.173075 1.11295
-0.245315 -0.173697 1.11472
-0.244303 -0.174296 1.11634
-0.243371 -0.174934 1.11821
-0.242341 -0.17553 1.1198
-0.241246 -0.176099 1.12122
-0.239991 -0.176594 1.12218
-0.238746 -0.177097 1.12317
-0.237472 -0.177586 1.12408
-0.23621 -0.178082 1.12503
-0.234929 -0.178571 1.12593
-0.233662 -0.179067 1.12688
-0.232354 -0.179543 1.12771
-0.230926 -0.179962 1.12818
-0.229498 -0.18038 1.12864
