ply
format ascii 1.0
element vertex 1629
property float x
property float y
property float z
end_header
0.0323842 0.00748301 0.2064
0.0323605 0.00686592 0.206286
0.032339 0.00625102 0.206202
0.0323249 0.00564069 0.206203
0.0323151 0.00503305 0.206255
0.0323148 0.00443038 0.206415
0.0323139 0.00382725 0.20657
0.0323102 0.00322243 0.206691
0.0323125 0.00262031 0.206882
0.0323157 0.00201837 0.207087
0.032313 0.00141343 0.207221
0.0323124 0.000809094 0.207379
0.0323106 0.000204134 0.207524
0.0323037 -0.00040309 0.207606
0.032297 -0.00101009 0.207694
0.0322959 -0.0016153 0.207846
0.0322914 -0.00222176 0.207959
0.0322876 -0.00282812 0.208083
0.0332154 -0.0106783 0.22122
0.0331684 -0.0113066 0.220834
0.033119 -0.0119333 0.220423
0.0330496 -0.0125583 0.219774
0.0329774 -0.0131804 0.219088
0.0328968 -0.0137999 0.218301
0.0328356 -0.014418 0.217747
0.0327875 -0.0150348 0.217348
0.0327387 -0.0156501 0.216936
0.0327016 -0.0162655 0.216664
0.0326794 -0.0168819 0.216573
0.0326466 -0.0174957 0.216351
0.032617 -0.0181092 0.216168
0.0326013 -0.0187247 0.216152
0.0325836 -0.0193396 0.21611
0.0325516 -0.0199506 0.215899
0.0325242 -0.0205616 0.215743
0.0324956 -0.0211716 0.215571
0.0324651 -0.0217799 0.215377
0.0348837 0.0320475 0.221728
0.0347809 0.0312874 0.220737
0.0347118 0.0305736 0.220128
0.034643 0.0298626 0.219523
0.0345823 0.0291638 0.219009
0.0345077 0.0284499 0.218334
0.034427 0.0277316 0.217593
0.0343328 0.027 0.216697
0.0342537 0.0262889 0.21597
0.0341865 0.0255944 0.215381
0.0341483 0.0249338 0.215114
0.034117 0.0242824 0.21493
0.034083 0.0236289 0.214713
0.0340451 0.0229719 0.214449
0.0339904 0.0222987 0.213995
0.0338724 0.0209493 0.212992
0.0338252 0.020289 0.212623
0.0337894 0.0196414 0.212385
0.0337614 0.0190018 0.212231
0.0337407 0.01837 0.212161
0.0337334 0.017751 0.212246
0.0337305 0.0171355 0.212376
0.0337301 0.0165225 0.212539
0.0337263 0.0159061 0.212662
0.0337156 0.0152839 0.212706
0.033698 0.0146564 0.212676
0.0336706 0.0140212 0.212529
0.0336206 0.013369 0.212123
0.033555 0.012707 0.211544
0.0334788 0.012039 0.21084
0.0333901 0.0113647 0.209993
0.0332843 0.0106811 0.208948
0.0331926 0.0100111 0.208064
0.0331164 0.00935469 0.20736
0.0330558 0.00871068 0.206828
0.0330112 0.00807884 0.20648
0.0329853 0.00745986 0.206346
0.0329642 0.00684454 0.20627
0.0329456 0.0062311 0.206221
0.0329317 0.00562067 0.206225
0.0329252 0.00501451 0.206315
0.0329261 0.00441201 0.206487
0.0329257 0.00380869 0.206648
0.0329279 0.00320628 0.206835
0.0329332 0.00260497 0.20706
0.0329365 0.00200236 0.207263
0.0329341 0.00139687 0.207398
0.0329327 0.000791697 0.207546
0.0329247 0.000183687 0.207618
0.0329079 -0.000427352 0.207591
0.032892 -0.00103794 0.20757
0.0328869 -0.00164453 0.207676
0.0328779 -0.00225235 0.207737
0.0328681 -0.00286047 0.207787
0.0338689 -0.0107066 0.221543
0.0338141 -0.0113358 0.221075
0.0337625 -0.0119632 0.220647
0.033699 -0.0125886 0.220081
0.0336389 -0.0132122 0.219551
0.0335676 -0.013833 0.21889
0.0335147 -0.0144526 0.218445
0.0334688 -0.0150714 0.218081
0.0334182 -0.0156883 0.217659
0.0333769 -0.0163045 0.217348
0.0333479 -0.0169213 0.21718
0.0333113 -0.0175357 0.216919
0.0332811 -0.0181505 0.216735
0.0332629 -0.0187667 0.216693
0.033242 -0.019382 0.216617
0.033209 -0.0199936 0.216398
0.0331771 -0.0206047 0.216195
0.0353506 0.0311946 0.220017
0.0353008 0.0305072 0.219635
0.0352455 0.0298144 0.21919
0.0351986 0.0291336 0.218839
0.0351336 0.0284328 0.218286
0.0350563 0.0277197 0.217597
0.034961 0.0269883 0.216705
0.0348824 0.0262793 0.216001
0.0348101 0.0255799 0.215366
0.0347639 0.0249111 0.215019
0.0347292 0.024256 0.214797
0.0347034 0.0236118 0.214679
0.0346703 0.02296 0.214473
0.0346227 0.022295 0.214112
0.0345739 0.0216301 0.213735
0.0345213 0.0209627 0.213313
0.0344704 0.0202989 0.212912
0.0344328 0.0196491 0.212658
0.0344002 0.0190053 0.212461
0.0343755 0.0183693 0.212349
0.0343582 0.0177406 0.21232
0.034348 0.0171187 0.212372
0.0343405 0.0164991 0.212453
0.0343298 0.0158766 0.212497
0.034312 0.0152487 0.212464
0.0342939 0.014621 0.212428
0.0342666 0.0139862 0.212285
0.0342161 0.0133347 0.211887
0.0341534 0.0126755 0.211348
0.0340789 0.0120099 0.210679
0.0339956 0.0113405 0.20991
0.0338817 0.0106525 0.208792
0.0337846 0.00997992 0.207867
0.0337036 0.00932128 0.207122
0.0336403 0.00867647 0.206573
0.0336029 0.00804971 0.206315
0.0335829 0.00743464 0.206254
0.0335656 0.00682131 0.206219
0.0335502 0.00620982 0.206212
0.0335426 0.00560257 0.206288
0.03354 0.00499814 0.206423
0.0335443 0.00439672 0.206629
0.0335475 0.00379453 0.206827
0.0335525 0.0031928 0.207045
0.0335549 0.00258955 0.207237
0.0335553 0.00198502 0.207404
0.0335528 0.00137893 0.207536
0.0335449 0.000770768 0.207614
0.0335301 0.00015979 0.207608
0.0335063 -0.000454089 0.207501
0.0334855 -0.0010663 0.207428
0.0334731 -0.00167529 0.207451
0.0334621 -0.00228362 0.207492
0.034584 -0.0101028 0.222382
0.0345284 -0.0107344 0.221918
0.0344661 -0.0113647 0.221375
0.0344106 -0.0119926 0.220911
0.0343498 -0.012619 0.220385
0.0342926 -0.0132435 0.219903
0.0342271 -0.0138656 0.219325
0.0341774 -0.0144863 0.218921
0.0341306 -0.0151063 0.218557
0.0340784 -0.0157236 0.218129
0.0340331 -0.0163406 0.217778
0.0340035 -0.0169581 0.217605
0.0339655 -0.0175738 0.217341
0.033935 -0.0181893 0.217155
0.0339193 -0.0188071 0.217146
0.0338986 -0.0194233 0.217075
0.0338656 -0.0200364 0.216862
0.0338366 -0.0206494 0.216697
0.0335063 -0.0213161 0.220211
0.0358931 0.0304455 0.219184
0.0358491 0.0297677 0.218871
0.0358102 0.0290977 0.218616
0.0357566 0.0284114 0.218199
0.0356875 0.027709 0.217611
0.0356006 0.0269888 0.216831
0.0355238 0.0262826 0.21616
0.0354494 0.0255814 0.215513
0.0353949 0.0249042 0.215084
0.0353561 0.0242453 0.214827
0.0353306 0.0236012 0.214713
0.0353037 0.0229564 0.214585
0.0352601 0.0222952 0.214271
0.035215 0.0216343 0.213944
0.03517 0.0209745 0.213615
0.035122 0.0203134 0.213256
0.0350793 0.0196587 0.212952
0.0350464 0.0190139 0.212753
0.0350201 0.0183761 0.212628
0.0349921 0.0177375 0.212485
0.0349743 0.0171085 0.212453
0.0349596 0.0164827 0.212459
0.0349417 0.0158542 0.212426
0.0349203 0.0152232 0.212352
0.0349046 0.0145973 0.212343
0.034883 0.0139673 0.212271
0.0348416 0.0133228 0.211979
0.0347915 0.0126732 0.21159
0.0347285 0.012016 0.211061
0.0346339 0.0113389 0.210184
0.0345198 0.0106517 0.20909
0.0344027 0.00996612 0.207959
0.0342993 0.00929356 0.206982
0.0342161 0.00863712 0.206228
0.0341876 0.00801645 0.206074
0.0341716 0.00740392 0.206059
0.0341611 0.00679466 0.206101
0.0341529 0.00618697 0.206173
0.0341488 0.0055815 0.206289
0.0341557 0.00498145 0.206524
0.0341661 0.00438277 0.206802
0.0341761 0.00378328 0.207076
0.0341849 0.00318244 0.207331
0.0341905 0.00257966 0.207554
0.034188 0.00197297 0.207686
0.0341818 0.00136475 0.20778
0.0341679 0.000753416 0.207787
0.034143 0.000138247 0.207672
0.0341119 -0.000478367 0.207489
0.0340826 -0.00109348 0.207327
0.0340608 -0.00170555 0.207244
0.0340423 -0.00231607 0.2072
0.0346338 -0.00946967 0.222776
0.0352992 -0.00949572 0.223178
0.0352542 -0.0101296 0.222846
0.0351835 -0.0107627 0.22222
0.0351138 -0.011394 0.22161
0.0350545 -0.0120227 0.221115
0.0349922 -0.0126494 0.220584
0.0349311 -0.0132745 0.220067
0.0348682 -0.0138969 0.219529
0.0348215 -0.0145189 0.219168
0.0347773 -0.0151397 0.218841
0.0347277 -0.0157583 0.218453
0.0346813 -0.0163757 0.218099
0.0346543 -0.0169946 0.217958
0.0346187 -0.0176111 0.217725
0.0345905 -0.0182282 0.217574
0.0345758 -0.0188474 0.217573
0.0345582 -0.0194655 0.217541
0.034528 -0.0200799 0.217366
0.0344975 -0.020694 0.217191
0.036496 0.0303977 0.218856
0.0364604 0.0297311 0.218642
0.036426 0.0290667 0.218439
0.0363805 0.0283908 0.218118
0.0363215 0.027701 0.217653
0.0362475 0.0269961 0.217023
0.0361846 0.0263059 0.216514
0.0361122 0.0256075 0.215903
0.0360561 0.0249288 0.215469
0.0360131 0.0242648 0.21517
0.0359804 0.0236131 0.214986
0.035944 0.0229582 0.214757
0.0359005 0.0222973 0.214452
0.0358526 0.0216338 0.214102
0.0358154 0.0209815 0.213865
0.035776 0.0203284 0.213604
0.0357369 0.0196765 0.213346
0.0357094 0.0190365 0.213215
0.0356891 0.0184032 0.213158
0.0356601 0.0177631 0.21301
0.0356452 0.0171354 0.21301
0.0356269 0.0165053 0.212976
0.0356016 0.0158699 0.212865
0.0355726 0.0152322 0.212714
0.0355562 0.0146051 0.2127
0.0355384 0.0139772 0.21267
0.0355142 0.0133449 0.21257
0.0354692 0.0126983 0.212246
0.0354093 0.0120427 0.211762
0.0353053 0.0113588 0.2108
0.035216 0.0106882 0.209996
0.0349592 0.00930623 0.207537
0.0348686 0.00864503 0.206718
0.0349075 0.00806345 0.207298
0.0349083 0.00745848 0.207469
0.0349731 0.0068888 0.208331
0.0350333 0.00631409 0.209144
0.0350298 0.00570358 0.209264
0.0349807 0.00507007 0.208893
0.0349308 0.00443771 0.208512
0.0348788 0.00380585 0.208107
0.0348303 0.00317705 0.207738
0.0348358 0.00257338 0.207962
0.0348327 0.00196546 0.208087
0.0348233 0.00135487 0.208143
0.0348054 0.000741357 0.208111
0.0347735 0.000122944 0.207921
0.0347329 -0.000497504 0.207639
0.0346918 -0.00111689 0.207351
0.0346583 -0.00173273 0.207148
0.0359974 -0.00888713 0.223754
0.0359477 -0.00952326 0.223374
0.0359066 -0.0101573 0.223086
0.0358402 -0.0107914 0.222524
0.0357637 -0.0114233 0.221854
0.0356995 -0.0120526 0.221315
0.0356351 -0.0126801 0.220774
0.0355763 -0.0133055 0.220291
0.0355157 -0.0139287 0.219788
0.0354745 -0.0145519 0.219502
0.0354334 -0.0151737 0.219214
0.0353868 -0.0157933 0.218867
0.0353405 -0.0164122 0.21852
0.0353132 -0.0170321 0.218385
0.0352776 -0.0176494 0.218154
0.0352491 -0.0182676 0.218007
0.0352343 -0.0188875 0.218005
0.0352198 -0.0195072 0.21801
0.0351959 -0.0201245 0.217913
0.035169 -0.0207405 0.217779
0.0369969 0.0283613 0.217955
0.036951 0.0276868 0.217636
0.0368905 0.0269983 0.217166
0.036841 0.0263229 0.216808
0.0367785 0.0256351 0.216311
0.0367287 0.0249627 0.215951
0.0366884 0.0243011 0.215687
0.0366518 0.0236447 0.215465
0.036607 0.022981 0.215154
0.0365603 0.0223169 0.214824
0.0365072 0.0216483 0.214428
0.0364663 0.0209922 0.214156
0.0364302 0.0203418 0.213936
0.036397 0.0196954 0.213751
0.0363736 0.019058 0.213664
0.0363544 0.0184249 0.21362
0.0363295 0.0177874 0.213519
0.0363183 0.017162 0.213563
0.0363026 0.0165329 0.213558
0.0362732 0.0158933 0.213408
0.0362431 0.0152539 0.213249
0.0362267 0.0146259 0.213239
0.0362128 0.0139998 0.213253
0.0362008 0.0133755 0.213288
0.0361783 0.0127436 0.213207
0.0361283 0.0120937 0.21284
0.0360269 0.0114107 0.211923
0.035939 0.0107397 0.211149
0.0357451 0.0100045 0.209251
0.0354819 0.00862797 0.206768
0.0355532 0.00806448 0.207685
0.0355629 0.00746344 0.207947
0.0356612 0.00691036 0.209155
0.0358081 0.00637915 0.210876
0.0358577 0.00579293 0.211566
0.0358545 0.00517842 0.211692
0.035785 0.00453213 0.211109
0.0357123 0.00388662 0.210494
0.0355957 0.00322414 0.209413
0.0355381 0.00259028 0.208955
0.0354751 0.001956 0.208439
0.0354644 0.00134431 0.208488
0.0354423 0.000728362 0.208411
0.0354045 0.000107287 0.208164
0.0353588 -0.000515291 0.207833
0.0353066 -0.00113861 0.207433
0.0366684 -0.0089128 0.224167
0.0366272 -0.00954891 0.223889
0.0365835 -0.0101842 0.223584
0.0365218 -0.0108188 0.223082
0.0364467 -0.0114519 0.222437
0.0363696 -0.0120825 0.221771
0.0362933 -0.0127105 0.221112
0.0362293 -0.0133367 0.220586
0.0361612 -0.0139609 0.220011
0.0361193 -0.0145842 0.219727
0.0360779 -0.0152064 0.219441
0.0360346 -0.0158274 0.219134
0.0359914 -0.016447 0.21883
0.035968 -0.0170683 0.218744
0.0359354 -0.0176875 0.218552
0.0359137 -0.0183079 0.21848
0.0359023 -0.0189292 0.218517
0.0358915 -0.019551 0.218565
0.0358739 -0.0201712 0.218536
0.0375785 0.0276703 0.217595
0.037536 0.0270015 0.217319
0.037502 0.0263427 0.21713
0.037451 0.0256673 0.216765
0.0374118 0.0250052 0.21652
0.0373707 0.0243423 0.216255
0.037333 0.0236843 0.216029
0.0372827 0.0230146 0.215667
0.0372337 0.022348 0.215321
0.0371787 0.0216771 0.214913
0.0371332 0.0210164 0.214601
0.0370896 0.0203589 0.21431
0.037053 0.0197086 0.21409
0.0370328 0.0190735 0.21404
0.0370147 0.0184407 0.214013
0.0369956 0.0178071 0.213971
0.0369888 0.0171846 0.214065
0.036977 0.0165575 0.214101
0.0369468 0.0159163 0.213946
0.0369152 0.0152751 0.213779
0.0369059 0.0146513 0.213844
0.0368965 0.0140272 0.213904
0.0369004 0.0134127 0.214104
0.0368975 0.0127934 0.214237
0.0368908 0.0121711 0.214326
0.036505 0.00701362 0.21157
0.0367331 0.00651917 0.21412
0.0368139 0.00594239 0.215126
0.0368013 0.00531717 0.215153
0.0364092 0.00206252 0.21184
0.0363983 0.00144486 0.211886
0.0363931 0.000829196 0.211989
0.0363909 0.000214724 0.212127
0.037309 -0.00957473 0.224404
0.0372685 -0.0102109 0.224141
0.0372062 -0.0108467 0.223647
0.0371264 -0.0114809 0.222965
0.0370439 -0.0121126 0.222253
0.0369585 -0.0127415 0.221507
0.0368864 -0.0133683 0.220906
0.0368163 -0.0139929 0.220327
0.0367706 -0.0146168 0.220005
0.0367284 -0.0152401 0.219717
0.0366877 -0.015862 0.219446
0.0366479 -0.0164831 0.219184
0.036628 -0.0171055 0.219135
0.0365987 -0.0177262 0.218985
0.0365765 -0.0183473 0.218915
0.0365687 -0.0189705 0.218993
0.0365619 -0.0195941 0.219081
0.0382027 0.0276497 0.217517
0.0381731 0.0269948 0.217376
0.0381487 0.0263461 0.217291
0.0381136 0.025687 0.217094
0.0380884 0.0250388 0.216998
0.0380547 0.0243827 0.216815
0.0380168 0.0237235 0.21659
0.0379657 0.0230528 0.21623
0.0379119 0.0223812 0.215843
0.0378521 0.0217054 0.215393
0.0377989 0.0210373 0.215009
0.0377501 0.020375 0.214674
0.0377082 0.0197196 0.214403
0.0376902 0.019086 0.214381
0.0376761 0.0184556 0.214394
0.0376648 0.017828 0.214439
0.0376663 0.0172106 0.214614
0.037662 0.0165883 0.214727
0.0376314 0.0159461 0.214575
0.0376039 0.0153067 0.214452
0.0375982 0.0146842 0.214554
0.037592 0.0140612 0.214652
0.037613 0.013457 0.215026
0.0376412 0.0128566 0.215472
0.0376775 0.0122607 0.216006
0.037654 0.0116245 0.215925
0.0373757 0.00217663 0.215453
0.0373685 0.0015542 0.215541
0.0373902 0.000941902 0.215922
0.0379818 -0.0102363 0.224966
0.0379155 -0.0108737 0.22444
0.0378298 -0.0115095 0.223713
0.0377415 -0.0121428 0.222952
0.0376495 -0.012773 0.222158
0.0375761 -0.0134011 0.221551
0.0375008 -0.0140265 0.220929
0.0374463 -0.0146513 0.220522
0.0373953 -0.0152749 0.220152
0.0373464 -0.015897 0.219799
0.0372987 -0.0165178 0.219463
0.0372755 -0.0171406 0.21938
0.0372491 -0.0177627 0.219265
0.0372336 -0.0183854 0.219266
0.0372298 -0.0190106 0.219388
0.0372309 -0.0196367 0.219558
0.0369287 -0.0203021 0.223158
0.0388242 0.0276261 0.217409
0.0388045 0.0269819 0.217374
0.0387903 0.0263432 0.217388
0.0387668 0.0256956 0.217311
0.0387528 0.0250581 0.217332
0.0387276 0.02441 0.217241
0.0386902 0.0237509 0.217027
0.0386389 0.0230797 0.216672
0.0385859 0.0224083 0.216299
0.0385295 0.0217353 0.215891
0.038475 0.0210659 0.215504
0.0384248 0.0204017 0.21516
0.0383766 0.0197404 0.214834
0.0383607 0.0191076 0.214833
0.0383486 0.0184784 0.214873
0.0383456 0.0178562 0.214999
0.0383514 0.017241 0.215217
0.0383541 0.0166227 0.215401
0.0383233 0.015979 0.215248
0.0382925 0.0153362 0.215097
0.0382875 0.0147129 0.215207
0.0382851 0.0140911 0.215342
0.0383099 0.0134877 0.215748
0.0383528 0.0128953 0.216339
0.038416 0.0123148 0.217137
0.0384698 0.0117255 0.217837
0.0385703 0.0111635 0.219012
0.0383561 0.00229087 0.219081
0.0383537 0.00166382 0.219216
0.0383978 0.00105295 0.219822
0.0374316 0.000335504 0.216511
0.0388356 -0.00961608 0.227036
0.03873 -0.01026 0.226118
0.0386314 -0.0109009 0.225269
0.0385445 -0.0115381 0.224541
0.0384538 -0.012173 0.223774
0.0383649 -0.0128047 0.223025
0.038293 -0.0134348 0.222448
0.0382155 -0.0140619 0.221817
0.038159 -0.0146883 0.221399
0.0380956 -0.0153126 0.220906
0.0380299 -0.0159345 0.22039
0.0379723 -0.0165555 0.219959
0.0379366 -0.0171777 0.219754
0.0379063 -0.0177998 0.219602
0.0378951 -0.0184246 0.219646
0.0378994 -0.0190516 0.21985
0.0394137 0.0263214 0.217301
0.0393985 0.0256819 0.217307
0.0393924 0.0250522 0.217409
0.0393789 0.0244148 0.217433
0.0393524 0.0237657 0.217331
0.0393127 0.0231051 0.217098
0.0392705 0.0224431 0.216839
0.0392247 0.0217795 0.216548
0.0391703 0.0211092 0.216168
0.0391194 0.0204434 0.215822
0.0390625 0.0197742 0.215417
0.0390415 0.0191362 0.21537
0.0390265 0.0185031 0.215377
0.0390197 0.017877 0.215468
0.0390152 0.0172526 0.215581
0.0390242 0.0166382 0.215828
0.0389888 0.0159905 0.215634
0.0389576 0.0153469 0.215485
0.0389535 0.0147229 0.215599
0.0389549 0.014103 0.215773
0.0389761 0.0134957 0.216139
0.0390207 0.0129031 0.216739
0.0390834 0.0123204 0.217521
0.0391418 0.0117326 0.218257
0.039221 0.0111553 0.219202
0.0392863 0.0105668 0.220007
0.0387532 0.0100175 0.221177
0.0393802 0.00999273 0.221101
0.0394418 0.00939702 0.221872
0.0390137 0.00763187 0.224455
0.0395683 0.00820076 0.22345
0.0396219 0.0075941 0.224141
0.039637 0.0069667 0.224454
0.0388884 0.00566727 0.223675
0.0396434 0.00633435 0.22468
0.0396433 0.00569838 0.224837
0.0387608 0.00497586 0.222544
0.0395736 0.00503156 0.224306
0.0386306 0.00428718 0.221383
0.0394937 0.00436219 0.223669
0.0384925 0.00359955 0.220146
0.0394228 0.0036991 0.223125
0.0384223 0.00294329 0.219591
0.0393631 0.00304234 0.222688
0.0393054 0.00238814 0.222273
0.039311 0.00175848 0.22249
0.0398254 -0.00897805 0.230393
0.03965 -0.00963419 0.22879
0.0395019 -0.0102834 0.227465
0.0393722 -0.0109273 0.226321
0.0392682 -0.0115671 0.225434
0.039181 -0.0122032 0.224714
0.0390953 -0.012837 0.224011
0.0390231 -0.0134689 0.223446
0.0389485 -0.014098 0.222852
0.0388869 -0.0147262 0.222392
0.038817 -0.0153517 0.221843
0.0387439 -0.0159747 0.221267
0.0386834 -0.0165972 0.220812
0.0386421 -0.0172204 0.220556
0.0386113 -0.0178442 0.220401
0.038604 -0.0184712 0.220488
0.0386131 -0.0191011 0.220739
0.038297 -0.0197597 0.224108
0.0401928 0.0258251 0.218874
0.040105 0.0251143 0.21818
0.040034 0.024422 0.217651
0.0400149 0.0237794 0.217624
0.0399871 0.023129 0.217509
0.0399568 0.0224772 0.217372
0.0399233 0.0218236 0.217207
0.0398797 0.0211621 0.216941
0.0398363 0.0205018 0.216677
0.0397826 0.0198343 0.216313
0.0397624 0.019195 0.216271
0.0397432 0.0185573 0.216243
0.039729 0.0179235 0.216259
0.0397088 0.0172855 0.216219
0.0397014 0.0166575 0.216305
0.0396558 0.0160019 0.21602
0.0396238 0.015357 0.215864
0.0396242 0.0147351 0.216022
0.0396268 0.0141146 0.216203
0.039652 0.0135091 0.216609
0.039698 0.0129154 0.21721
0.0397567 0.0123284 0.217941
0.0398128 0.0117377 0.218648
0.0398871 0.0111554 0.219527
0.0399387 0.0105577 0.220192
0.0400117 0.00997003 0.221062
0.0400684 0.00937079 0.221775
0.0395056 0.00880037 0.222667
0.0401256 0.00876993 0.222495
0.0401825 0.00816666 0.22321
0.0402327 0.00755799 0.22386
0.0402457 0.00692939 0.224145
0.0402521 0.00629712 0.224369
0.0402485 0.00565991 0.224493
0.0402417 0.00502114 0.224587
0.0402201 0.00437618 0.224535
0.0402165 0.00373884 0.224659
0.0402257 0.00310641 0.22491
0.0402331 0.00247276 0.225143
0.0403067 0.00186211 0.226025
0.0394385 0.00117038 0.223922
0.0404591 0.00127553 0.227682
0.0395649 0.000577522 0.225346
0.0406002 0.00068017 0.229231
0.039714 -1.26388e-05 0.226998
0.0405314 -0.00629716 0.236829
0.0413176 -0.00564991 0.237935
0.0412062 -0.00632363 0.237001
0.0411142 -0.00699131 0.236258
0.0407834 -0.008333 0.233315
0.0405966 -0.00899754 0.231631
0.0404135 -0.00965626 0.22998
0.0402479 -0.010308 0.228503
0.040101 -0.0109546 0.22721
0.0399883 -0.011596 0.226252
0.0399002 -0.0122339 0.225539
0.039822 -0.0128694 0.224925
0.0397576 -0.0135031 0.224446
0.0396936 -0.014135 0.223967
0.0396315 -0.0147651 0.223511
0.0395605 -0.0153928 0.222965
0.039482 -0.0160173 0.222346
0.0394148 -0.0166412 0.221835
0.0393652 -0.0172655 0.221499
0.0393332 -0.017891 0.221341
0.0393304 -0.0185203 0.221472
0.0393484 -0.0191537 0.221808
0.040957 0.0259332 0.220091
0.0408347 0.0251896 0.219086
0.0407072 0.0244444 0.218027
0.0406969 0.0238093 0.218088
0.0406728 0.0231613 0.218011
0.0406474 0.0225133 0.217928
0.0406232 0.0218665 0.217852
0.0405923 0.0212148 0.217714
0.0405607 0.0205632 0.217568
0.0405186 0.019904 0.217323
0.0404958 0.019261 0.21726
0.0404719 0.0186177 0.217188
0.0404482 0.0179751 0.217116
0.0404097 0.0173217 0.216902
0.0403843 0.0166794 0.216818
0.0403328 0.0160186 0.216479
0.0402964 0.01537 0.216287
0.0402935 0.0147451 0.216415
0.0403007 0.0141265 0.216637
0.0403266 0.0135197 0.21704
0.0403721 0.0129246 0.217634
0.0404246 0.0123319 0.218294
0.0404745 0.0117359 0.218931
0.0405387 0.0111463 0.219702
0.0405817 0.0105424 0.220273
0.0406436 0.00994746 0.221026
0.0406928 0.00934329 0.221655
0.0407467 0.00874003 0.222333
0.0407956 0.00813207 0.22296
0.0408462 0.00752325 0.223606
0.0408574 0.00689388 0.223873
0.0408637 0.00626154 0.22409
0.0408554 0.00562235 0.224169
0.0408463 0.00498287 0.22424
0.0408225 0.00433729 0.224169
0.0408147 0.00369863 0.224252
0.0408198 0.003065 0.224462
0.0408981 0.00245751 0.225377
0.0410513 0.00187353 0.227018
0.0412912 0.00131321 0.229497
0.041521 0.000741803 0.23188
0.0407911 9.53647e-05 0.231273
0.0418058 0.000179479 0.2348
0.0410444 -0.000477895 0.233927
0.0420437 -0.000405537 0.237268
0.0418166 -0.00290955 0.242194
0.0425209 -0.00226411 0.242384
0.0424646 -0.00294163 0.242007
0.0417318 -0.00359224 0.241524
0.0423817 -0.00362343 0.241365
0.0416381 -0.00427362 0.240769
0.042284 -0.00430566 0.240585
0.0414677 -0.00496624 0.239252
0.0421248 -0.00499562 0.239202
0.0419789 -0.00567832 0.237947
0.041869 -0.00635173 0.237044
0.0417738 -0.0070199 0.236285
0.0409799 -0.00766105 0.235095
0.0416476 -0.00768885 0.23522
0.0415091 -0.00835513 0.234036
0.0413535 -0.00901851 0.232681
0.0411798 -0.00967846 0.231152
0.0410022 -0.010333 0.229582
0.0408444 -0.0109815 0.228206
0.0407155 -0.0116252 0.22711
0.0406222 -0.0122648 0.22636
0.0405472 -0.0129018 0.225788
0.04049 -0.0135373 0.225387
0.0404331 -0.0141713 0.224991
0.0403752 -0.0148037 0.224583
0.0403046 -0.0154334 0.224053
0.0402255 -0.0160607 0.223436
0.0401583 -0.0166863 0.222938
0.0401042 -0.0173119 0.222566
0.0400682 -0.0179391 0.222373
0.0400654 -0.0185705 0.222501
0.0424468 0.0306097 0.233459
0.0430136 0.0305015 0.232572
0.0429846 0.0298219 0.232463
0.0418757 0.0261818 0.222717
0.041676 0.0253642 0.221005
0.041483 0.024558 0.21935
0.0414366 0.0238882 0.219071
0.041388 0.0232177 0.218773
0.0413721 0.0225759 0.218775
0.0413524 0.0219319 0.218749
0.0413299 0.0212855 0.218691
0.0412946 0.0206292 0.218513
0.0412451 0.0199629 0.218206
0.041214 0.0193118 0.218067
0.0411814 0.0186604 0.217916
0.0411425 0.0180053 0.217706
0.0410887 0.0173402 0.217355
0.0410538 0.0166897 0.217178
0.0410004 0.0160273 0.21683
0.0409639 0.015378 0.21664
0.0409624 0.0147532 0.216783
0.0409815 0.0141414 0.217114
0.0410078 0.0135337 0.21752
0.0410372 0.0129268 0.217954
0.041081 0.0123275 0.218523
0.0411187 0.0117227 0.219031
0.0411721 0.0111257 0.219691
0.0412122 0.0105196 0.220229
0.0412712 0.00992225 0.220944
0.0413123 0.00931315 0.221488
0.041366 0.00870902 0.222151
0.0414072 0.00809684 0.222699
0.0414509 0.00748441 0.223271
0.041466 0.00685701 0.223572
0.0414756 0.00622641 0.223822
0.0414682 0.00558773 0.223909
0.0414639 0.00495029 0.224023
0.04144 0.00430494 0.223954
0.0414238 0.00366308 0.223957
0.0414926 0.00305322 0.224767
0.0416463 0.00247151 0.226388
0.0418843 0.00191371 0.228812
0.0422067 0.00137562 0.232039
0.0425227 0.000825312 0.235209
0.0427817 0.000247968 0.23784
0.0429657 -0.000358933 0.239756
0.0422378 -0.00101046 0.23931
0.0430786 -0.000990327 0.240997
0.0423755 -0.00163566 0.240808
0.0431231 -0.00164276 0.241587
0.0431636 -0.00229746 0.242138
0.0431035 -0.0029758 0.241726
0.0430204 -0.00365722 0.2411
0.0429212 -0.00433879 0.240315
0.0427869 -0.00502385 0.239194
0.04264 -0.00570678 0.237957
0.0425283 -0.00638067 0.237049
0.0424278 -0.0070497 0.23625
0.0423308 -0.00771521 0.235486
0.0422229 -0.00837921 0.234612
0.0420894 -0.00904191 0.233495
0.0419267 -0.00970238 0.232097
0.041746 -0.0103587 0.230526
0.0415727 -0.0110096 0.229024
0.0414316 -0.0116546 0.227828
0.0413317 -0.0122956 0.227027
0.041259 -0.0129342 0.226486
0.0412049 -0.0135711 0.226125
0.0411556 -0.0142072 0.225809
0.0411086 -0.0148418 0.225518
0.0410502 -0.0154746 0.225112
0.0409787 -0.0161043 0.224582
0.0409227 -0.0167336 0.224203
0.0408761 -0.0173625 0.22391
0.0408441 -0.0179927 0.223757
0.0408444 -0.0186271 0.223918
0.0404766 -0.0192763 0.22669
0.0435941 0.0304093 0.231834
0.0435676 0.0297332 0.231749
0.0435419 0.0290583 0.231669
0.0421705 0.0270959 0.22532
0.0425471 0.0280982 0.22869
0.0430342 0.0272845 0.22731
0.0425599 0.0255705 0.22325
0.0423418 0.0247408 0.221391
0.0422593 0.0240361 0.220784
0.0421815 0.0233379 0.220222
0.0421477 0.0226789 0.220065
0.0421157 0.0220222 0.219924
0.0420841 0.0213667 0.219789
0.0420431 0.020704 0.219561
0.0419912 0.0200342 0.219238
0.0419505 0.0193741 0.219014
0.0419041 0.0187108 0.218739
0.0418501 0.0180434 0.218396
0.041783 0.0173676 0.217926
0.041735 0.0167071 0.217634
0.0416736 0.0160388 0.217219
0.0416454 0.0153944 0.21711
0.0416445 0.0147689 0.217258
0.0416643 0.0141563 0.217594
0.0416874 0.0135449 0.217961
0.0417087 0.0129316 0.218314
0.0417356 0.0123208 0.218718
0.0417596 0.0117073 0.219097
0.0418085 0.0111067 0.219706
0.0418455 0.0104981 0.220207
0.0418989 0.00989688 0.220859
0.0419363 0.00928531 0.221362
0.0419897 0.00868046 0.222014
0.0420228 0.00806394 0.222481
0.0420596 0.00744777 0.222979
0.0420748 0.00682042 0.223278
0.0420883 0.00619157 0.22356
0.0420812 0.00555314 0.223649
0.0420775 0.00491624 0.223772
0.0420575 0.00427271 0.223742
0.0420404 0.00363063 0.223738
0.04218 0.00304641 0.225199
0.0424164 0.00249186 0.227572
0.0427432 0.00196015 0.23079
0.0431482 0.0014433 0.234743
0.043525 0.000905035 0.238438
0.0437259 0.000303781 0.240483
0.0438341 -0.00032951 0.241661
0.043868 -0.000985498 0.242141
0.0438369 -0.00165869 0.242015
0.0438059 -0.002331 0.241887
0.0437467 -0.00300892 0.241494
0.0436663 -0.00368928 0.2409
0.0435613 -0.00437191 0.240079
0.0434433 -0.0050534 0.239131
0.0433133 -0.0057336 0.238068
0.0432013 -0.00640781 0.237177
0.0430994 -0.00707729 0.236377
0.0429999 -0.00774358 0.2356
0.0429044 -0.00840639 0.234863
0.0427836 -0.00906878 0.233883
0.0426426 -0.0097287 0.232712
0.0424783 -0.0103854 0.231324
0.0423232 -0.0110368 0.230015
0.0421714 -0.0116841 0.228741
0.0420602 -0.0123264 0.22785
0.0419815 -0.0129665 0.227263
0.0419217 -0.0136053 0.226854
0.0418715 -0.0142426 0.226536
0.0418251 -0.0148786 0.226254
0.0417817 -0.015514 0.226
0.0417257 -0.0161469 0.225628
0.0416855 -0.0167805 0.225406
0.0416518 -0.0174134 0.22524
0.0416271 -0.0180468 0.225165
0.0416236 -0.0186834 0.225289
0.0441964 0.0309896 0.231151
0.044178 0.0303222 0.231142
0.0441522 0.0296479 0.231065
0.044134 0.0289814 0.231058
0.0440108 0.0282172 0.230099
0.0438296 0.0274033 0.228614
0.0436338 0.0265809 0.226991
0.0434365 0.0257629 0.225353
0.0432196 0.0249336 0.223539
0.0431041 0.0241979 0.222645
0.0430043 0.0234787 0.221893
0.0429507 0.0228003 0.221558
0.0428987 0.0221251 0.221242
0.0428515 0.0214546 0.220965
0.0427944 0.0207778 0.220599
0.0427354 0.020101 0.220217
0.0426753 0.019425 0.219823
0.0426146 0.0187498 0.219421
0.0425511 0.0180745 0.218997
0.0424823 0.0173968 0.218521
0.0424237 0.0167283 0.218139
0.0423662 0.016062 0.217766
0.0423416 0.0154192 0.217695
0.0423368 0.0147897 0.217805
0.0423493 0.0141711 0.218073
0.0423639 0.0135532 0.21836
0.0423737 0.0129317 0.218603
0.0423873 0.0123118 0.218879
0.0423979 0.0116896 0.219128
0.0424416 0.0110857 0.219686
0.0424799 0.010477 0.22019
0.042531 0.00987372 0.220813
0.0425692 0.00926191 0.221316
0.0426224 0.00865644 0.221961
0.0426478 0.00803545 0.222347
0.0426768 0.00741533 0.222768
0.0426918 0.00678769 0.22306
0.0427056 0.006159 0.223345
0.0426988 0.00552078 0.223437
0.0426996 0.00488571 0.2236
0.0426877 0.00424544 0.223646
0.0427419 0.00363012 0.2243
0.0429635 0.0030734 0.226496
0.0432877 0.00254538 0.229642
0.0436951 0.0020348 0.233559
0.0440888 0.00150722 0.237351
0.0443877 0.000938874 0.240268
0.0445063 0.00030975 0.241527
0.0445359 -0.00034725 0.241962
0.044504 -0.00102102 0.241829
0.0444726 -0.00169413 0.241701
0.0444316 -0.00236833 0.241484
0.0443701 -0.00304587 0.241078
0.0442929 -0.00372494 0.240528
0.0441962 -0.00440547 0.239794
0.0440916 -0.00508449 0.238987
0.0439789 -0.00576205 0.238102
0.0438703 -0.00643544 0.237257
0.0437664 -0.00710522 0.236455
0.0436596 -0.00777252 0.235624
0.0435586 -0.00843611 0.234843
0.0434486 -0.00909783 0.233984
0.0433295 -0.00975655 0.233035
0.0431918 -0.0104127 0.231916
0.0430615 -0.011065 0.230861
0.042929 -0.0117134 0.229788
0.042816 -0.0123579 0.228893
0.0427304 -0.0129995 0.228255
0.0426644 -0.0136398 0.227797
0.0426083 -0.0142788 0.227432
0.0425573 -0.0149165 0.227111
0.0425133 -0.0155534 0.226857
0.0424616 -0.0161886 0.226533
0.0424227 -0.0168238 0.226326
0.0423891 -0.0174587 0.226168
0.0423649 -0.0180943 0.226101
0.0442417 0.0329832 0.231085
0.0449099 0.0336298 0.230999
0.0448755 0.032945 0.230849
0.0441979 0.0322887 0.230845
0.0448278 0.0322477 0.230583
0.0441967 0.0316389 0.230995
0.0448051 0.0315762 0.230537
0.044795 0.0309177 0.230605
0.0447734 0.0302479 0.230569
0.0447413 0.0295689 0.230441
0.0447179 0.0288982 0.230386
0.0446602 0.028197 0.23003
0.044546 0.0274457 0.229165
0.0443986 0.0266682 0.228004
0.0442505 0.0258939 0.226834
0.0440842 0.0251083 0.225501
0.0439445 0.02435 0.224406
0.0438286 0.023615 0.223519
0.043757 0.0229198 0.223032
0.0436841 0.0222254 0.222533
0.0436159 0.0215368 0.222077
0.0435346 0.0208397 0.221501
0.0434523 0.0201438 0.220912
0.0433699 0.0194504 0.220327
0.0432984 0.018767 0.219837
0.0432334 0.0180902 0.219406
0.043168 0.0174148 0.218971
0.0431177 0.0167515 0.218672
0.0430681 0.0160899 0.218378
0.043039 0.0154429 0.218267
0.0430203 0.0148034 0.218253
0.0430274 0.0141801 0.218468
0.0430292 0.0135533 0.218638
0.0430268 0.0129234 0.218765
0.0430309 0.0122975 0.218956
0.0430328 0.0116699 0.219125
0.0430684 0.0110605 0.2196
0.0431076 0.0104518 0.220105
0.0431564 0.00984672 0.220701
0.0431992 0.00923696 0.221242
0.0432566 0.00863279 0.221915
0.0432775 0.00800929 0.222257
0.0433025 0.00738697 0.222638
0.0433182 0.00675925 0.222931
0.0433321 0.00613028 0.223212
0.0433253 0.00549208 0.223305
0.0433266 0.00485715 0.223472
0.0433875 0.00424476 0.224177
0.0435261 0.00365923 0.22559
0.0438321 0.00312883 0.228523
0.0442394 0.00262353 0.232377
0.0446467 0.0021057 0.236234
0.0449573 0.00154551 0.239217
0.045167 0.000945911 0.241284
0.0452084 0.000292587 0.241823
0.0451666 -0.000384421 0.241604
0.0451346 -0.00105801 0.241472
0.0451023 -0.00173077 0.24134
0.0450554 -0.00240568 0.241075
0.0449928 -0.00308315 0.240667
0.0449197 -0.0037609 0.24016
0.0448327 -0.00443892 0.239528
0.0447419 -0.00511549 0.238857
0.0446466 -0.00579011 0.238148
0.0445378 -0.00646336 0.237317
0.0444363 -0.00713346 0.236549
0.044326 -0.00780095 0.235702
0.0442187 -0.00846545 0.234877
0.0441122 -0.00912693 0.234062
0.0440148 -0.00978478 0.23333
0.0438996 -0.0104408 0.232435
0.0437928 -0.0110934 0.231613
0.0436816 -0.0117427 0.230752
0.0435801 -0.0123895 0.229979
0.0434932 -0.0130333 0.229337
0.0434202 -0.0136754 0.228825
0.0433574 -0.014316 0.228405
0.0433037 -0.0149553 0.228068
0.0432636 -0.0155943 0.227854
0.0432242 -0.0162328 0.227651
0.0449812 0.0343545 0.231478
0.0456559 0.035008 0.231433
0.0455892 0.0342879 0.231004
0.045521 0.0335684 0.230564
0.0454872 0.0328849 0.230423
0.0454424 0.0321915 0.230187
0.0454093 0.0315103 0.230051
0.0453946 0.0308479 0.230078
0.0453685 0.0301747 0.230005
0.0453347 0.0294947 0.229861
0.0453105 0.0288249 0.229808
0.0452639 0.0281345 0.229551
0.0451981 0.0274288 0.22913
0.0451069 0.026702 0.228481
0.0449942 0.0259594 0.227644
0.0448714 0.0252108 0.226713
0.0447478 0.0244653 0.225777
0.0446267 0.0237251 0.224862
0.0445448 0.02302 0.224295
0.0444566 0.022312 0.22367
0.0443769 0.0216127 0.223117
0.0442922 0.0209118 0.222521
0.0441829 0.020195 0.221709
0.0440815 0.0194867 0.220964
0.0439985 0.0187945 0.220381
0.0439225 0.0181093 0.219859
0.0438485 0.0174277 0.219357
0.0438115 0.0167728 0.21918
0.0437709 0.0161164 0.218971
0.0437438 0.0154698 0.218885
0.0437189 0.0148251 0.218815
0.0437149 0.0141936 0.21893
0.0437069 0.0135598 0.219012
0.0436955 0.0129238 0.219061
0.0436878 0.0122902 0.219144
0.0436882 0.0116612 0.2193
0.0437161 0.0110468 0.219701
0.0437519 0.0104354 0.220171
0.0437979 0.00982798 0.220733
0.0438458 0.00921992 0.221311
0.0439002 0.00861335 0.221947
0.0439211 0.00798953 0.222289
0.0439467 0.00736668 0.222668
0.043958 0.00673682 0.222924
0.0439722 0.00610737 0.223201
0.0439651 0.00546894 0.223293
0.0440356 0.00486077 0.224075
0.044182 0.00427918 0.225537
0.0444195 0.00372626 0.227813
0.0448118 0.00322019 0.231475
0.0452234 0.00270883 0.235314
0.0455388 0.0021543 0.238296
0.0457526 0.00155908 0.240366
0.0458735 0.000930457 0.241611
0.0458439 0.000256635 0.241508
0.0458064 -0.00041913 0.241332
0.0457786 -0.001091 0.241241
0.0457452 -0.00176403 0.241101
0.0456972 -0.00243927 0.24083
0.045639 -0.00311528 0.240469
0.0455705 -0.00379188 0.240015
0.0454934 -0.00446803 0.23948
0.0454159 -0.0051424 0.238943
0.0453301 -0.00581577 0.238334
0.0452207 -0.00648974 0.237506
0.0451177 -0.0071603 0.236737
0.0450011 -0.00782916 0.235846
0.0448859 -0.0084943 0.234969
0.0447819 -0.00915601 0.23419
0.0446976 -0.00981355 0.233587
0.044605 -0.0104691 0.232909
0.0445219 -0.011122 0.232316
0.0444335 -0.0117726 0.231675
0.0443499 -0.0124211 0.231075
0.04427 -0.013067 0.230513
0.0441958 -0.0137114 0.229996
0.0441352 -0.0143543 0.229605
0.0440881 -0.0149966 0.229336
0.0440563 -0.0156386 0.229202
0.0461 0.0361326 0.235172
0.0463033 0.0362837 0.230993
0.0462886 0.0356176 0.231021
0.0462476 0.0349246 0.230823
0.0461805 0.034206 0.2304
0.0461192 0.0334948 0.230025
0.0460849 0.0328117 0.229882
0.0460378 0.0321171 0.22963
0.0459955 0.0314281 0.229418
0.0459848 0.0307705 0.229482
0.0459589 0.0300984 0.229412
0.0459295 0.0294234 0.22931
0.0459097 0.0287584 0.229296
0.0458757 0.0280808 0.229156
0.0458143 0.0273794 0.228775
0.0457614 0.0266873 0.228471
0.0456851 0.0259769 0.227965
0.0455951 0.0252564 0.227334
0.0454991 0.0245336 0.226653
0.0453988 0.0238102 0.225938
0.0453096 0.0230978 0.225313
0.0452082 0.0223783 0.224583
0.0451183 0.0216706 0.223955
0.0450446 0.0209772 0.223464
0.0449252 0.020252 0.222576
0.0448123 0.019535 0.221744
0.0447254 0.0188392 0.221137
0.0446456 0.0181506 0.220592
0.0445579 0.017459 0.21998
0.044531 0.0168096 0.219895
0.0444911 0.0161528 0.219699
0.0444557 0.0154992 0.219537
0.0444238 0.0148491 0.219411
0.0443966 0.0142024 0.219324
0.044375 0.0135595 0.219286
0.0443624 0.0129224 0.219328
0.0443589 0.0122903 0.219447
0.0443605 0.0116609 0.219611
0.0443931 0.0110479 0.220047
0.0444287 0.0104352 0.220511
0.0444665 0.00982246 0.220994
0.0445108 0.00921151 0.221534
0.0445576 0.00860027 0.222097
0.0445799 0.0079762 0.222445
0.0446016 0.00735105 0.222789
0.0446088 0.00671859 0.223003
0.0446139 0.00608507 0.223202
0.0446765 0.00547402 0.223902
0.0448248 0.00489443 0.225361
0.0450655 0.00434465 0.227633
0.0454028 0.00382234 0.230758
0.0458109 0.00331426 0.234508
0.0461336 0.00276596 0.237508
0.0463527 0.00217548 0.239598
0.0464733 0.00154889 0.240824
0.0465129 0.000895247 0.241329
0.0464841 0.000221677 0.241237
0.0464518 -0.000452258 0.241109
0.0464283 -0.00112288 0.241061
0.0463988 -0.0017947 0.240961
0.0463509 -0.0024699 0.240697
0.0463018 -0.00314403 0.240421
0.046243 -0.0038189 0.240057
0.0461796 -0.00449309 0.239655
0.0461112 -0.00516618 0.239211
0.0460389 -0.0058385 0.238727
0.0459285 -0.00651332 0.237908
0.0458193 -0.00718496 0.237097
0.0456908 -0.00785574 0.236113
0.0455686 -0.00852215 0.235187
0.0454581 -0.00918469 0.234364
0.0453812 -0.00984216 0.233836
0.0453065 -0.0104978 0.233331
0.0452464 -0.0111513 0.23295
0.045181 -0.0118029 0.232527
0.0451201 -0.0124531 0.232141
0.0450498 -0.0131012 0.23167
0.0449799 -0.0137477 0.231202
0.0449269 -0.0143934 0.230886
0.0448845 -0.0150383 0.230666
0.0448584 -0.0156837 0.230587
0.0444217 -0.0163182 0.232665
0.0470397 0.0383898 0.237037
0.0476019 0.0389203 0.235937
0.0472201 0.0378496 0.232847
0.0463028 0.0369336 0.230834
0.0468734 0.0368265 0.230052
0.0468684 0.0361716 0.230162
0.0468531 0.0355064 0.230188
0.0468165 0.0348195 0.230031
0.0467629 0.0341162 0.229729
0.0467064 0.0334114 0.229402
0.0466768 0.0327343 0.229305
0.0466343 0.0320453 0.229096
0.0465921 0.0313576 0.228889
0.046578 0.0306971 0.228922
0.0465561 0.0300298 0.22889
0.0465304 0.0293591 0.228822
0.0465118 0.0286953 0.228816
0.0464864 0.0280263 0.228755
0.0464348 0.0273347 0.228466
0.0463915 0.0266516 0.22825
0.0463341 0.0259575 0.22791
0.0462619 0.0252528 0.227446
0.0461885 0.0245489 0.226969
0.046111 0.0238436 0.226458
0.0460396 0.0231453 0.226
0.0459472 0.0224323 0.225358
0.0458653 0.0217299 0.224809
0.0457961 0.021039 0.224368
0.0456844 0.0203189 0.22356
0.0455545 0.0195889 0.222594
0.0454529 0.018882 0.221871
0.0453598 0.0181837 0.221223
0.0452601 0.0174834 0.220516
0.0452222 0.0168259 0.220339
0.0451918 0.0161744 0.220229
0.04516 0.0155224 0.220105
0.0451316 0.0148735 0.220012
0.0450997 0.0142227 0.219886
0.0450776 0.0135785 0.219845
0.0450649 0.01294 0.219886
0.0450578 0.0123047 0.219973
0.0450555 0.0116721 0.220105
0.0450796 0.0110533 0.220465
0.0451074 0.0104351 0.220853
0.0451351 0.00981613 0.221243
0.0451744 0.00920191 0.221736
0.0452138 0.00858608 0.222227
0.0452364 0.00796144 0.222574
0.0452589 0.00733588 0.22292
0.0452701 0.00670457 0.223167
0.0453054 0.00608271 0.223625
0.0454469 0.00550161 0.225003
0.0456847 0.00495304 0.227219
0.046015 0.00443126 0.230235
0.0464317 0.00393045 0.234009
0.0467909 0.00339785 0.237281
0.0470182 0.00281201 0.239412
0.0471406 0.00218705 0.240636
0.0471768 0.00153284 0.24111
0.0471477 0.000858878 0.241013
0.0471242 0.000187118 0.240969
0.0470976 -0.000485191 0.240893
0.0470795 -0.00115447 0.240893
0.0470557 -0.00182525 0.240844
0.0470128 -0.0024993 0.240628
0.046968 -0.00317242 0.240398
0.0469183 -0.00384564 0.240123
0.0468689 -0.00451772 0.239848
0.0468103 -0.00519002 0.239497
0.0467469 -0.00586138 0.2391
0.0466436 -0.0065361 0.238356
0.0465323 -0.00720873 0.237538
0.0463963 -0.00788081 0.236507
0.046262 -0.00854923 0.235488
0.0461441 -0.00921279 0.234614
0.0460657 -0.00987121 0.234082
0.0459995 -0.0105269 0.23366
0.0459529 -0.0111808 0.233409
0.0459116 -0.0118333 0.2332
0.0458694 -0.0124851 0.232984
0.0458132 -0.013135 0.232648
0.0457606 -0.0137841 0.232343
0.0457223 -0.0144328 0.232159
0.0456913 -0.0150809 0.232042
0.0474018 0.0373252 0.228781
0.0474315 0.0367084 0.229182
0.0474302 0.0360587 0.229325
0.0474153 0.0353952 0.229355
0.0473787 0.0347097 0.229201
0.0473344 0.0340172 0.22898
0.0472821 0.0333182 0.228694
0.0472539 0.0326434 0.228609
0.0472207 0.0319647 0.228483
0.0471878 0.0312867 0.228358
0.047173 0.0306267 0.228389
0.0471559 0.0299643 0.228397
0.0471345 0.0292987 0.228372
0.0471162 0.0286358 0.228369
0.047097 0.0279726 0.22836
0.0470604 0.0272946 0.228202
0.0470233 0.0266174 0.228043
0.046976 0.0259324 0.227797
0.0469127 0.0252357 0.227415
0.0468488 0.0245398 0.227027
0.0467804 0.0238421 0.226602
0.0467227 0.0231543 0.226265
0.0466426 0.022451 0.22574
0.0465742 0.0217583 0.225312
0.0465188 0.0210771 0.224996
0.0464214 0.0203668 0.22432
0.0463034 0.0196451 0.223474
0.0462003 0.0189363 0.22275
0.0461037 0.0182349 0.222082
0.0459955 0.0175282 0.221316
0.045955 0.0168678 0.221121
0.0459164 0.0162096 0.220943
0.0458849 0.0155567 0.220826
0.0458568 0.0149065 0.220737
0.0458201 0.0142518 0.220576
0.0457856 0.0135991 0.220431
0.045777 0.0129617 0.220507
0.0457745 0.0123277 0.220636
0.045778 0.0116966 0.220814
0.045804 0.0110769 0.221184
0.0458298 0.0104562 0.221554
0.045847 0.00983048 0.221852
0.0458766 0.00920987 0.222256
0.0459244 0.00859652 0.222814
0.0459668 0.00797904 0.223323
0.0460132 0.00736207 0.22387
0.046053 0.0067409 0.224362
0.0461187 0.00612877 0.225075
0.0463038 0.00556105 0.226807
0.04659 0.00502585 0.229405
0.0469705 0.00451656 0.232814
0.0473419 0.00399294 0.236144
0.0476462 0.00343638 0.238905
0.0477909 0.00281997 0.240299
0.0478417 0.00217071 0.240893
0.0478118 0.00149621 0.240792
0.0477878 0.000824094 0.240744
0.0477696 0.00015399 0.240746
0.0477523 -0.000515522 0.240756
0.0477395 -0.00118419 0.240804
0.0477215 -0.00185341 0.240807
0.0476887 -0.00252558 0.240679
0.0476492 -0.00319822 0.240499
0.0476036 -0.00387093 0.240265
0.0475591 -0.0045425 0.240037
0.0475105 -0.00521378 0.239777
0.0474566 -0.00588451 0.239472
0.0473715 -0.00655754 0.238895
0.0472679 -0.0072304 0.238159
0.0471382 -0.00790314 0.237197
0.0470005 -0.00857294 0.236168
0.0468752 -0.00923815 0.235241
0.0467857 -0.00989831 0.234624
0.0467135 -0.0105554 0.234158
0.0466625 -0.0112104 0.233871
0.0466259 -0.0118641 0.233708
0.0465934 -0.0125166 0.233583
0.0465475 -0.0131684 0.233338
0.0465093 -0.0138198 0.233165
0.0464857 -0.0144702 0.233113
0.0477526 0.0390026 0.231414
0.0479485 0.0391355 0.227384
0.0479453 0.0384863 0.227511
0.0473828 0.0379523 0.228469
0.0479569 0.0378526 0.22776
0.0479709 0.0372205 0.228025
0.0479949 0.0365985 0.228377
0.0479896 0.0359457 0.228486
0.047976 0.0352844 0.228525
0.0479403 0.0346013 0.228381
0.0479006 0.0339152 0.228205
0.0478532 0.0332224 0.227964
0.04783 0.0325535 0.227922
0.0478057 0.0318845 0.227874
0.0477825 0.0312165 0.227832
0.0477686 0.0305579 0.227871
0.0477563 0.0299004 0.227919
0.0477394 0.0292392 0.22793
0.0477264 0.0285818 0.227975
0.0477133 0.0279241 0.228017
0.0476865 0.0272554 0.227948
0.0476548 0.026583 0.227835
0.0476167 0.025906 0.227669
0.0475585 0.0252139 0.227337
0.047499 0.0245221 0.226993
0.0474402 0.0238319 0.226652
0.0473914 0.0231512 0.226397
0.0473246 0.0224582 0.225992
0.0472748 0.0217791 0.225727
0.0472427 0.0211139 0.225611
0.047169 0.0204203 0.225149
0.0470703 0.0197109 0.224472
0.0469788 0.0190091 0.223857
0.046874 0.018301 0.223132
0.0467623 0.017591 0.222349
0.0467144 0.0169242 0.222096
0.0466741 0.0162634 0.22191
0.0466432 0.0156091 0.2218
0.0466195 0.0149597 0.221749
0.0465791 0.0143011 0.22156
0.0465428 0.0136458 0.221404
0.0465296 0.0130041 0.221444
0.046523 0.0123659 0.221537
0.0465263 0.011733 0.221715
0.0465435 0.0111068 0.222009
0.0465648 0.010482 0.222337
0.0465815 0.00985407 0.222626
0.0466118 0.00923186 0.223029
0.0466751 0.00862366 0.223712
0.0467427 0.00801531 0.224431
0.0468075 0.00740374 0.225127
0.0468707 0.00678954 0.225811
0.0469566 0.0061821 0.226683
0.0471675 0.00562022 0.22861
0.0474876 0.00509273 0.231463
0.0478273 0.00456294 0.234479
0.0481477 0.00401677 0.237333
0.0484024 0.00344003 0.239639
0.0484806 0.00280051 0.240455
0.0484703 0.00213209 0.240525
0.0484462 0.00145973 0.240477
0.048428 0.000789458 0.24048
0.048415 0.000120907 0.240527
0.0484072 -0.000546606 0.240617
0.0483994 -0.00121371 0.240707
0.0483868 -0.00188204 0.240757
0.0483638 -0.00255202 0.240717
0.048334 -0.00322314 0.240622
0.0482983 -0.00389465 0.240475
0.0482585 -0.00456605 0.240295
0.0482146 -0.00523733 0.240081
0.0481663 -0.00590806 0.239825
0.0480965 -0.00658017 0.239388
0.0479987 -0.00725331 0.238715
0.047883 -0.00792534 0.237888
0.0477577 -0.00859559 0.236979
0.0476389 -0.00926159 0.236124
0.0475423 -0.00992383 0.235458
0.0474637 -0.0105829 0.234942
0.0474057 -0.0112396 0.234602
0.047363 -0.0118947 0.234391
0.0473253 -0.0125488 0.234226
0.0472839 -0.0132019 0.234024
0.0472596 -0.0138549 0.233972
0.0472459 -0.0145078 0.234011
0.046869 -0.0151473 0.236585
0.0483456 0.0402194 0.230513
0.0485227 0.0403263 0.226392
0.0485262 0.0396855 0.226573
0.048531 0.0390455 0.226762
0.0485278 0.0383968 0.226887
0.048535 0.0377589 0.227097
0.0485443 0.0371225 0.227323
0.0485638 0.0364964 0.227634
0.0485587 0.0358446 0.227743
0.0485453 0.0351847 0.227786
0.0485156 0.0345086 0.227692
0.0484849 0.0338326 0.227595
0.0484472 0.0331501 0.227436
0.048429 0.0324868 0.227437
0.0484108 0.031824 0.22744
0.0483925 0.0311615 0.227442
0.0483794 0.0305037 0.227485
0.0483671 0.0298469 0.227536
0.0483504 0.0291862 0.227549
0.0483377 0.0285293 0.227596
0.0483243 0.0278722 0.227639
0.0483023 0.0272076 0.227608
0.0482749 0.0265392 0.227533
0.0482411 0.0258663 0.227407
0.0481915 0.0251815 0.227149
0.0481411 0.0244974 0.226887
0.0480865 0.0238113 0.226589
0.048043 0.0231345 0.226381
0.0479909 0.0224527 0.226103
0.0479567 0.0217848 0.225972
0.0479265 0.0211207 0.225876
0.0478858 0.0204498 0.225691
0.0478163 0.0197599 0.225266
0.0477416 0.0190686 0.224801
0.0476443 0.0183644 0.22415
0.0475474 0.0176628 0.223499
0.0474827 0.0169838 0.223116
0.0474323 0.0163151 0.222849
0.0473969 0.0156565 0.222705
0.0473721 0.0150048 0.222648
0.0473294 0.0143433 0.222443
0.0472913 0.0136855 0.222277
0.0472818 0.013044 0.222347
0.0472791 0.0124063 0.222475
0.0472797 0.01177 0.222627
0.0472961 0.0111415 0.222914
0.0473173 0.0105146 0.223237
0.0473257 0.00988092 0.223457
0.0473533 0.00925547 0.223833
0.0474343 0.00865302 0.224654
0.0475161 0.00804858 0.225484
0.0476031 0.00744367 0.226354
0.0476951 0.00683831 0.227268
0.0478033 0.00623654 0.228317
0.0480357 0.0056786 0.230401
0.0483048 0.00512731 0.232788
0.0485939 0.00457524 0.235342
0.0488613 0.00400808 0.237723
0.0490734 0.00341522 0.239641
0.0491025 0.00275979 0.240039
0.0491088 0.00209667 0.240247
0.0490906 0.00142616 0.24025
0.0490777 0.000757405 0.240297
0.0490652 8.90005e-05 0.240347
0.0490573 -0.000578512 0.240437
0.0490495 -0.00124562 0.240527
0.0490417 -0.00191272 0.240617
0.0490236 -0.00258219 0.240625
0.0489997 -0.00325199 0.24058
0.0489748 -0.00392183 0.240526
0.0489441 -0.00459202 0.240425
0.0489101 -0.00526209 0.240295
0.0488759 -0.00593163 0.240166
0.0488221 -0.00660251 0.239871
0.0487414 -0.0072749 0.239349
0.0486478 -0.00794667 0.238719
0.0485415 -0.00861668 0.237986
0.0484374 -0.0092837 0.237265
0.0483489 -0.00994758 0.236679
0.0482624 -0.0106091 0.236108
0.0482005 -0.0112678 0.23574
0.04814 -0.0119253 0.235385
0.0480906 -0.0125814 0.235124
0.0480431 -0.0132362 0.234879
0.0489524 0.04145 0.22974
0.049124 0.0415457 0.225638
0.0491231 0.0409004 0.225779
0.0491306 0.0402646 0.225991
0.0491234 0.0396123 0.226083
0.04912 0.0389641 0.226205
0.0491124 0.038311 0.226292
0.0491153 0.037669 0.226465
0.0491194 0.0370281 0.226648
0.0491336 0.0363971 0.226914
0.0491325 0.0357503 0.227055
0.0491244 0.0350962 0.227139
0.0491043 0.0344307 0.227127
0.0490846 0.0337657 0.227117
0.0490566 0.0330936 0.227043
0.0490386 0.0324313 0.227049
0.049026 0.0317738 0.227095
0.0490132 0.0311165 0.227143
0.0489961 0.0304556 0.227155
0.0489834 0.0297987 0.227203
0.0489658 0.0291375 0.227208
0.0489476 0.0284762 0.227211
0.0489292 0.0278153 0.227214
0.0489062 0.0271507 0.227178
0.0488777 0.0264821 0.227096
0.0488385 0.0258056 0.226928
0.0487885 0.0251215 0.226673
0.0487423 0.0244418 0.226451
0.0487022 0.0237673 0.226274
0.0486692 0.0230989 0.226155
0.0486414 0.0224353 0.226082
0.0486282 0.0217822 0.226122
0.0486055 0.0211229 0.226088
0.048593 0.0204707 0.226133
0.0485482 0.0197972 0.22592
0.0484857 0.0191133 0.225562
0.0483949 0.0184123 0.224972
0.0483117 0.0177185 0.224444
0.0482312 0.0170286 0.223939
0.0481753 0.0163551 0.223632
0.0481428 0.015697 0.223517
0.0481231 0.0150467 0.223503
0.0480876 0.014388 0.223361
0.0480571 0.0137328 0.223263
0.0480524 0.013092 0.223373
0.0480421 0.0124483 0.223438
0.0480363 0.0118067 0.223537
0.0480476 0.0111736 0.223777
0.0480639 0.0105425 0.22406
0.0480696 0.00990567 0.224254
0.0481044 0.00928179 0.224688
0.0482025 0.00868467 0.22564
0.0482984 0.00808352 0.226572
0.0484024 0.00748312 0.227574
0.0485164 0.00688353 0.228655
0.0486479 0.0062875 0.229883
0.0488233 0.00570399 0.231471
0.0490283 0.00512617 0.233303
0.049256 0.0045504 0.235323
0.0494698 0.00396363 0.23723
0.049637 0.00335603 0.238756
0.0496952 0.00271039 0.239386
0.0497287 0.00205581 0.239815
0.0497258 0.00139013 0.239947
0.0497231 0.000724237 0.240077
0.0497153 5.70941e-05 0.240167
0.0497121 -0.000609239 0.240297
0.0497048 -0.00127632 0.240391
0.0496969 -0.00194366 0.240482
0.049684 -0.00261169 0.240531
0.0496655 -0.00328117 0.240532
0.0496416 -0.00395098 0.24049
0.049617 -0.00462027 0.240443
0.0495927 -0.00528923 0.240396
0.049568 -0.00595799 0.240346
0.049534 -0.00662686 0.240222
0.0494794 -0.00729751 0.239923
0.0494174 -0.00796736 0.239565
0.0493385 -0.00863689 0.23907
0.0492558 -0.00930492 0.23854
0.0491779 -0.00997074 0.238048
0.0490903 -0.0106344 0.237476
0.0490201 -0.011296 0.23705
0.0489407 -0.0119559 0.236547
0.0488793 -0.0126141 0.236189
0.0488194 -0.0132705 0.235845
0.0484255 -0.0139056 0.238248
0.0496068 0.0433832 0.22921
