ply
format ascii 1.0
element vertex 1600
property float x
property float y
property float z
end_header
-0.0470001 -0.12049 0.529793
-0.0461213 -0.1209 0.530354
-0.0452172 -0.121264 0.530661
-0.0443005 -0.121603 0.530839
-0.0433839 -0.121943 0.531024
-0.068784 -0.113296 0.534364
-0.0676981 -0.113419 0.533295
-0.0667306 -0.113693 0.533102
-0.0657135 -0.113899 0.532518
-0.0646588 -0.11405 0.531624
-0.0636192 -0.114216 0.530824
-0.0626221 -0.114438 0.530342
-0.0616274 -0.11466 0.529866
-0.0606503 -0.114905 0.52952
-0.0596698 -0.115142 0.529136
-0.0586374 -0.115298 0.528297
-0.0575914 -0.115427 0.527316
-0.0565766 -0.115598 0.526578
-0.0555908 -0.115811 0.526072
-0.0546444 -0.116084 0.525904
-0.0537385 -0.116424 0.526101
-0.0528387 -0.116774 0.526356
-0.0519272 -0.117105 0.526508
-0.0510258 -0.117455 0.526759
-0.0501368 -0.117828 0.527137
-0.0492724 -0.118248 0.527768
-0.0484106 -0.118677 0.528443
-0.0475749 -0.11916 0.529406
-0.0467068 -0.119587 0.530062
-0.0458337 -0.120009 0.530687
-0.0449183 -0.12035 0.530877
-0.0439907 -0.120667 0.530937
-0.0430566 -0.12097 0.530926
-0.0699247 -0.112694 0.538254
-0.0683056 -0.112145 0.533251
-0.0673587 -0.112447 0.533214
-0.0663917 -0.112722 0.533019
-0.0653833 -0.112939 0.532497
-0.0643369 -0.113102 0.53166
-0.0633074 -0.113282 0.530936
-0.0623275 -0.113529 0.53059
-0.0613559 -0.113785 0.530301
-0.060395 -0.114054 0.530092
-0.0594159 -0.114295 0.529721
-0.058391 -0.114464 0.528948
-0.0573438 -0.114593 0.527957
-0.0563082 -0.114734 0.527039
-0.055302 -0.114916 0.526353
-0.0543418 -0.115167 0.526061
-0.053422 -0.115483 0.526129
-0.0525096 -0.115812 0.526267
-0.0515954 -0.116138 0.526389
-0.0506934 -0.116485 0.52663
-0.0498032 -0.116855 0.526994
-0.0489393 -0.117274 0.527627
-0.0480765 -0.1177 0.52829
-0.0472305 -0.118162 0.529147
-0.046352 -0.118567 0.52969
-0.0454691 -0.118967 0.530204
-0.044549 -0.119296 0.530331
-0.0436123 -0.119591 0.530279
-0.042673 -0.11988 0.530194
-0.0694285 -0.111522 0.537035
-0.0679691 -0.111178 0.533192
-0.0670148 -0.11147 0.533095
-0.0660394 -0.111733 0.532832
-0.0650313 -0.111951 0.532304
-0.0639929 -0.112124 0.531522
-0.0629669 -0.112309 0.530817
-0.0619964 -0.112568 0.530541
-0.0610405 -0.112846 0.530377
-0.0600949 -0.113138 0.530292
-0.0591249 -0.113392 0.529997
-0.0581144 -0.113584 0.529344
-0.0570747 -0.113726 0.528417
-0.0560401 -0.11387 0.527505
-0.0550329 -0.114052 0.526811
-0.0540652 -0.114292 0.526453
-0.0531311 -0.114585 0.526392
-0.052204 -0.114889 0.526394
-0.0512761 -0.115192 0.526385
-0.0503616 -0.115517 0.526504
-0.0494531 -0.115853 0.526684
-0.0485824 -0.116258 0.527245
-0.0477131 -0.116669 0.527836
-0.0468602 -0.117115 0.528614
-0.0459697 -0.117494 0.529022
-0.0450856 -0.117888 0.529512
-0.0441661 -0.118215 0.52963
-0.043231 -0.11851 0.529579
-0.0422938 -0.1188 0.529499
-0.0706204 -0.110958 0.54127
-0.068928 -0.110347 0.535771
-0.0676419 -0.110223 0.533202
-0.0666788 -0.110504 0.533034
-0.0656883 -0.110747 0.53265
-0.0646791 -0.110962 0.532106
-0.0636493 -0.111146 0.531383
-0.0626247 -0.111333 0.530681
-0.0616635 -0.111605 0.530476
-0.0607222 -0.111903 0.530428
-0.0597906 -0.112215 0.530458
-0.0588283 -0.112481 0.530225
-0.0578336 -0.112697 0.529707
-0.0568025 -0.112854 0.528852
-0.0557685 -0.113 0.527944
-0.0547485 -0.113163 0.527135
-0.0537718 -0.11339 0.526695
-0.0528181 -0.113651 0.526453
-0.051872 -0.113923 0.526272
-0.0509325 -0.114205 0.526147
-0.0500164 -0.114525 0.526245
-0.0490977 -0.114842 0.526317
-0.0482209 -0.115234 0.526809
-0.0473505 -0.11564 0.527382
-0.04649 -0.116069 0.528075
-0.0455875 -0.116423 0.528346
-0.0446956 -0.116798 0.528739
-0.0437819 -0.117132 0.528904
-0.0428437 -0.117418 0.5288
-0.0419062 -0.117704 0.528698
-0.0699383 -0.109561 0.538692
-0.0684473 -0.109199 0.534644
-0.0673295 -0.109288 0.533322
-0.0663574 -0.109557 0.533084
-0.0653592 -0.10979 0.532635
-0.0643494 -0.110004 0.532081
-0.0633206 -0.11019 0.53136
-0.0622978 -0.11038 0.530666
-0.0613371 -0.110651 0.530461
-0.0604014 -0.110957 0.530456
-0.0594704 -0.111269 0.530489
-0.0585169 -0.111548 0.530328
-0.0575445 -0.111798 0.529998
-0.0565287 -0.111979 0.529275
-0.0554954 -0.112128 0.528373
-0.0544739 -0.11229 0.527548
-0.0534767 -0.112485 0.526921
-0.0525036 -0.112715 0.526496
-0.051544 -0.112964 0.526185
-0.0505986 -0.113234 0.525998
-0.0496719 -0.113536 0.525987
-0.0487531 -0.113851 0.52605
-0.0478709 -0.114231 0.526484
-0.0469955 -0.114626 0.526999
-0.0461243 -0.115033 0.527575
-0.0452218 -0.115383 0.527835
-0.0443197 -0.115736 0.528105
-0.0434068 -0.116069 0.528266
-0.0424655 -0.116345 0.528111
-0.0415305 -0.116633 0.528021
-0.0708772 -0.10867 0.541045
-0.06927 -0.108187 0.536193
-0.0679654 -0.108053 0.533495
-0.0670087 -0.108342 0.533378
-0.0660214 -0.108591 0.53302
-0.065015 -0.108813 0.532501
-0.0639989 -0.109019 0.53189
-0.0629792 -0.109217 0.531234
-0.0619587 -0.109409 0.53055
-0.0610052 -0.109691 0.5304
-0.0600698 -0.109996 0.530393
-0.0591454 -0.110317 0.530478
-0.0582004 -0.110608 0.530387
-0.057244 -0.110881 0.530192
-0.0562372 -0.111076 0.529544
-0.0552043 -0.111227 0.528642
-0.054175 -0.111378 0.527744
-0.0531575 -0.111541 0.526924
-0.0521694 -0.111746 0.526355
-0.0511987 -0.111976 0.52593
-0.0502528 -0.112245 0.52573
-0.0493216 -0.112537 0.525666
-0.0483985 -0.112842 0.525679
-0.0475056 -0.113202 0.525996
-0.0466304 -0.113595 0.526505
-0.0457499 -0.113981 0.526974
-0.0448508 -0.114335 0.527258
-0.0439517 -0.114691 0.527549
-0.0430448 -0.115033 0.527764
-0.0421098 -0.115319 0.527666
-0.0411848 -0.115625 0.527677
-0.0701245 -0.107202 0.537955
-0.0687566 -0.107005 0.534827
-0.0676301 -0.107089 0.533443
-0.0666664 -0.107369 0.533268
-0.0656772 -0.107616 0.532889
-0.0646626 -0.107827 0.5323
-0.063649 -0.108036 0.531701
-0.0626463 -0.108256 0.531172
-0.0616354 -0.108461 0.530561
-0.0606829 -0.108744 0.530414
-0.0597538 -0.109058 0.530459
-0.0588295 -0.109378 0.530543
-0.0578928 -0.109681 0.53052
-0.0569517 -0.109977 0.530457
-0.0559534 -0.110186 0.529883
-0.0549209 -0.110338 0.528981
-0.0538835 -0.110478 0.528006
-0.0528515 -0.110619 0.527049
-0.0518504 -0.110803 0.526352
-0.050872 -0.11102 0.525849
-0.0499215 -0.11128 0.525598
-0.0489909 -0.111572 0.525533
-0.0480625 -0.111868 0.525487
-0.0471626 -0.112213 0.525729
-0.0462866 -0.112603 0.526225
-0.0454127 -0.112999 0.526757
-0.0445217 -0.113367 0.527123
-0.0436304 -0.113737 0.527496
-0.0427248 -0.11408 0.527721
-0.0417882 -0.114362 0.5276
-0.040858 -0.114656 0.527545
-0.0405416 -0.116525 0.530987
-0.0399218 -0.114937 0.527416
-0.0682759 -0.105866 0.533692
-0.0673102 -0.106145 0.533505
-0.0663304 -0.106405 0.533204
-0.0653319 -0.10664 0.532747
-0.0643172 -0.10685 0.53215
-0.0633122 -0.10707 0.531612
-0.0623206 -0.107305 0.531167
-0.0613263 -0.107533 0.530686
-0.0603816 -0.107826 0.530603
-0.0594525 -0.10814 0.530647
-0.0585282 -0.10846 0.530731
-0.057592 -0.108764 0.530713
-0.0566581 -0.10907 0.530713
-0.055661 -0.109282 0.530146
-0.0546292 -0.109436 0.529246
-0.0535795 -0.109558 0.528154
-0.0525395 -0.109687 0.527118
-0.0515257 -0.109851 0.526293
-0.0505418 -0.110059 0.525731
-0.0495926 -0.11032 0.525486
-0.0486683 -0.110622 0.525479
-0.0477397 -0.110916 0.525426
-0.0468332 -0.111249 0.525597
-0.045955 -0.111633 0.526067
-0.0450807 -0.112028 0.526591
-0.0441962 -0.112406 0.527023
-0.0433066 -0.112778 0.52741
-0.0424011 -0.11312 0.527633
-0.0414593 -0.113391 0.527447
-0.0405188 -0.113663 0.527265
-0.039579 -0.113934 0.527082
-0.0389804 -0.115205 0.527217
-0.0386301 -0.114184 0.52678
-0.0382997 -0.116045 0.530203
-0.0376758 -0.114419 0.526397
-0.0326798 -0.117747 0.529514
-0.0330236 -0.115827 0.525815
-0.032113 -0.116154 0.525952
-0.0317611 -0.118071 0.529627
-0.0312105 -0.116503 0.526209
-0.0308612 -0.118447 0.530016
-0.0303029 -0.11684 0.526402
-0.0710362 -0.106273 0.540109
-0.0718772 -0.10525 0.541718
-0.0702943 -0.104834 0.537104
-0.0689713 -0.104701 0.534308
-0.0679904 -0.104964 0.534015
-0.0670054 -0.10522 0.533682
-0.0660009 -0.105449 0.533187
-0.0649854 -0.105663 0.532594
-0.0639714 -0.105874 0.531994
-0.0629769 -0.106107 0.531534
-0.0619889 -0.106346 0.531112
-0.0610102 -0.106595 0.530753
-0.0600729 -0.106898 0.530729
-0.0591441 -0.107212 0.530775
-0.0582204 -0.107533 0.530864
-0.0572903 -0.107845 0.530897
-0.0563562 -0.108152 0.530895
-0.0553593 -0.108364 0.530326
-0.054328 -0.10852 0.529427
-0.0532786 -0.108643 0.528331
-0.0522275 -0.108755 0.527184
-0.0512069 -0.108909 0.526289
-0.0502179 -0.109108 0.52567
-0.0492638 -0.109361 0.525371
-0.0483299 -0.109646 0.525264
-0.0474017 -0.109939 0.525207
-0.0464894 -0.11026 0.525312
-0.0456107 -0.110641 0.52577
-0.0447365 -0.111034 0.52629
-0.0438627 -0.111431 0.526832
-0.0429736 -0.111802 0.527221
-0.0420677 -0.112142 0.527432
-0.0411251 -0.11241 0.527228
-0.0401798 -0.11267 0.526981
-0.039232 -0.112923 0.526691
-0.0382795 -0.113163 0.526332
-0.0373218 -0.113388 0.52589
-0.0367321 -0.114673 0.526129
-0.0363692 -0.11362 0.525491
-0.0357862 -0.11492 0.525818
-0.0354243 -0.113866 0.525174
-0.0348517 -0.115191 0.525641
-0.0344922 -0.114138 0.525008
-0.0339349 -0.115502 0.525691
-0.0335869 -0.114473 0.525196
-0.0326864 -0.114822 0.525456
-0.0317854 -0.11517 0.525716
-0.0308872 -0.115529 0.526029
-0.0299805 -0.115866 0.526225
-0.0294022 -0.117197 0.526704
-0.0290801 -0.116223 0.526525
-0.0285013 -0.117557 0.527016
-0.0281794 -0.116581 0.526832
-0.0706179 -0.103232 0.534975
-0.0696526 -0.103516 0.534812
-0.0686883 -0.103801 0.53465
-0.0676889 -0.104042 0.534218
-0.0666783 -0.104267 0.533687
-0.0656637 -0.104485 0.53311
-0.0646409 -0.104689 0.532452
-0.0636286 -0.104902 0.531859
-0.0626373 -0.105139 0.531418
-0.0616576 -0.105388 0.531057
-0.0606864 -0.105647 0.530755
-0.0597559 -0.105958 0.530786
-0.0588217 -0.106265 0.530783
-0.0578986 -0.106586 0.530874
-0.0569614 -0.106888 0.530843
-0.0560132 -0.107173 0.530712
-0.0550093 -0.107374 0.530072
-0.0539861 -0.107542 0.529235
-0.0529392 -0.107668 0.528151
-0.0518963 -0.107794 0.527069
-0.0508821 -0.107957 0.526224
-0.0498929 -0.108156 0.525596
-0.0489333 -0.108399 0.525237
-0.0480002 -0.108684 0.52513
-0.0470731 -0.108978 0.525079
-0.0461563 -0.10929 0.525132
-0.0452786 -0.109672 0.525597
-0.0444044 -0.110063 0.526114
-0.0435315 -0.11046 0.526661
-0.0426428 -0.11083 0.527051
-0.0417371 -0.111169 0.527259
-0.0407942 -0.111436 0.527042
-0.0398487 -0.111694 0.526784
-0.0388966 -0.111937 0.526433
-0.03794 -0.112166 0.526012
-0.0369824 -0.112389 0.525556
-0.0360251 -0.112609 0.525084
-0.0350773 -0.112845 0.524712
-0.0341423 -0.113109 0.524493
-0.0332351 -0.113436 0.52464
-0.0323356 -0.113783 0.524898
-0.031432 -0.114122 0.525107
-0.0305351 -0.11448 0.52542
-0.0296331 -0.114826 0.52567
-0.0287344 -0.115184 0.525978
-0.0278385 -0.115551 0.526344
-0.0274675 -0.117492 0.530173
-0.0269422 -0.115921 0.52672
-0.0703361 -0.102331 0.535326
-0.0693786 -0.102625 0.535221
-0.068412 -0.102908 0.535045
-0.0674023 -0.103138 0.534534
-0.0663692 -0.103337 0.533829
-0.0653357 -0.103532 0.533101
-0.0643053 -0.103726 0.532378
-0.063295 -0.103942 0.531794
-0.0623061 -0.104182 0.531366
-0.0613335 -0.10444 0.531059
-0.0603681 -0.104706 0.530802
-0.0594372 -0.105017 0.530826
-0.0584981 -0.105316 0.530779
-0.0575754 -0.105638 0.530872
-0.0566309 -0.105929 0.530772
-0.0556679 -0.106192 0.530505
-0.0546571 -0.106382 0.529793
-0.0536351 -0.106552 0.528955
-0.0525922 -0.106683 0.527894
-0.0515582 -0.106822 0.526884
-0.0505512 -0.106996 0.526099
-0.049556 -0.107185 0.525402
-0.0485959 -0.107426 0.52503
-0.0476627 -0.10771 0.524915
-0.0467369 -0.108005 0.52487
-0.0458214 -0.108318 0.524929
-0.04495 -0.108709 0.525458
-0.0440768 -0.109101 0.525982
-0.0432055 -0.109499 0.526544
-0.0423176 -0.10987 0.526939
-0.041408 -0.1102 0.527098
-0.0404607 -0.110456 0.526821
-0.0395108 -0.110705 0.5265
-0.0385587 -0.110945 0.526137
-0.0375979 -0.111164 0.525651
-0.0366366 -0.111377 0.525135
-0.035676 -0.111587 0.524603
-0.0347286 -0.111822 0.52422
-0.0337901 -0.112074 0.523936
-0.032883 -0.112399 0.524069
-0.0319841 -0.112744 0.524319
-0.0310812 -0.113081 0.524521
-0.0301812 -0.113427 0.524772
-0.0292766 -0.113762 0.524963
-0.0283788 -0.114118 0.525267
-0.0274848 -0.114486 0.525641
-0.0265985 -0.11488 0.52616
-0.026038 -0.116271 0.526981
-0.0257037 -0.115254 0.526558
-0.0251285 -0.116606 0.527161
-0.0248033 -0.115614 0.526881
-0.0242106 -0.116916 0.527203
-0.0238971 -0.115958 0.527115
-0.02328 -0.117184 0.527016
-0.0229805 -0.116271 0.52717
-0.0226388 -0.118434 0.532187
-0.022197 -0.117037 0.529724
-0.0700576 -0.101434 0.535703
-0.0691132 -0.101743 0.535697
-0.0681451 -0.102025 0.535511
-0.0671269 -0.102246 0.534936
-0.0660734 -0.102423 0.534074
-0.0650389 -0.102617 0.533335
-0.0639925 -0.102793 0.532482
-0.0629703 -0.102994 0.531798
-0.0619887 -0.103243 0.531425
-0.061016 -0.103501 0.531114
-0.0600495 -0.103766 0.530844
-0.0591199 -0.104078 0.530877
-0.0581812 -0.104378 0.530831
-0.0572521 -0.10469 0.530866
-0.0562993 -0.104969 0.53069
-0.0553283 -0.10522 0.530344
-0.0543111 -0.1054 0.529565
-0.0532967 -0.10558 0.528786
-0.0522628 -0.105725 0.5278
-0.0512438 -0.105887 0.526922
-0.0502447 -0.106075 0.526207
-0.0492497 -0.106264 0.525506
-0.0482836 -0.106495 0.525069
-0.0473441 -0.106768 0.524888
-0.0464127 -0.107053 0.524781
-0.0454924 -0.107357 0.524785
-0.0446216 -0.107748 0.525315
-0.0437488 -0.108138 0.525841
-0.0428729 -0.108527 0.52635
-0.0419858 -0.108897 0.526748
-0.041072 -0.109218 0.526853
-0.0401209 -0.109465 0.526521
-0.0391672 -0.109704 0.526142
-0.0382158 -0.109944 0.525776
-0.0372524 -0.110156 0.525241
-0.0362921 -0.110369 0.524721
-0.0353328 -0.11058 0.52419
-0.0343861 -0.110814 0.523799
-0.033444 -0.111055 0.523451
-0.0325324 -0.111365 0.523506
-0.031629 -0.111696 0.523677
-0.0307222 -0.112019 0.523804
-0.0298196 -0.112354 0.523998
-0.028916 -0.112687 0.52418
-0.02802 -0.113042 0.524488
-0.0271311 -0.113421 0.524924
-0.0262498 -0.113825 0.525503
-0.0253645 -0.114223 0.526044
-0.0244794 -0.114626 0.526612
-0.0235876 -0.115014 0.527095
-0.0226821 -0.115362 0.527348
-0.0217727 -0.115698 0.527538
-0.0704901 -0.101328 0.541327
-0.0691199 -0.101169 0.538207
-0.0678986 -0.101165 0.536134
-0.0668738 -0.101381 0.535512
-0.0657963 -0.10153 0.534463
-0.0647597 -0.101723 0.533707
-0.0636972 -0.101881 0.532724
-0.0626672 -0.102073 0.531976
-0.0616859 -0.102323 0.531603
-0.060707 -0.102574 0.531238
-0.0597405 -0.102838 0.530966
-0.0588111 -0.103151 0.530999
-0.0578727 -0.10345 0.530954
-0.0569435 -0.103762 0.530987
-0.0559963 -0.104049 0.530859
-0.055019 -0.104291 0.530454
-0.0539957 -0.104464 0.529613
-0.0529757 -0.104635 0.528776
-0.0519426 -0.104782 0.527788
-0.0509196 -0.104938 0.526863
-0.0499231 -0.105129 0.526165
-0.0489295 -0.10532 0.525471
-0.0479637 -0.105552 0.525031
-0.0470184 -0.105815 0.524784
-0.0460815 -0.10609 0.524615
-0.0451609 -0.106391 0.524608
-0.0442839 -0.10677 0.52507
-0.043406 -0.10715 0.525535
-0.042519 -0.107515 0.525914
-0.0416316 -0.107882 0.5263
-0.040713 -0.108192 0.526337
-0.0397589 -0.108431 0.525953
-0.0388016 -0.10866 0.525513
-0.0378517 -0.1089 0.525145
-0.0368945 -0.109122 0.524667
-0.0359419 -0.109349 0.524226
-0.0349895 -0.109572 0.523767
-0.0340439 -0.109806 0.523374
-0.0331022 -0.110046 0.523014
-0.0321828 -0.110335 0.522947
-0.0312764 -0.110655 0.52306
-0.030367 -0.110968 0.523129
-0.0294614 -0.111291 0.523257
-0.0285589 -0.111622 0.523435
-0.0276633 -0.111974 0.523727
-0.0267723 -0.112341 0.524107
-0.0258925 -0.112744 0.524689
-0.0250146 -0.113159 0.525331
-0.0241344 -0.113572 0.525967
-0.0232512 -0.113983 0.526584
-0.0223571 -0.114365 0.527029
-0.0214588 -0.114736 0.527417
-0.0211293 -0.116976 0.532943
-0.0206877 -0.115561 0.530343
-0.0691627 -0.10063 0.541008
-0.0666546 -0.100554 0.536351
-0.065558 -0.100683 0.535158
-0.0644997 -0.100853 0.534233
-0.0634268 -0.100999 0.533166
-0.0623803 -0.101172 0.532284
-0.0613854 -0.101406 0.531798
-0.0604059 -0.101656 0.531427
-0.0594412 -0.101923 0.531168
-0.0585111 -0.102235 0.531195
-0.057573 -0.102535 0.531153
-0.0566438 -0.102847 0.531186
-0.0556977 -0.103136 0.531067
-0.0547278 -0.103389 0.530726
-0.0536993 -0.103555 0.529835
-0.0526731 -0.103718 0.528936
-0.0516383 -0.103863 0.527925
-0.0506209 -0.104028 0.527049
-0.0496252 -0.104221 0.526353
-0.0486396 -0.104426 0.525735
-0.0476797 -0.104668 0.525354
-0.0467337 -0.10493 0.525099
-0.0457846 -0.105185 0.524803
-0.0448526 -0.105467 0.524676
-0.0439637 -0.105823 0.525008
-0.0430741 -0.106181 0.525343
-0.0421704 -0.106514 0.525529
-0.0412769 -0.106868 0.525836
-0.0403482 -0.107155 0.525742
-0.0393903 -0.107384 0.525296
-0.0384341 -0.107612 0.524849
-0.0374904 -0.107862 0.524538
-0.0365399 -0.108095 0.524126
-0.0355948 -0.108336 0.523761
-0.0346492 -0.108572 0.523373
-0.0337057 -0.108808 0.522992
-0.032765 -0.109048 0.522632
-0.0318391 -0.109319 0.522458
-0.03093 -0.109629 0.522515
-0.0300178 -0.109932 0.522529
-0.0291096 -0.110244 0.522598
-0.0282082 -0.110575 0.522773
-0.0273139 -0.110926 0.523066
-0.0264237 -0.111291 0.523438
-0.0255437 -0.111689 0.523998
-0.0246663 -0.1121 0.524631
-0.0237898 -0.11252 0.525311
-0.0229149 -0.112953 0.526059
-0.0220319 -0.113366 0.526696
-0.0211441 -0.113771 0.527276
-0.0202594 -0.114193 0.527951
-0.0199195 -0.116435 0.533519
-0.0193704 -0.114607 0.528578
-0.0664272 -0.0997157 0.537133
-0.0653288 -0.099846 0.535927
-0.0642558 -0.1 0.53489
-0.0631746 -0.100139 0.533757
-0.062118 -0.100302 0.532793
-0.0611145 -0.100526 0.532238
-0.0601281 -0.100768 0.53181
-0.0591557 -0.101026 0.531487
-0.0582181 -0.101328 0.531453
-0.0572862 -0.101637 0.531465
-0.056358 -0.101951 0.531508
-0.0554207 -0.102252 0.531469
-0.0544587 -0.102518 0.531201
-0.0534302 -0.102685 0.53031
-0.052396 -0.102839 0.529334
-0.0513532 -0.102973 0.528245
-0.0503341 -0.103136 0.527349
-0.0493389 -0.103331 0.526657
-0.0483544 -0.103538 0.526047
-0.047395 -0.103782 0.52567
-0.0464487 -0.104044 0.525414
-0.0454935 -0.104289 0.525053
-0.0445555 -0.104562 0.524861
-0.0436551 -0.104898 0.52507
-0.0427488 -0.105225 0.525219
-0.0418228 -0.105516 0.525148
-0.0409128 -0.105836 0.525257
-0.0399702 -0.106094 0.524984
-0.0390093 -0.106314 0.52448
-0.0380554 -0.106543 0.52404
-0.0371222 -0.106811 0.523834
-0.0361785 -0.107055 0.523486
-0.0352402 -0.107307 0.523191
-0.034302 -0.107556 0.522879
-0.0333643 -0.107804 0.522561
-0.0324288 -0.108053 0.522253
-0.0315077 -0.108333 0.522134
-0.0306036 -0.108653 0.522251
-0.0296964 -0.108966 0.522327
-0.0287892 -0.109279 0.522401
-0.0278843 -0.109599 0.522513
-0.0269868 -0.109939 0.522746
-0.0260906 -0.110284 0.52301
-0.0252043 -0.11066 0.52345
-0.0243235 -0.111057 0.524008
-0.0234473 -0.111474 0.524678
-0.0225765 -0.111915 0.525484
-0.0217043 -0.11236 0.526307
-0.0208241 -0.112787 0.527023
-0.0199458 -0.113229 0.52782
-0.0190595 -0.113651 0.528498
-0.0672411 -0.0986732 0.538654
-0.0662118 -0.0988903 0.538013
-0.0651067 -0.0990158 0.536758
-0.0640201 -0.0991565 0.535615
-0.0629224 -0.0992779 0.534351
-0.0618501 -0.0994236 0.53326
-0.0608371 -0.0996371 0.532628
-0.0598498 -0.0998796 0.532192
-0.0588704 -0.10013 0.531811
-0.057932 -0.100431 0.53177
-0.0570056 -0.100748 0.531832
-0.0560779 -0.101063 0.531881
-0.0551419 -0.101366 0.531857
-0.0541928 -0.10165 0.531709
-0.0531648 -0.10182 0.530821
-0.0521299 -0.101975 0.529839
-0.0510796 -0.1021 0.528677
-0.0500594 -0.102263 0.527769
-0.0490589 -0.102451 0.527023
-0.0480808 -0.102669 0.526478
-0.0471162 -0.102906 0.526049
-0.0461688 -0.103167 0.525782
-0.0452077 -0.103403 0.52536
-0.0442589 -0.103657 0.525052
-0.0433476 -0.103974 0.525142
-0.0424293 -0.104279 0.525156
-0.0414875 -0.104541 0.5249
-0.0405616 -0.10483 0.524817
-0.039614 -0.105076 0.524472
-0.0386456 -0.105279 0.523859
-0.0376893 -0.105501 0.523369
-0.0367584 -0.10577 0.523175
-0.0358209 -0.106024 0.522884
-0.0348887 -0.106286 0.522649
-0.0339607 -0.106555 0.522455
-0.0330326 -0.106822 0.522251
-0.0321066 -0.107091 0.522063
-0.0311903 -0.107381 0.522
-0.0302869 -0.107701 0.522122
-0.0293802 -0.108014 0.522198
-0.0284732 -0.108326 0.522268
-0.0275689 -0.108646 0.522382
-0.0266684 -0.108976 0.522559
-0.0257687 -0.109309 0.522755
-0.0248827 -0.109685 0.523194
-0.0240021 -0.110079 0.523747
-0.0231266 -0.110496 0.524423
-0.0222591 -0.110945 0.525282
-0.0213937 -0.111411 0.526233
-0.0205169 -0.111847 0.527013
-0.0196394 -0.112291 0.527829
-0.0187554 -0.112721 0.528557
-0.0671078 -0.0979358 0.540166
-0.0659682 -0.0980315 0.538679
-0.0648853 -0.0981851 0.5376
-0.0637968 -0.0983265 0.536445
-0.0627059 -0.0984589 0.535239
-0.0616325 -0.0986061 0.534141
-0.0606026 -0.0988011 0.533375
-0.0595996 -0.0990257 0.532812
-0.0586118 -0.0992665 0.532363
-0.0576662 -0.0995594 0.532264
-0.0567392 -0.0998762 0.532325
-0.0558106 -0.100191 0.532372
-0.0548737 -0.100494 0.532343
-0.0539245 -0.100779 0.532197
-0.0528964 -0.100951 0.531309
-0.0518559 -0.101099 0.530272
-0.0508061 -0.101226 0.529112
-0.0497813 -0.101384 0.528156
-0.0487746 -0.101564 0.527349
-0.0477963 -0.101783 0.5268
-0.0468366 -0.102028 0.52642
-0.0458838 -0.102281 0.526099
-0.0449224 -0.102517 0.525673
-0.0439725 -0.10277 0.525354
-0.043046 -0.103061 0.525279
-0.0421117 -0.103338 0.525111
-0.0411584 -0.103578 0.524717
-0.0402214 -0.103845 0.524497
-0.0392652 -0.104073 0.524037
-0.038298 -0.104276 0.523423
-0.0373439 -0.1045 0.522943
-0.0364145 -0.104771 0.522753
-0.0354824 -0.105033 0.522517
-0.0345556 -0.105305 0.522339
-0.0336329 -0.105584 0.522204
-0.032711 -0.105863 0.522072
-0.0317903 -0.106143 0.521948
-0.030875 -0.106434 0.521894
-0.0299722 -0.106755 0.522017
-0.0290661 -0.107067 0.522093
-0.0281597 -0.10738 0.522166
-0.0272588 -0.107707 0.522328
-0.0263583 -0.108036 0.5225
-0.0254585 -0.108368 0.52269
-0.0245725 -0.108741 0.523124
-0.0236923 -0.109136 0.523682
-0.0228145 -0.109544 0.524313
-0.0219471 -0.109992 0.525175
-0.0210818 -0.110456 0.526127
-0.0202081 -0.110902 0.526969
-0.019331 -0.111346 0.527792
-0.0184468 -0.111774 0.528517
-0.0669468 -0.0971651 0.541477
-0.0657131 -0.0971587 0.53926
-0.0646516 -0.097339 0.53835
-0.0635737 -0.0974953 0.537283
-0.0624908 -0.09764 0.536143
-0.0614231 -0.0977971 0.535098
-0.0603771 -0.097975 0.534203
-0.0593652 -0.0981908 0.533571
-0.0583625 -0.0984145 0.532999
-0.0574098 -0.0986997 0.532844
-0.056475 -0.0990073 0.532842
-0.0555387 -0.0993125 0.532824
-0.0545998 -0.0996137 0.53278
-0.0536495 -0.0998985 0.532627
-0.0526219 -0.100072 0.531741
-0.0515831 -0.100224 0.530719
-0.0505396 -0.100363 0.529617
-0.0495203 -0.100531 0.528716
-0.0485133 -0.100712 0.527907
-0.0475346 -0.100932 0.527356
-0.0465742 -0.101177 0.526974
-0.0456154 -0.101422 0.526592
-0.0446479 -0.10165 0.526103
-0.0436873 -0.101885 0.525669
-0.0427486 -0.102156 0.525461
-0.0417983 -0.102404 0.52511
-0.0408394 -0.102633 0.524646
-0.0398884 -0.102874 0.524254
-0.0389279 -0.103093 0.523731
-0.0379616 -0.103296 0.523114
-0.0370128 -0.103529 0.522686
-0.036084 -0.103799 0.522493
-0.0351572 -0.104071 0.522315
-0.0342358 -0.104353 0.522197
-0.0333188 -0.104643 0.522133
-0.0324024 -0.104933 0.52207
-0.0314871 -0.105225 0.522015
-0.0305764 -0.105527 0.522024
-0.0296735 -0.105847 0.522145
-0.028767 -0.106158 0.522215
-0.0278603 -0.10647 0.522281
-0.0269568 -0.106789 0.522399
-0.0260531 -0.107109 0.522517
-0.0251565 -0.107449 0.522755
-0.0242702 -0.107821 0.523186
-0.0233904 -0.108217 0.523752
-0.0225161 -0.108635 0.52445
-0.0216516 -0.109092 0.525374
-0.0207851 -0.109552 0.526312
-0.0199135 -0.110006 0.527205
-0.019036 -0.110448 0.528029
-0.0181494 -0.110868 0.528714
-0.0668054 -0.0964136 0.542949
-0.0654971 -0.096329 0.540152
-0.0644119 -0.0964849 0.539057
-0.0633366 -0.0966466 0.538013
-0.0622713 -0.0968146 0.537019
-0.0612179 -0.0969916 0.536096
-0.0601704 -0.0971708 0.535196
-0.059147 -0.097375 0.534474
-0.058129 -0.0975818 0.533776
-0.0571611 -0.0978493 0.533496
-0.0562192 -0.0981488 0.533436
-0.0552747 -0.0984443 0.53335
-0.0543276 -0.0987353 0.533235
-0.0533701 -0.099011 0.533018
-0.0523425 -0.099186 0.532131
-0.051304 -0.0993399 0.531109
-0.0502676 -0.0994904 0.530073
-0.0492482 -0.0996599 0.52917
-0.0482415 -0.0998428 0.528362
-0.0472615 -0.100062 0.527799
-0.0463012 -0.100309 0.52742
-0.0453373 -0.100547 0.526987
-0.0443694 -0.100775 0.526493
-0.0434122 -0.101017 0.526098
-0.0424621 -0.101269 0.525764
-0.041496 -0.10149 0.525234
-0.0405303 -0.101707 0.524686
-0.0395697 -0.101929 0.524175
-0.0386009 -0.102132 0.523543
-0.037636 -0.102337 0.52293
-0.0366917 -0.102578 0.522549
-0.0357637 -0.102849 0.522357
-0.0348381 -0.103122 0.522185
-0.0339219 -0.103414 0.52213
-0.0330104 -0.103715 0.522133
-0.0320992 -0.104016 0.522137
-0.0311884 -0.104318 0.522145
-0.0302816 -0.104628 0.522208
-0.0293784 -0.104948 0.522326
-0.0284718 -0.105259 0.522393
-0.027565 -0.10557 0.522457
-0.0266617 -0.10589 0.522579
-0.0257549 -0.106201 0.522646
-0.0248554 -0.106533 0.522837
-0.0239654 -0.106894 0.523202
-0.0230887 -0.107298 0.523825
-0.0222112 -0.107705 0.524465
-0.0213499 -0.108172 0.525453
-0.0204854 -0.108638 0.52644
-0.0196161 -0.109099 0.527385
-0.0187352 -0.109531 0.528149
-0.0178515 -0.10996 0.528897
-0.0702147 -0.0973891 0.55433
-0.0719446 -0.0978644 0.559999
-0.071468 -0.0967341 0.558992
-0.0698706 -0.0964025 0.554291
-0.0684748 -0.0968765 0.548442
-0.0682478 -0.0960215 0.549274
-0.0666561 -0.0956508 0.54437
-0.0652904 -0.0955082 0.541123
-0.0641783 -0.0956367 0.539819
-0.063097 -0.095794 0.538728
-0.0620421 -0.0959764 0.537821
-0.0609978 -0.0961668 0.536978
-0.0599554 -0.0963549 0.536126
-0.0589241 -0.0965519 0.535342
-0.0578957 -0.0967483 0.534561
-0.0569184 -0.0970054 0.534204
-0.0559615 -0.097287 0.534017
-0.0550027 -0.0975646 0.533806
-0.0540428 -0.0978393 0.533577
-0.0530836 -0.0981134 0.533345
-0.0520569 -0.098291 0.532464
-0.0510183 -0.0984459 0.531436
-0.0499881 -0.0986069 0.530458
-0.0489743 -0.098786 0.529608
-0.0479626 -0.0989628 0.528749
-0.0469832 -0.099184 0.528192
-0.0460276 -0.099439 0.527862
-0.045058 -0.099669 0.527371
-0.0440848 -0.0998895 0.526821
-0.0431275 -0.100132 0.526422
-0.0421669 -0.100367 0.525971
-0.0411937 -0.100576 0.525357
-0.0402277 -0.100793 0.524801
-0.0392666 -0.101014 0.524278
-0.0382988 -0.101219 0.523651
-0.0373387 -0.101433 0.523093
-0.0363955 -0.101677 0.522722
-0.0354638 -0.10194 0.522479
-0.0345383 -0.102214 0.522307
-0.0336225 -0.102506 0.522255
-0.0327112 -0.102807 0.522259
-0.0318005 -0.103109 0.522267
-0.0308936 -0.10342 0.52233
-0.0299868 -0.10373 0.522393
-0.02908 -0.104041 0.522456
-0.0281732 -0.104351 0.522519
-0.0272663 -0.104662 0.522581
-0.0263631 -0.104982 0.522703
-0.0254565 -0.105294 0.522772
-0.0245567 -0.105624 0.522958
-0.0236632 -0.105974 0.523261
-0.022786 -0.106376 0.523876
-0.0219082 -0.106782 0.524515
-0.02105 -0.107257 0.525568
-0.0201886 -0.107734 0.526622
-0.0193273 -0.108223 0.527744
-0.0184487 -0.108664 0.528571
-0.0175667 -0.109101 0.529375
-0.0694584 -0.0953445 0.553728
-0.0679356 -0.095074 0.549453
-0.0664107 -0.0947811 0.54505
-0.0650215 -0.094617 0.541608
-0.063905 -0.0947426 0.540265
-0.0628391 -0.0949193 0.539298
-0.0618083 -0.0951318 0.538592
-0.0607856 -0.0953501 0.537934
-0.0597507 -0.0955499 0.53715
-0.0587044 -0.0957315 0.536245
-0.0576669 -0.0959191 0.53539
-0.0566739 -0.0961585 0.534902
-0.0556946 -0.0964126 0.53452
-0.0547215 -0.0966725 0.534182
-0.0537601 -0.0969459 0.53394
-0.0527948 -0.0972123 0.533652
-0.0517686 -0.0973916 0.532771
-0.0507362 -0.0975569 0.531802
-0.0497122 -0.0977282 0.530881
-0.0486993 -0.0979101 0.530038
-0.0476878 -0.0980887 0.529181
-0.046708 -0.0983107 0.52862
-0.0457519 -0.0985658 0.528286
-0.044777 -0.0987885 0.527739
-0.0438038 -0.09901 0.527188
-0.0428465 -0.099254 0.526791
-0.0418762 -0.0994726 0.52623
-0.0408983 -0.0996739 0.525559
-0.039936 -0.099898 0.525042
-0.0389707 -0.100112 0.524466
-0.0380041 -0.10032 0.52385
-0.037054 -0.100554 0.523411
-0.0361153 -0.100807 0.523097
-0.0351839 -0.101071 0.522861
-0.0342624 -0.101354 0.522743
-0.0333457 -0.101646 0.522682
-0.0324292 -0.101937 0.522621
-0.0315175 -0.102237 0.522619
-0.0306103 -0.102548 0.522682
-0.0297037 -0.10286 0.522751
-0.0288004 -0.10318 0.522873
-0.0278968 -0.103499 0.522991
-0.0269861 -0.103801 0.522999
-0.0260786 -0.104111 0.523058
-0.025168 -0.104412 0.523064
-0.0242642 -0.104732 0.523183
-0.0233639 -0.105063 0.523369
-0.0224825 -0.105452 0.52391
-0.0216045 -0.105856 0.524546
-0.0207466 -0.106332 0.525613
-0.0198863 -0.106811 0.526694
-0.019031 -0.10732 0.527949
-0.0181581 -0.107782 0.528908
-0.0172757 -0.108219 0.529717
-0.0689495 -0.0941875 0.552418
-0.067503 -0.0939991 0.548698
-0.0660613 -0.0937983 0.544917
-0.064739 -0.0937104 0.541987
-0.0636144 -0.0938289 0.540575
-0.0625568 -0.0940163 0.539673
-0.0615351 -0.0942405 0.539041
-0.0605343 -0.0944857 0.538566
-0.0595075 -0.0946973 0.537854
-0.0584611 -0.094881 0.536951
-0.0574168 -0.0950624 0.536039
-0.056421 -0.0952999 0.535529
-0.0554266 -0.0955362 0.535017
-0.0544456 -0.095787 0.534608
-0.053482 -0.0960583 0.534348
-0.0525109 -0.0963177 0.534006
-0.0514784 -0.0964897 0.533063
-0.0504479 -0.0966587 0.532107
-0.0494246 -0.0968323 0.53119
-0.0484124 -0.0970163 0.530352
-0.0474068 -0.0972048 0.52955
-0.0464269 -0.0974278 0.528989
-0.0454649 -0.0976747 0.528595
-0.0444897 -0.0978975 0.528041
-0.0435162 -0.0981193 0.527486
-0.0425544 -0.0983565 0.527037
-0.0415844 -0.0985765 0.526477
-0.0406071 -0.0987794 0.525809
-0.0396501 -0.0990136 0.525353
-0.0386818 -0.0992233 0.524739
-0.0377202 -0.0994407 0.52418
-0.0367751 -0.0996854 0.523805
-0.0358414 -0.0999489 0.523555
-0.03491 -0.100215 0.523323
-0.0339921 -0.100506 0.523259
-0.0330739 -0.100796 0.523185
-0.0321564 -0.101086 0.523114
-0.0312437 -0.101386 0.523106
-0.0303361 -0.101697 0.523169
-0.0294293 -0.102009 0.523242
-0.0285259 -0.10233 0.52337
-0.0276219 -0.10265 0.523492
-0.0267071 -0.102943 0.523442
-0.025792 -0.103234 0.52338
-0.024877 -0.103524 0.523314
-0.023969 -0.103833 0.523362
-0.0230653 -0.104154 0.523488
-0.0221835 -0.104541 0.524027
-0.021311 -0.104962 0.52477
-0.0204555 -0.105446 0.525894
-0.0195982 -0.105936 0.527054
-0.0187457 -0.106456 0.528388
-0.0178803 -0.106946 0.529528
-0.0656804 -0.0927824 0.544531
-0.0644348 -0.0927797 0.542194
-0.0633145 -0.0929046 0.540811
-0.0622672 -0.0931046 0.539988
-0.0612535 -0.093339 0.539423
-0.0602609 -0.0935949 0.539017
-0.0592484 -0.0938247 0.538427
-0.0582098 -0.0940198 0.537592
-0.0571716 -0.0942108 0.536736
-0.0561757 -0.0944501 0.536231
-0.0551736 -0.0946783 0.535651
-0.0541841 -0.0949198 0.53517
-0.0532131 -0.0951825 0.534844
-0.0522354 -0.0954342 0.534442
-0.0512094 -0.0956167 0.53356
-0.0501966 -0.0958124 0.532777
-0.0491687 -0.0959815 0.531815
-0.0481509 -0.0961594 0.530923
-0.0471433 -0.0963469 0.530103
-0.0461514 -0.096553 0.529418
-0.0451731 -0.0967756 0.528852
-0.0441977 -0.096999 0.528295
-0.0432239 -0.0972209 0.527732
-0.0422567 -0.0974498 0.527221
-0.0412869 -0.0976704 0.52666
-0.0403146 -0.0978825 0.526045
-0.039364 -0.0981283 0.525661
-0.0384058 -0.0983577 0.52517
-0.0374503 -0.0985877 0.524687
-0.0365135 -0.0988494 0.524419
-0.0355793 -0.0991139 0.52417
-0.0346473 -0.0993805 0.523938
-0.0337251 -0.0996648 0.523825
-0.0328067 -0.0999556 0.523754
-0.0318848 -0.100238 0.523629
-0.0309712 -0.100537 0.523615
-0.0300632 -0.100848 0.523678
-0.0291561 -0.101162 0.523758
-0.0282524 -0.101483 0.52389
-0.027348 -0.101804 0.524014
-0.026429 -0.102088 0.523902
-0.0255094 -0.102368 0.523773
-0.0245927 -0.102655 0.523682
-0.023681 -0.102954 0.52367
-0.0227743 -0.103266 0.523745
-0.0218924 -0.103654 0.524288
-0.0210226 -0.104084 0.525093
-0.0201662 -0.104565 0.526217
-0.0193109 -0.105063 0.527434
-0.0184599 -0.10559 0.528821
-0.0176045 -0.106118 0.530205
-0.0652311 -0.0916951 0.543597
-0.0640411 -0.0917524 0.541682
-0.0629718 -0.091933 0.540698
-0.061956 -0.0921686 0.540127
-0.0609502 -0.0924125 0.539624
-0.059966 -0.0926786 0.539288
-0.0589674 -0.0929257 0.538816
-0.0579373 -0.0931323 0.538053
-0.0569135 -0.0933425 0.537324
-0.0559315 -0.0936006 0.536946
-0.0549302 -0.0938319 0.536379
-0.0539402 -0.0940745 0.535897
-0.0529743 -0.0943459 0.535626
-0.0519947 -0.0945971 0.535213
-0.0509747 -0.0947903 0.534393
-0.0499739 -0.0950052 0.533734
-0.0489512 -0.0951849 0.532832
-0.0479264 -0.0953558 0.531876
-0.0469162 -0.0955424 0.531038
-0.0459108 -0.0957309 0.530219
-0.0449201 -0.0959367 0.529526
-0.043933 -0.0961434 0.528845
-0.0429581 -0.0963652 0.528274
-0.0419848 -0.0965857 0.527698
-0.0410148 -0.0968074 0.527135
-0.0400474 -0.0970294 0.526579
-0.0391013 -0.0972848 0.526253
-0.0381439 -0.0975171 0.525775
-0.0371927 -0.097757 0.525351
-0.0362598 -0.0980281 0.52514
-0.0353207 -0.0982851 0.524836
-0.0343839 -0.098544 0.524548
-0.0334606 -0.098828 0.524428
-0.0325378 -0.0991114 0.524307
-0.0316119 -0.0993865 0.524131
-0.0306988 -0.0996879 0.52413
-0.0297902 -0.099999 0.524193
-0.0288821 -0.100312 0.524265
-0.0279776 -0.100633 0.524394
-0.0270725 -0.100953 0.524516
-0.0261495 -0.101228 0.524346
-0.025229 -0.101508 0.524205
-0.0243117 -0.101794 0.52411
-0.0233998 -0.102094 0.524101
-0.0224962 -0.102417 0.524241
-0.0216174 -0.102815 0.524857
-0.0207468 -0.103244 0.525667
-0.0198894 -0.103725 0.526794
-0.0190325 -0.10422 0.528002
-0.0181771 -0.104735 0.529326
-0.0173281 -0.105288 0.530881
-0.0616208 -0.091206 0.540067
-0.0606236 -0.0914596 0.53963
-0.0596543 -0.0917428 0.539416
-0.0586645 -0.0920006 0.539016
-0.0576492 -0.0922257 0.538381
-0.0566414 -0.0924563 0.537791
-0.0556743 -0.0927341 0.537549
-0.0546875 -0.0929853 0.537118
-0.0537161 -0.0932538 0.536816
-0.0527685 -0.0935514 0.536727
-0.0517953 -0.0938141 0.536387
-0.0507869 -0.0940265 0.535691
-0.0497911 -0.0942522 0.535095
-0.0487681 -0.0944356 0.534204
-0.0477297 -0.0945911 0.533123
-0.0467151 -0.0947751 0.532251
-0.0456951 -0.0949453 0.53129
-0.0446864 -0.0951265 0.530414
-0.0436917 -0.0953242 0.529658
-0.0427102 -0.0955379 0.529021
-0.0417261 -0.0957427 0.528327
-0.0407555 -0.0959653 0.527762
-0.039792 -0.0961959 0.527256
-0.038846 -0.0964536 0.52694
-0.037893 -0.0966958 0.526521
-0.0369411 -0.0969367 0.526096
-0.0360032 -0.0972007 0.525832
-0.0350582 -0.0974482 0.525458
-0.0341161 -0.0976985 0.525107
-0.0331912 -0.0979806 0.524972
-0.032268 -0.0982645 0.52485
-0.0313417 -0.0985404 0.524676
-0.0304318 -0.0988507 0.524731
-0.0295261 -0.0991704 0.524849
-0.028614 -0.0994754 0.52487
-0.0277084 -0.0997957 0.524991
-0.026802 -0.100115 0.525103
-0.0258748 -0.100381 0.524874
-0.0249509 -0.100653 0.524682
-0.0240336 -0.100941 0.524595
-0.0231249 -0.101251 0.524651
-0.0222245 -0.101585 0.524862
-0.0213481 -0.101993 0.525543
-0.0204794 -0.102431 0.526415
-0.0196206 -0.102911 0.527543
-0.0187593 -0.103395 0.528692
-0.017897 -0.103888 0.529895
-0.0170515 -0.104457 0.531563
-0.057324 -0.0912749 0.538382
-0.0563251 -0.0915164 0.537865
-0.0553733 -0.0918129 0.53776
-0.0544082 -0.0920918 0.537526
-0.0534587 -0.0923892 0.53743
-0.0525312 -0.0927142 0.537537
-0.0515716 -0.092997 0.537337
-0.050582 -0.0932376 0.536833
-0.0495919 -0.0934744 0.536306
-0.0485792 -0.093676 0.535531
-0.0475388 -0.0938329 0.534441
-0.0465231 -0.0940195 0.533572
-0.045494 -0.0941801 0.532527
-0.0444769 -0.0943527 0.531574
-0.0434694 -0.0945338 0.530689
-0.0424806 -0.094739 0.529981
-0.0414949 -0.0949442 0.529278
-0.0405236 -0.0951685 0.528714
-0.0395603 -0.0954025 0.528222
-0.0386128 -0.0956603 0.5279
-0.0376626 -0.0959107 0.527529
-0.0367048 -0.0961438 0.527043
-0.0357607 -0.0963991 0.526712
-0.0348142 -0.0966466 0.526331
-0.0338658 -0.0968873 0.525907
-0.0329311 -0.0971517 0.525648
-0.032006 -0.097434 0.525511
-0.0310788 -0.0977098 0.525332
-0.0301646 -0.0980127 0.525336
-0.0292586 -0.0983331 0.525458
-0.0283453 -0.0986375 0.525472
-0.0274353 -0.0989491 0.525535
-0.0265247 -0.0992592 0.525588
-0.0255971 -0.099526 0.525356
-0.0246762 -0.0998075 0.525223
-0.0237623 -0.100106 0.525205
-0.0228569 -0.100428 0.525334
-0.0219588 -0.100771 0.525606
-0.0210843 -0.101187 0.526345
-0.0202144 -0.101626 0.527223
-0.0193542 -0.102104 0.528355
-0.0184885 -0.102577 0.529444
-0.0176243 -0.103068 0.530639
-0.0167798 -0.103645 0.532372
-0.0522758 -0.0918526 0.538182
-0.0513367 -0.0921637 0.538186
-0.0503602 -0.0924243 0.537819
-0.0493811 -0.0926789 0.537412
-0.0483792 -0.092899 0.536757
-0.0473383 -0.0930591 0.535674
-0.0463162 -0.09324 0.534748
-0.0452809 -0.0933955 0.533648
-0.0442567 -0.0935607 0.532627
-0.0432365 -0.0937256 0.531612
-0.0422406 -0.0939223 0.530832
-0.0412545 -0.0941295 0.530131
-0.0402867 -0.0943624 0.529619
-0.0393233 -0.0945989 0.529136
-0.0383753 -0.0948586 0.528819
-0.0374284 -0.0951175 0.5285
-0.0364684 -0.0953499 0.527999
-0.0355229 -0.0956054 0.527663
-0.0345749 -0.0958532 0.527276
-0.0336208 -0.0960856 0.526787
-0.0326807 -0.0963421 0.526467
-0.0317537 -0.0966228 0.526314
-0.0308219 -0.0968917 0.526083
-0.0299028 -0.0971859 0.526027
-0.0289957 -0.0975062 0.526146
-0.0280746 -0.0977943 0.526049
-0.0271599 -0.0980966 0.526048
-0.0262449 -0.0983973 0.526037
-0.025317 -0.0986646 0.525805
-0.0243994 -0.0989563 0.525735
-0.023495 -0.0992822 0.525894
-0.0225922 -0.0996135 0.526086
-0.0216994 -0.0999753 0.526478
-0.0208265 -0.1004 0.52728
-0.0199519 -0.100828 0.528096
-0.0190845 -0.101287 0.529112
-0.0182146 -0.10175 0.530142
-0.0173414 -0.102213 0.531167
-0.0481312 -0.0920534 0.537503
-0.0470965 -0.0922249 0.536488
-0.046076 -0.0924108 0.535585
-0.0450466 -0.0925777 0.534551
-0.0440257 -0.0927509 0.533573
-0.0429994 -0.0929095 0.532496
-0.0419973 -0.0930993 0.531653
-0.0410148 -0.093315 0.531003
-0.0400521 -0.0935589 0.530559
-0.039093 -0.0938055 0.530139
-0.0381443 -0.0940671 0.529828
-0.0371955 -0.0943258 0.529499
-0.0362344 -0.0945594 0.528997
-0.0352838 -0.0948085 0.528608
-0.0343312 -0.0950504 0.528173
-0.0333761 -0.0952839 0.527683
-0.0324346 -0.0955405 0.527356
-0.0315027 -0.0958139 0.527148
-0.0305698 -0.096083 0.526913
-0.0296499 -0.0963781 0.526858
-0.0287378 -0.0966899 0.526918
-0.0278108 -0.0969672 0.526744
-0.0268946 -0.0972678 0.526729
-0.0259755 -0.0975608 0.526663
-0.0250472 -0.0978295 0.526435
-0.0241356 -0.0981388 0.526481
-0.0232338 -0.0984745 0.526704
-0.0223337 -0.0988168 0.526968
-0.0214461 -0.0991968 0.527482
-0.0205715 -0.0996209 0.528284
-0.0196925 -0.10004 0.529047
-0.0188198 -0.100487 0.529988
-0.0179423 -0.100928 0.530886
-0.0170596 -0.101362 0.53173
-0.0457912 -0.0915161 0.535953
-0.044768 -0.0916936 0.534983
-0.0437476 -0.0918692 0.534008
-0.042726 -0.0920366 0.532982
-0.0417245 -0.092229 0.532145
-0.0407424 -0.0924468 0.5315
-0.0397847 -0.0927004 0.531119
-0.0388303 -0.0929566 0.530761
-0.037882 -0.0932203 0.53046
-0.0369371 -0.0934877 0.530187
-0.0359799 -0.0937306 0.529742
-0.0350293 -0.0939819 0.529362
-0.0340767 -0.0942263 0.528935
-0.0331257 -0.0944702 0.528509
-0.0321829 -0.0947268 0.528176
-0.0312502 -0.0950012 0.52797
-0.0303168 -0.095272 0.527741
-0.0293962 -0.0955681 0.52769
-0.0284789 -0.0958709 0.527685
-0.0275462 -0.0961377 0.527433
-0.0266248 -0.0964283 0.527347
-0.0257011 -0.0967119 0.527214
-0.024773 -0.0969827 0.526995
-0.0238645 -0.0973021 0.527108
-0.0229657 -0.0976481 0.527401
-0.0220713 -0.0980086 0.527789
-0.0211862 -0.0983996 0.528379
-0.0203077 -0.0988156 0.529133
-0.0194242 -0.0992237 0.529829
-0.0185461 -0.0996573 0.530689
-0.0176587 -0.100068 0.531395
-0.0167693 -0.100481 0.532104
-0.0404578 -0.0915586 0.53186
-0.0395053 -0.0918216 0.531541
-0.0385471 -0.0920723 0.531137
-0.0376031 -0.0923445 0.530891
-0.0366583 -0.0926131 0.530623
-0.0357053 -0.0928647 0.530233
-0.0347596 -0.0931264 0.529921
-0.0338114 -0.0933809 0.52956
-0.032864 -0.0936335 0.529189
-0.0319206 -0.0938911 0.528856
-0.0309873 -0.0941664 0.528651
-0.0300533 -0.0944378 0.528421
-0.0291286 -0.0947273 0.52832
-0.028203 -0.0950134 0.528196
-0.0272693 -0.0952793 0.527933
-0.0263432 -0.0955602 0.527777
-0.0254161 -0.095837 0.527594
-0.0244913 -0.0961169 0.527435
-0.0235888 -0.096453 0.527661
-0.0226932 -0.0968093 0.528026
-0.0217988 -0.0971721 0.528431
-0.0209129 -0.0975627 0.529023
-0.0200331 -0.0979776 0.529775
-0.0191423 -0.0983661 0.530344
-0.0182552 -0.0987718 0.531026
-0.0173612 -0.0991623 0.531601
-0.0372995 -0.0914261 0.531016
-0.0363551 -0.0916954 0.530749
-0.0354073 -0.0919564 0.530424
-0.0344706 -0.0922351 0.53023
-0.0335231 -0.0924914 0.529876
-0.0325798 -0.0927529 0.529563
-0.0316401 -0.0930187 0.529283
-0.0307065 -0.0932944 0.529078
-0.0297686 -0.0935589 0.528794
-0.0288434 -0.0938479 0.528687
-0.0279133 -0.094125 0.528497
-0.0269763 -0.0943836 0.528179
-0.0260469 -0.0946571 0.527968
-0.0251199 -0.0949342 0.527784
-0.0241951 -0.0952141 0.527622
-0.0232929 -0.0955513 0.527858
-0.0223973 -0.0959074 0.528224
-0.0215057 -0.096278 0.528687
-0.0206191 -0.0966671 0.529274
-0.0564779 -0.267705 0.528275
-0.0572695 -0.26697 0.529635
-0.0565237 -0.268164 0.531641
-0.0557351 -0.268917 0.530308
-0.0555664 -0.268542 0.531809
-0.0547779 -0.269285 0.53046
-0.0545965 -0.268869 0.531865
-0.0535999 -0.268745 0.528588
-0.0536207 -0.269173 0.53187
-0.0528826 -0.270109 0.530954
-0.0526394 -0.269451 0.531819
-0.0578866 -0.265312 0.526585
-0.0587718 -0.264921 0.528726
-0.0579328 -0.265728 0.529866
-0.0570796 -0.266495 0.530916
-0.0561259 -0.266878 0.531101
-0.0551777 -0.267287 0.531343
-0.0542162 -0.267643 0.531466
-0.0532488 -0.267978 0.531539
-0.0522833 -0.268316 0.531623
-0.0621518 -0.261923 0.524651
-0.0628014 -0.260525 0.522151
-0.0628707 -0.260901 0.525357
-0.0619229 -0.261266 0.525508
-0.0612505 -0.262452 0.525172
-0.0609941 -0.2617 0.525816
-0.060394 -0.263149 0.526075
-0.0601397 -0.262409 0.526748
-0.0595992 -0.264087 0.527518
-0.0593092 -0.263218 0.527905
-0.0584532 -0.263946 0.528877
-0.0575759 -0.264607 0.529691
-0.0566955 -0.265265 0.5305
-0.0557419 -0.265646 0.53068
-0.0548028 -0.266087 0.530994
-0.0538498 -0.266473 0.531185
-0.052899 -0.266871 0.531404
-0.0519473 -0.267267 0.531617
-0.0516121 -0.269922 0.534541
-0.0510126 -0.267741 0.532005
-0.0625112 -0.259784 0.52517
-0.0617121 -0.260672 0.526518
-0.0607667 -0.261053 0.526703
-0.0599012 -0.261728 0.527556
-0.0590397 -0.262426 0.528466
-0.0581491 -0.263026 0.529151
-0.0572455 -0.263588 0.529741
-0.0563387 -0.264143 0.53032
-0.0553821 -0.264508 0.530466
-0.0544434 -0.264947 0.53078
-0.0534918 -0.265339 0.530982
-0.0525492 -0.265766 0.531269
-0.0515989 -0.266168 0.531493
-0.0506719 -0.266671 0.531948
-0.0503429 -0.26938 0.535003
-0.049744 -0.267177 0.532409
-0.0623626 -0.259404 0.526669
-0.0615624 -0.260298 0.528034
-0.0606066 -0.26065 0.528152
-0.0597156 -0.261238 0.528815
-0.0588201 -0.261819 0.529455
-0.057888 -0.262269 0.529797
-0.0569466 -0.262688 0.530067
-0.0560097 -0.263127 0.530381
-0.0550387 -0.263436 0.530398
-0.0540938 -0.263848 0.53065
-0.0531436 -0.26424 0.530858
-0.0522001 -0.264665 0.531139
-0.0512563 -0.26509 0.53142
-0.0503352 -0.265617 0.531931
-0.0494211 -0.26618 0.532522
-0.049091 -0.268915 0.53564
-0.0485077 -0.266759 0.533147
-0.062022 -0.258353 0.526634
-0.0613901 -0.259842 0.529377
-0.0604261 -0.260171 0.529444
-0.0595097 -0.260675 0.529911
-0.0585813 -0.261139 0.530287
-0.0576147 -0.261466 0.530343
-0.056649 -0.261794 0.530404
-0.0556832 -0.262121 0.530465
-0.0547112 -0.262426 0.53047
-0.0537598 -0.26281 0.530661
-0.052808 -0.263197 0.530857
-0.0518635 -0.263614 0.531121
-0.0509309 -0.264086 0.531509
-0.0500113 -0.264617 0.532032
-0.0491037 -0.265211 0.532697
-0.0481972 -0.265818 0.533389
-0.0616759 -0.257283 0.526554
-0.0612 -0.259324 0.530586
-0.0602329 -0.25965 0.530642
-0.0592992 -0.260096 0.530979
-0.0583456 -0.260474 0.531153
-0.0573482 -0.260688 0.53095
-0.0563644 -0.26095 0.530859
-0.0553832 -0.261219 0.530785
-0.0543975 -0.26147 0.530666
-0.0534385 -0.261824 0.53079
-0.0524799 -0.262182 0.530918
-0.0515351 -0.262595 0.531177
-0.0506094 -0.263097 0.531633
-0.0497025 -0.263685 0.532285
-0.0487975 -0.264289 0.532978
-0.0478954 -0.264918 0.533721
-0.047544 -0.267593 0.536724
-0.0469719 -0.265461 0.534268
-0.0613442 -0.256263 0.526585
-0.0610196 -0.258841 0.531886
-0.0600501 -0.259165 0.531936
-0.0590912 -0.259529 0.532076
-0.0581138 -0.259822 0.532059
-0.0570922 -0.25995 0.531653
-0.0560861 -0.26013 0.531371
-0.0550831 -0.260317 0.531106
-0.0540838 -0.260513 0.530863
-0.0531108 -0.260812 0.530856
-0.0521453 -0.261141 0.530918
-0.0512009 -0.261556 0.531182
-0.0502835 -0.262091 0.531716
-0.049387 -0.26272 0.532471
-0.0484886 -0.263354 0.533231
-0.0475845 -0.263977 0.533964
-0.0466524 -0.26448 0.53442
-0.0610835 -0.255493 0.527197
-0.0607885 -0.258178 0.532775
-0.0598232 -0.258522 0.532871
-0.0588465 -0.258826 0.53287
-0.0578532 -0.259066 0.532723
-0.0568303 -0.25919 0.532312
-0.0558087 -0.259314 0.531894
-0.0547849 -0.259421 0.531443
-0.0537694 -0.259556 0.531053
-0.0527888 -0.259822 0.530974
-0.051823 -0.260147 0.53103
-0.0508866 -0.260597 0.531373
-0.0499836 -0.261192 0.532048
-0.0490994 -0.26188 0.532938
-0.0482002 -0.262514 0.533699
-0.0472894 -0.263108 0.53437
-0.0463445 -0.263553 0.534696
-0.0459475 -0.266052 0.537318
-0.0453667 -0.26385 0.534685
-0.0605344 -0.257434 0.533479
-0.0595656 -0.25777 0.533552
-0.0585814 -0.258048 0.533495
-0.0575797 -0.25826 0.533281
-0.0565554 -0.258383 0.532858
-0.0555271 -0.258481 0.532384
-0.0544931 -0.258553 0.531842
-0.0534697 -0.258654 0.53138
-0.0524806 -0.258888 0.531221
-0.0515083 -0.259187 0.531214
-0.0505723 -0.259639 0.531563
-0.0496633 -0.26021 0.532189
-0.0487843 -0.26092 0.53313
-0.0478846 -0.261552 0.53389
-0.0469737 -0.262145 0.534561
-0.0460236 -0.262567 0.534837
-0.0450401 -0.262836 0.534758
-0.0443757 -0.264085 0.534526
-0.0440268 -0.262961 0.534351
-0.0601217 -0.256128 0.53286
-0.0593046 -0.257004 0.534211
-0.0583187 -0.257281 0.534143
-0.0573104 -0.257471 0.533878
-0.0562869 -0.257599 0.533466
-0.0552506 -0.25767 0.532925
-0.0542031 -0.257689 0.532259
-0.053157 -0.257704 0.531587
-0.0521597 -0.257904 0.531349
-0.0511813 -0.258179 0.531287
-0.0502462 -0.258632 0.531641
-0.0493371 -0.2592 0.532261
-0.0484552 -0.259899 0.53318
-0.047554 -0.260523 0.53393
-0.0466438 -0.261119 0.534606
-0.0456952 -0.261545 0.534894
-0.0447179 -0.261844 0.534882
-0.0437091 -0.26199 0.53452
-0.0598183 -0.25521 0.533152
-0.0590175 -0.256147 0.534651
-0.0580324 -0.256427 0.534594
-0.0570325 -0.256649 0.534402
-0.0560099 -0.256783 0.534001
-0.0549659 -0.256827 0.533392
-0.0539041 -0.256791 0.532596
-0.0528499 -0.256774 0.531846
-0.0518343 -0.2569 0.531433
-0.0508559 -0.257172 0.531364
-0.0499139 -0.257597 0.531651
-0.0490025 -0.258156 0.532254
-0.0481194 -0.258848 0.533162
-0.0472237 -0.259494 0.533963
-0.0463154 -0.260097 0.534662
-0.0453725 -0.260551 0.535012
-0.0444014 -0.260878 0.535068
-0.0433937 -0.261027 0.534712
-0.0429608 -0.263402 0.537077
-0.0423808 -0.261145 0.534282
-0.0592943 -0.253506 0.531579
-0.0584098 -0.254129 0.532339
-0.0573138 -0.253984 0.531279
-0.0563191 -0.254203 0.53108
-0.0552066 -0.25397 0.529816
-0.0541853 -0.254071 0.529341
-0.0532481 -0.254492 0.529628
-0.0523166 -0.254942 0.529977
-0.0514045 -0.255472 0.530518
-0.0505201 -0.256127 0.531346
-0.049579 -0.256553 0.531639
-0.048668 -0.257112 0.532242
-0.0477799 -0.25778 0.533099
-0.0468906 -0.258452 0.533968
-0.0459756 -0.259026 0.5346
-0.0450344 -0.259486 0.534966
-0.0440696 -0.259839 0.535084
-0.043068 -0.260017 0.53479
-0.0423195 -0.261429 0.537371
-0.0523625 -0.251289 0.524487
-0.0514747 -0.251874 0.525164
-0.0505775 -0.252429 0.525771
-0.0498009 -0.253491 0.527573
-0.048962 -0.254316 0.528814
-0.0481437 -0.255252 0.530309
-0.0473425 -0.256282 0.532025
-0.0465514 -0.257386 0.533911
-0.0456379 -0.257963 0.534554
-0.0447015 -0.258444 0.534971
-0.0437425 -0.258822 0.535146
-0.0427533 -0.259059 0.534993
-0.0420288 -0.260594 0.537869
-0.0475025 -0.252886 0.527161
-0.0468243 -0.25443 0.530103
-0.0461473 -0.256025 0.533158
-0.0453264 -0.257018 0.534785
-0.0443836 -0.257472 0.53514
-0.0434193 -0.257823 0.535253
-0.0424362 -0.258088 0.535162
-0.0455209 -0.253675 0.530048
-0.0448161 -0.255168 0.532873
-0.0439812 -0.256103 0.534371
-0.0431134 -0.256906 0.535552
-0.0421314 -0.257175 0.535472
-0.042666 -0.255316 0.534256
-0.042074 -0.25747 0.538639
-0.0423118 -0.254169 0.534
-0.0854032 -0.146803 0.558383
-0.0864633 -0.146571 0.558789
-0.0861465 -0.145599 0.559012
-0.0850576 -0.145791 0.558421
-0.0839656 -0.145974 0.557795
-0.0869165 -0.144429 0.559804
-0.0858406 -0.144643 0.559306
-0.0847465 -0.144828 0.558679
-0.0836512 -0.145008 0.55803
-0.082376 -0.144922 0.556181
-0.0880492 -0.144289 0.560645
-0.0878389 -0.14346 0.56154
