ply
format ascii 1.0
element vertex 1689
property float x
property float y
property float z
end_header
0.0811678 -0.134468 0.898562
0.0804783 -0.13577 0.898426
0.079789 -0.13707 0.898276
0.0790866 -0.138345 0.89795
0.0783905 -0.13963 0.897701
0.0776947 -0.140914 0.897457
0.0769709 -0.142136 0.896798
0.076211 -0.143275 0.895598
0.0753643 -0.144206 0.893065
0.0743255 -0.144676 0.8876
0.0732573 -0.14504 0.881562
0.0721762 -0.145331 0.875172
0.0711509 -0.145719 0.869508
0.0702789 -0.146457 0.866129
0.0695157 -0.147453 0.86441
0.068769 -0.14848 0.862902
0.068056 -0.149588 0.861913
0.0673446 -0.150695 0.860939
0.0666531 -0.15185 0.860268
0.065959 -0.152993 0.85953
0.0652658 -0.154134 0.858801
0.0646023 -0.155358 0.858559
0.0639539 -0.156628 0.858588
0.0633087 -0.157908 0.858672
0.0626721 -0.159216 0.858911
0.0620378 -0.160534 0.859201
0.0613714 -0.161748 0.858908
0.0606958 -0.162927 0.858428
0.0600361 -0.164159 0.858244
0.0593788 -0.165401 0.858117
0.0587134 -0.166608 0.857802
0.058058 -0.167852 0.85769
0.0574151 -0.169145 0.857833
0.0567624 -0.1704 0.857781
0.0561197 -0.171696 0.85794
0.0555038 -0.173106 0.858681
0.0549098 -0.174613 0.859913
0.054305 -0.176086 0.860954
0.0536942 -0.177544 0.861903
0.0530719 -0.178963 0.862637
0.108817 -0.0912882 0.924478
0.107986 -0.0925228 0.923146
0.107162 -0.0937585 0.921864
0.106274 -0.0949273 0.919918
0.105372 -0.0960739 0.917796
0.10448 -0.0972221 0.915753
0.103614 -0.0983869 0.913937
0.10277 -0.0995668 0.912325
0.101967 -0.100783 0.911113
0.101184 -0.102016 0.910096
0.100422 -0.103268 0.909291
0.0996862 -0.104547 0.908759
0.0989533 -0.105826 0.908243
0.09822 -0.107103 0.907726
0.0974862 -0.108377 0.907183
0.0967611 -0.109658 0.906728
0.0960287 -0.11093 0.906195
0.0953149 -0.112223 0.905859
0.0945947 -0.113505 0.905444
0.0938679 -0.114777 0.904942
0.0931069 -0.115999 0.904044
0.0923529 -0.117227 0.903203
0.0915928 -0.118441 0.902279
0.0908452 -0.11967 0.901488
0.0901084 -0.12091 0.900814
0.0893853 -0.122169 0.900297
0.0886616 -0.123425 0.899762
0.0879386 -0.124678 0.899227
0.0872327 -0.125957 0.898893
0.0865352 -0.127249 0.898665
0.0858527 -0.128565 0.898621
0.0851702 -0.129881 0.898577
0.0844877 -0.131198 0.898533
0.0838051 -0.132514 0.898489
0.0831226 -0.13383 0.898444
0.0824401 -0.135146 0.8984
0.081751 -0.13645 0.898272
0.0810622 -0.137753 0.898138
0.0803667 -0.139043 0.897912
0.0796711 -0.14033 0.897678
0.0789822 -0.141631 0.897535
0.0782755 -0.142894 0.897143
0.0775514 -0.144115 0.896484
0.076675 -0.144992 0.8936
0.0755949 -0.145383 0.887651
0.0733659 -0.145885 0.8743
0.0722953 -0.146176 0.868067
0.0714438 -0.146971 0.865061
0.0706994 -0.148017 0.863664
0.0699503 -0.149043 0.86216
0.0692358 -0.15015 0.861172
0.0685192 -0.151242 0.860111
0.0678259 -0.152394 0.859429
0.067126 -0.153521 0.858607
0.066433 -0.154662 0.857882
0.0657692 -0.155885 0.857637
0.0651215 -0.157156 0.857675
0.0644773 -0.158436 0.857764
0.0638415 -0.159745 0.858011
0.0632122 -0.161077 0.858381
0.0625466 -0.162292 0.858101
0.0618748 -0.163485 0.857699
0.0612145 -0.164716 0.857512
0.0605571 -0.165955 0.857373
0.0598828 -0.167132 0.856898
0.059223 -0.168357 0.856692
0.0585764 -0.169632 0.856745
0.0579278 -0.1709 0.856764
0.0572864 -0.172197 0.856933
0.0566801 -0.17364 0.857844
0.0560963 -0.175181 0.859246
0.0554973 -0.176672 0.860376
0.0548885 -0.178134 0.861337
0.0542709 -0.179568 0.862147
0.110208 -0.0920321 0.925024
0.109375 -0.0932677 0.923694
0.108532 -0.0944888 0.92225
0.107631 -0.0956485 0.920208
0.106713 -0.0967835 0.91797
0.10581 -0.0979221 0.915832
0.10493 -0.0990759 0.913914
0.104083 -0.100255 0.912302
0.103278 -0.101471 0.911088
0.102493 -0.102704 0.910076
0.101728 -0.103955 0.909256
0.100991 -0.105234 0.90872
0.100257 -0.106514 0.908209
0.0995333 -0.107803 0.90779
0.0988086 -0.109089 0.907361
0.0980905 -0.110382 0.907001
0.0973669 -0.111667 0.906572
0.0966608 -0.112972 0.906331
0.0959474 -0.114267 0.906012
0.0952188 -0.115539 0.905506
0.0944557 -0.116762 0.904607
0.0936975 -0.117987 0.903742
0.0929335 -0.1192 0.902798
0.0921687 -0.120408 0.901831
0.0914144 -0.121625 0.900969
0.0906814 -0.122871 0.900341
0.0899476 -0.124113 0.899701
0.0892087 -0.125344 0.898991
0.0884946 -0.126611 0.898566
0.0878032 -0.127913 0.898414
0.0871205 -0.12923 0.898369
0.0864319 -0.130536 0.898251
0.0857492 -0.131853 0.898207
0.0850656 -0.133168 0.898153
0.0843828 -0.134483 0.898102
0.0837003 -0.1358 0.898064
0.0830249 -0.13713 0.898113
0.0823431 -0.138448 0.898075
0.0816532 -0.139751 0.897941
0.0809574 -0.141041 0.897714
0.0802741 -0.142355 0.897655
0.0795794 -0.143645 0.897443
0.0788909 -0.144948 0.897312
0.0779572 -0.145709 0.893679
0.0768485 -0.146053 0.887448
0.0757036 -0.146272 0.880543
0.0745461 -0.146419 0.873311
0.073428 -0.146611 0.866491
0.0726226 -0.147523 0.864239
0.0718779 -0.14857 0.86285
0.0711263 -0.149593 0.861342
0.0704104 -0.150697 0.860348
0.0696904 -0.151784 0.859263
0.0689921 -0.152922 0.858501
0.0682907 -0.154046 0.85767
0.0675973 -0.155187 0.856954
0.066934 -0.156411 0.856717
0.0662875 -0.157682 0.856758
0.0656426 -0.158959 0.856836
0.0650123 -0.160282 0.857158
0.0643884 -0.161628 0.857612
0.0637284 -0.162861 0.857428
0.0630609 -0.16407 0.857121
0.0624055 -0.165315 0.857011
0.0617477 -0.166553 0.856864
0.0610716 -0.167725 0.856368
0.0604105 -0.168948 0.85615
0.0597599 -0.170209 0.856129
0.0591118 -0.171476 0.856142
0.0584748 -0.172791 0.856402
0.0578718 -0.174236 0.857328
0.05729 -0.175783 0.858755
0.056697 -0.177293 0.859967
0.0560891 -0.178753 0.860924
0.05547 -0.180174 0.861656
0.11231 -0.0914256 0.925652
0.111545 -0.0927267 0.925011
0.110727 -0.0939781 0.92385
0.109883 -0.0952001 0.922422
0.108987 -0.0963678 0.920463
0.108065 -0.0975011 0.918216
0.107148 -0.0986302 0.91599
0.106273 -0.0997912 0.914144
0.105425 -0.100972 0.912546
0.104608 -0.102179 0.911244
0.103821 -0.103412 0.910232
0.103053 -0.104661 0.909392
0.102305 -0.10593 0.908758
0.101562 -0.1072 0.908157
0.100837 -0.10849 0.907744
0.100121 -0.109789 0.907417
0.0994125 -0.111096 0.907173
0.0986984 -0.112394 0.906856
0.0979999 -0.113711 0.906713
0.0972869 -0.115008 0.906402
0.0965478 -0.11627 0.905801
0.0957664 -0.117471 0.904713
0.0949908 -0.118674 0.903664
0.0942091 -0.119865 0.90254
0.093441 -0.121069 0.901553
0.092684 -0.122285 0.900673
0.0919553 -0.123538 0.900113
0.0912272 -0.12479 0.899547
0.0904951 -0.126033 0.89893
0.0897806 -0.127302 0.898511
0.0890888 -0.128605 0.898368
0.0884058 -0.129923 0.898323
0.0877173 -0.13123 0.898203
0.0870277 -0.132535 0.898076
0.0863362 -0.133838 0.897926
0.0856518 -0.135152 0.897863
0.0849698 -0.13647 0.897828
0.0842959 -0.137804 0.897899
0.0836137 -0.139123 0.897871
0.08293 -0.140438 0.897811
0.082232 -0.141725 0.897568
0.0815474 -0.143039 0.897507
0.0808605 -0.144346 0.897396
0.0800975 -0.145492 0.896247
0.0790625 -0.146039 0.891268
0.0779237 -0.146325 0.884713
0.0767561 -0.146504 0.877604
0.0755882 -0.146635 0.870337
0.0745381 -0.146997 0.864627
0.0738056 -0.148085 0.863478
0.0730639 -0.149144 0.862172
0.0723062 -0.150154 0.860592
0.0715833 -0.151242 0.859508
0.0708561 -0.152312 0.858335
0.0701467 -0.153421 0.857406
0.06944 -0.154531 0.856503
0.0687514 -0.155685 0.855868
0.0680838 -0.156895 0.855565
0.067442 -0.158178 0.855676
0.0668023 -0.159467 0.85582
0.0661717 -0.160786 0.856132
0.0655503 -0.162135 0.856598
0.0648993 -0.163396 0.85658
0.0642386 -0.164625 0.856377
0.0635837 -0.165873 0.856286
0.062926 -0.16711 0.856141
0.0622528 -0.168294 0.855711
0.0615924 -0.169517 0.855491
0.0609421 -0.170777 0.855471
0.060298 -0.172061 0.855576
0.0596708 -0.173408 0.856
0.0590688 -0.174858 0.856945
0.0584901 -0.176407 0.858368
0.0578981 -0.177915 0.859573
0.0572912 -0.179375 0.860517
0.0566682 -0.180778 0.861166
0.113043 -0.0900953 0.925982
0.113775 -0.0887626 0.926295
0.115044 -0.0893978 0.925614
0.114334 -0.0907487 0.925509
0.113615 -0.0920917 0.925321
0.112877 -0.0934171 0.924941
0.11208 -0.0946884 0.924001
0.111235 -0.095912 0.922585
0.110345 -0.0970879 0.920717
0.109419 -0.0982205 0.918468
0.108499 -0.0993492 0.916239
0.107611 -0.100502 0.914315
0.106769 -0.101691 0.912798
0.105941 -0.102889 0.911415
0.105153 -0.104123 0.910401
0.104366 -0.105353 0.909388
0.103605 -0.10661 0.908637
0.10285 -0.107868 0.907924
0.102124 -0.109157 0.907505
0.101408 -0.110457 0.90719
0.100702 -0.111767 0.906965
0.100003 -0.113085 0.906823
0.0992971 -0.114394 0.906604
0.0985751 -0.115682 0.906202
0.0978183 -0.116921 0.90542
0.097018 -0.118099 0.904142
0.0962148 -0.119265 0.902805
0.0954228 -0.120442 0.90158
0.0946469 -0.121634 0.900509
0.0938889 -0.122849 0.899637
0.0931756 -0.124125 0.899253
0.092463 -0.1254 0.898877
0.0917476 -0.12667 0.898466
0.0910491 -0.127964 0.898241
0.0903724 -0.129292 0.89827
0.0896959 -0.130621 0.89831
0.0890069 -0.13193 0.898199
0.0883157 -0.133235 0.898064
0.0876225 -0.134535 0.897893
0.0869371 -0.135849 0.897822
0.0862547 -0.137168 0.897791
0.0855822 -0.138505 0.89788
0.0849007 -0.139826 0.897858
0.0842091 -0.141128 0.897708
0.0835019 -0.142399 0.897349
0.0828163 -0.143711 0.897273
0.082135 -0.145031 0.897251
0.081289 -0.146007 0.895
0.0801774 -0.146399 0.889054
0.0790306 -0.146677 0.882507
0.077861 -0.146863 0.875497
0.0766999 -0.147022 0.868447
0.0757248 -0.147569 0.863921
0.0749862 -0.148645 0.862705
0.074244 -0.149704 0.861407
0.0734792 -0.150701 0.859759
0.072749 -0.151771 0.858577
0.0720148 -0.152826 0.857324
0.0712934 -0.153904 0.856225
0.0705867 -0.155013 0.855326
0.0699023 -0.156179 0.854768
0.0692307 -0.157376 0.854398
0.0685891 -0.158657 0.854502
0.0679498 -0.159944 0.854645
0.0673162 -0.16125 0.854879
0.0666955 -0.162598 0.855349
0.0660561 -0.16389 0.855503
0.0654045 -0.165148 0.855468
0.0647606 -0.166428 0.855555
0.064104 -0.167669 0.855428
0.0634309 -0.168853 0.855005
0.0627698 -0.170075 0.854785
0.062125 -0.171353 0.854852
0.0614868 -0.172657 0.85506
0.0608731 -0.174051 0.855726
0.0602767 -0.175518 0.856749
0.0596989 -0.177065 0.858162
0.0591033 -0.178554 0.859262
0.0584931 -0.179996 0.860112
0.0578673 -0.181384 0.860676
0.116315 -0.0900352 0.924961
0.115609 -0.0913893 0.924893
0.114918 -0.0927553 0.924958
0.114194 -0.0940937 0.924719
0.11341 -0.0953775 0.923914
0.112571 -0.0966088 0.92258
0.111688 -0.0977923 0.920799
0.11075 -0.0989175 0.918479
0.109834 -0.100053 0.916336
0.108954 -0.101215 0.914503
0.108109 -0.102404 0.912986
0.107279 -0.103603 0.911608
0.106488 -0.104836 0.910584
0.105688 -0.106055 0.909463
0.104917 -0.107301 0.908618
0.104149 -0.108548 0.907796
0.10342 -0.109835 0.907357
0.102704 -0.111134 0.90703
0.101996 -0.112444 0.9068
0.101202 -0.113647 0.905667
0.100403 -0.114837 0.904455
0.0996154 -0.116037 0.903347
0.0988066 -0.117204 0.901997
0.0979702 -0.118327 0.900319
0.0972289 -0.119571 0.899661
0.0965053 -0.120837 0.899184
0.0957689 -0.122083 0.89856
0.095046 -0.123344 0.898071
0.0943669 -0.124669 0.898082
0.093681 -0.125984 0.898011
0.0929835 -0.12728 0.897799
0.092301 -0.1286 0.89777
0.0916406 -0.129954 0.897992
0.0909727 -0.131297 0.898131
0.0902903 -0.132618 0.898101
0.0896059 -0.133935 0.898048
0.0889123 -0.135237 0.897883
0.0882258 -0.13655 0.897803
0.0875423 -0.137869 0.897769
0.0868695 -0.139207 0.897855
0.0861875 -0.140528 0.897833
0.085495 -0.14183 0.897677
0.0847862 -0.143099 0.897308
0.0840999 -0.144412 0.897227
0.0834182 -0.145733 0.897205
0.0824687 -0.1465 0.893622
0.0813248 -0.146834 0.887345
0.0801418 -0.147046 0.880418
0.0789576 -0.147212 0.873334
0.0777918 -0.147372 0.866347
0.0768956 -0.148104 0.862991
0.0761613 -0.149193 0.861863
0.0754187 -0.150253 0.860579
0.0746576 -0.151261 0.859007
0.0739195 -0.152316 0.857744
0.073183 -0.153365 0.856465
0.0724542 -0.154427 0.855287
0.0717454 -0.155533 0.854375
0.0710566 -0.156685 0.853743
0.0703843 -0.15788 0.853368
0.0697391 -0.159148 0.853402
0.0690955 -0.16042 0.853463
0.0684581 -0.161711 0.853627
0.067838 -0.163057 0.854086
0.0672042 -0.164362 0.854315
0.0665633 -0.165651 0.854452
0.0659364 -0.166981 0.854809
0.0652942 -0.168269 0.854934
0.0646346 -0.169498 0.854746
0.0639821 -0.17075 0.854686
0.0633422 -0.172047 0.854856
0.06271 -0.173371 0.855159
0.0620984 -0.174773 0.855852
0.0615022 -0.176239 0.856864
0.0609176 -0.177756 0.858112
0.0603169 -0.179226 0.859109
0.0596992 -0.180634 0.859788
0.0590698 -0.182004 0.860263
0.11618 -0.0933845 0.924218
0.115481 -0.0947443 0.924216
0.114716 -0.0960454 0.923596
0.113898 -0.0972965 0.922478
0.113023 -0.09849 0.920802
0.11209 -0.0996215 0.918558
0.111181 -0.100766 0.916507
0.110307 -0.101938 0.914776
0.10947 -0.103138 0.913363
0.108646 -0.104345 0.912058
0.107842 -0.105568 0.910937
0.10703 -0.106777 0.909713
0.106247 -0.108012 0.908768
0.10546 -0.109239 0.907763
0.104712 -0.110506 0.907143
0.103983 -0.111793 0.906708
0.103265 -0.113091 0.906378
0.102445 -0.114262 0.904977
0.101518 -0.115294 0.902448
0.100608 -0.116337 0.900065
0.0996826 -0.117347 0.897468
0.0987942 -0.118393 0.895228
0.0980235 -0.119587 0.894222
0.0973472 -0.120906 0.89423
0.0966584 -0.122208 0.8941
0.0960125 -0.12357 0.894436
0.0954046 -0.12499 0.895206
0.0947927 -0.12641 0.895955
0.0941522 -0.127789 0.89638
0.0935173 -0.129179 0.896887
0.0928809 -0.130571 0.897383
0.09223 -0.131941 0.897716
0.091564 -0.133288 0.897874
0.0908868 -0.13462 0.897919
0.090201 -0.135935 0.89785
0.0895155 -0.137251 0.897784
0.0888314 -0.138571 0.897746
0.0881563 -0.139906 0.89781
0.087474 -0.141228 0.897782
0.0867811 -0.14253 0.897628
0.0860801 -0.143816 0.897365
0.0853998 -0.145142 0.897369
0.0847245 -0.146478 0.897434
0.0836632 -0.147027 0.892465
0.0824801 -0.147292 0.885795
0.0812563 -0.147429 0.878446
0.0800487 -0.147556 0.87116
0.0788707 -0.147701 0.864131
0.0780602 -0.148629 0.862006
0.0773373 -0.149744 0.86104
0.0766035 -0.150828 0.859917
0.0758408 -0.151836 0.858348
0.0750953 -0.152875 0.856998
0.0743568 -0.153922 0.855713
0.0736212 -0.154968 0.854449
0.0729054 -0.156058 0.853456
0.0722109 -0.157195 0.852747
0.0715336 -0.158375 0.852285
0.0708834 -0.159626 0.852234
0.0702345 -0.160881 0.852209
0.0695962 -0.162168 0.852353
0.0689777 -0.163512 0.852806
0.068354 -0.164845 0.85319
0.0677255 -0.166167 0.853511
0.0671151 -0.167546 0.85413
0.0664854 -0.16887 0.854444
0.0658448 -0.170162 0.85459
0.0652005 -0.171444 0.854684
0.0645665 -0.172761 0.854948
0.0639349 -0.17409 0.855269
0.0633234 -0.175492 0.855962
0.0627252 -0.176945 0.8569
0.0621319 -0.178431 0.857978
0.0615285 -0.179883 0.858884
0.0609069 -0.181274 0.859467
0.0602727 -0.182626 0.859856
0.117484 -0.0940495 0.923871
0.116794 -0.0954172 0.923948
0.116036 -0.096725 0.923399
0.115225 -0.0979835 0.922356
0.114365 -0.099193 0.920851
0.113438 -0.100333 0.918694
0.112536 -0.101488 0.916751
0.111671 -0.10267 0.915126
0.110842 -0.103881 0.913814
0.110007 -0.10508 0.912435
0.109198 -0.106301 0.911286
0.108373 -0.107499 0.909961
0.107579 -0.108725 0.908926
0.10678 -0.109941 0.907821
0.106023 -0.1112 0.90712
0.105162 -0.112334 0.905367
0.104307 -0.113468 0.90365
0.103313 -0.114425 0.900479
0.102259 -0.115294 0.896651
0.101249 -0.1162 0.893218
0.100322 -0.117195 0.8906
0.0994896 -0.118301 0.888926
0.0987725 -0.119553 0.88846
0.0981282 -0.120902 0.888758
0.0974801 -0.122248 0.88903
0.0968764 -0.123659 0.889788
0.0962898 -0.125098 0.890742
0.0957055 -0.126546 0.891741
0.0951451 -0.128035 0.893031
0.0945787 -0.129522 0.894267
0.0940037 -0.131003 0.895432
0.0934184 -0.132474 0.896504
0.0928193 -0.133928 0.897427
0.0921522 -0.135276 0.897582
0.0914748 -0.136607 0.897621
0.0907974 -0.137937 0.897652
0.0901207 -0.13927 0.897698
0.0894445 -0.140605 0.897756
0.0887612 -0.141927 0.897725
0.0880686 -0.143231 0.897578
0.0873755 -0.144534 0.897422
0.0866971 -0.145865 0.897457
0.0860222 -0.147204 0.897534
0.0848436 -0.147529 0.891164
0.0836291 -0.147741 0.884193
0.0823689 -0.147816 0.876502
0.0811407 -0.14791 0.869072
0.0799495 -0.148038 0.861982
0.0792344 -0.149176 0.861154
0.0785168 -0.150306 0.860293
0.0777948 -0.151419 0.859341
0.0770309 -0.152427 0.857788
0.0762895 -0.153478 0.856512
0.075543 -0.15451 0.855148
0.0748001 -0.155541 0.853799
0.0740728 -0.156603 0.852652
0.0733759 -0.157736 0.85193
0.0726871 -0.158886 0.851306
0.0720354 -0.160131 0.851224
0.0713863 -0.161384 0.851186
0.0707438 -0.162654 0.851248
0.0701211 -0.163984 0.851625
0.0695079 -0.165344 0.85216
0.0688911 -0.166696 0.852648
0.0682948 -0.168115 0.853472
0.0676818 -0.16949 0.854061
0.0670625 -0.170848 0.854546
0.0664292 -0.172168 0.85483
0.0658007 -0.173503 0.85518
0.0651686 -0.174831 0.855493
0.0645563 -0.176229 0.856154
0.0639531 -0.177666 0.857001
0.0633521 -0.179119 0.857916
0.0627409 -0.180543 0.858669
0.0621142 -0.181914 0.859151
0.11807 -0.0960576 0.923332
0.117298 -0.0973543 0.922673
0.116489 -0.0986142 0.921656
0.115647 -0.0998402 0.920333
0.114728 -0.100989 0.918284
0.113855 -0.102173 0.916632
0.113001 -0.103368 0.915128
0.112189 -0.104598 0.914003
0.11136 -0.105806 0.912706
0.11055 -0.107028 0.911568
0.109721 -0.108225 0.910235
0.10893 -0.109456 0.909234
0.107997 -0.110527 0.906849
0.10709 -0.111616 0.904677
0.106071 -0.112566 0.901371
0.105077 -0.11353 0.898264
0.103893 -0.114251 0.8932
0.100937 -0.117026 0.883662
0.100153 -0.11818 0.882465
0.0994902 -0.11949 0.882524
0.0988708 -0.120859 0.883047
0.098259 -0.122241 0.88365
0.0976791 -0.123671 0.884607
0.0971137 -0.125128 0.88574
0.0965552 -0.1266 0.886966
0.0960294 -0.128128 0.888574
0.0955406 -0.129721 0.890623
0.0950492 -0.131321 0.892671
0.0945383 -0.132901 0.894539
0.0940093 -0.134463 0.896238
0.0934086 -0.135917 0.897146
0.0927403 -0.137263 0.897284
0.0920637 -0.138596 0.897331
0.0913877 -0.139931 0.897387
0.0907121 -0.141266 0.897447
0.0900287 -0.142588 0.897413
0.0893368 -0.143894 0.897275
0.0886578 -0.145225 0.897303
0.0879949 -0.146587 0.89753
0.087336 -0.147958 0.897805
0.0861347 -0.148253 0.891271
0.0848857 -0.148413 0.884007
0.0835888 -0.148429 0.87598
0.0823276 -0.148471 0.868263
0.0811079 -0.148553 0.86093
0.0804008 -0.149709 0.860222
0.0796956 -0.150866 0.859533
0.0789799 -0.151995 0.858687
0.0782215 -0.153019 0.85723
0.0774791 -0.154072 0.855974
0.0767299 -0.1551 0.854592
0.0759844 -0.156128 0.853237
0.0752549 -0.157188 0.852085
0.0745523 -0.158308 0.851287
0.073867 -0.159467 0.850722
0.073209 -0.160696 0.850552
0.0725538 -0.161932 0.850423
0.0719067 -0.163189 0.850408
0.0712904 -0.164532 0.85086
0.0706796 -0.165896 0.851418
0.0700743 -0.16728 0.852072
0.069495 -0.168747 0.853151
0.0689002 -0.170174 0.854007
0.0682935 -0.171571 0.854691
0.0676718 -0.172928 0.855157
0.0670424 -0.174265 0.85551
0.0664093 -0.175591 0.855803
0.0657906 -0.17697 0.856363
0.0651874 -0.178405 0.857191
0.0645827 -0.179844 0.858023
0.0639729 -0.181267 0.858768
0.0633408 -0.182622 0.859165
0.120056 -0.0953485 0.922836
0.11932 -0.0966771 0.922504
0.11854 -0.0979658 0.921772
0.117735 -0.0992296 0.920809
0.116914 -0.100474 0.919684
0.116007 -0.101635 0.917764
0.115156 -0.102841 0.916337
0.114328 -0.104063 0.915104
0.113535 -0.105313 0.914166
0.112715 -0.106532 0.912969
0.111912 -0.107764 0.91192
0.111099 -0.108981 0.910761
0.110302 -0.110209 0.909731
0.109191 -0.111089 0.905672
0.108078 -0.111948 0.901533
0.102479 -0.1159 0.879555
0.101596 -0.116925 0.877358
0.100861 -0.11813 0.876641
0.100245 -0.119488 0.877141
0.099636 -0.120858 0.877719
0.0990485 -0.122261 0.878534
0.0984903 -0.123708 0.879662
0.0979357 -0.125167 0.880862
0.0973953 -0.126652 0.88222
0.0968977 -0.128208 0.884074
0.096466 -0.129873 0.886678
0.0960339 -0.131551 0.889312
0.0955932 -0.133232 0.89191
0.0951309 -0.134891 0.894306
0.0945971 -0.136448 0.895933
0.0939533 -0.137832 0.89634
0.0932996 -0.139202 0.896648
0.0926326 -0.140551 0.896799
0.0919649 -0.141901 0.896958
0.091282 -0.143224 0.896926
0.0905957 -0.144542 0.896869
0.089931 -0.145899 0.897064
0.0892853 -0.147292 0.897486
0.0886424 -0.148695 0.897964
0.0874195 -0.148964 0.891288
0.0861379 -0.149075 0.883747
0.0848047 -0.149034 0.875412
0.0835095 -0.149023 0.867406
0.0822653 -0.149069 0.859899
0.0815768 -0.150265 0.859436
0.0808856 -0.151453 0.858931
0.080183 -0.152613 0.858271
0.0794292 -0.15365 0.856908
0.0786792 -0.15469 0.855577
0.0779212 -0.155701 0.854106
0.0771732 -0.156726 0.852738
0.0764365 -0.157772 0.851509
0.0757339 -0.158893 0.850721
0.0750477 -0.160052 0.850162
0.0743896 -0.16128 0.849988
0.0737352 -0.162517 0.849862
0.0730888 -0.163776 0.84986
0.0724682 -0.165107 0.850247
0.0718626 -0.166483 0.850866
0.071264 -0.167883 0.851601
0.070687 -0.169353 0.852695
0.0701104 -0.170831 0.853809
0.0695246 -0.172292 0.85482
0.0689143 -0.173686 0.855466
0.068286 -0.175026 0.855831
0.0676561 -0.176365 0.856184
0.0670287 -0.177713 0.856575
0.0664205 -0.179131 0.857312
0.0658125 -0.180559 0.858077
0.0652021 -0.181982 0.858814
0.0645705 -0.183337 0.859207
0.120559 -0.0972868 0.921576
0.119767 -0.0985645 0.920743
0.118969 -0.099834 0.919852
0.118168 -0.101097 0.918919
0.117283 -0.102278 0.917224
0.116454 -0.103505 0.916008
0.115646 -0.104747 0.91497
0.11487 -0.106017 0.914215
0.114064 -0.107252 0.913169
0.113276 -0.108501 0.912264
0.112465 -0.109723 0.911153
0.11148 -0.110754 0.908375
0.104421 -0.114029 0.8856
0.106187 -0.113184 0.883756
0.105031 -0.113915 0.879
0.10342 -0.114935 0.8823
0.104188 -0.115001 0.877263
0.103345 -0.116078 0.875495
0.10253 -0.117181 0.873972
0.101843 -0.118441 0.873731
0.101177 -0.119729 0.873702
0.100502 -0.121003 0.873575
0.0998923 -0.122364 0.874105
0.0993154 -0.123775 0.875004
0.0987638 -0.125225 0.876172
0.0982339 -0.126712 0.877589
0.0977637 -0.128296 0.879675
0.09737 -0.130003 0.882607
0.0969799 -0.131732 0.885634
0.0965976 -0.133489 0.888789
0.0962002 -0.135241 0.891841
0.0957233 -0.136881 0.894058
0.0951293 -0.138342 0.895006
0.0945105 -0.139767 0.895686
0.0938668 -0.141155 0.8961
0.0932071 -0.142517 0.896341
0.0925308 -0.143851 0.89639
0.0918451 -0.14517 0.896335
0.0911889 -0.146542 0.896628
0.0905524 -0.147952 0.897155
0.0899269 -0.149387 0.897828
0.088684 -0.149632 0.891032
0.0873773 -0.14971 0.883323
0.0860088 -0.149617 0.874706
0.0846852 -0.149564 0.86649
0.0834124 -0.149565 0.858743
0.0827366 -0.150787 0.858449
0.082058 -0.152003 0.858118
0.0813746 -0.153204 0.857704
0.0806255 -0.154256 0.856433
0.0798735 -0.155294 0.855096
0.0791124 -0.156301 0.853606
0.0783604 -0.157321 0.85222
0.0776177 -0.158355 0.850928
0.0769211 -0.159492 0.850232
0.0762405 -0.160668 0.84977
0.0755832 -0.161898 0.849609
0.0749289 -0.163137 0.849493
0.0742823 -0.164394 0.849481
0.0736617 -0.165725 0.849862
0.0730572 -0.167101 0.850481
0.072465 -0.168518 0.851299
0.0718891 -0.169988 0.852385
0.0713187 -0.171482 0.853578
0.0707353 -0.172946 0.854597
0.0701311 -0.174357 0.855329
0.0695095 -0.175715 0.85578
0.0688847 -0.177074 0.856224
0.0682621 -0.178439 0.856697
0.06766 -0.179878 0.857527
0.0670582 -0.181322 0.858369
0.0664484 -0.182751 0.859124
0.0658226 -0.184124 0.859597
0.121789 -0.0978891 0.920583
0.120983 -0.0991548 0.919641
0.120188 -0.100426 0.918782
0.119409 -0.101708 0.918052
0.118549 -0.102913 0.916597
0.11774 -0.104159 0.915575
0.116953 -0.105421 0.914733
0.116188 -0.106703 0.91409
0.115389 -0.107947 0.913124
0.114626 -0.109223 0.912462
0.113821 -0.110453 0.91142
0.107422 -0.112519 0.889186
0.107888 -0.112275 0.881346
0.106801 -0.113097 0.877345
0.105816 -0.114019 0.874264
0.105113 -0.115264 0.87388
0.104394 -0.116486 0.87332
0.10367 -0.1177 0.872716
0.10295 -0.118916 0.872132
0.102265 -0.120175 0.871898
0.101556 -0.121402 0.871422
0.100922 -0.122725 0.871686
0.100307 -0.124078 0.872167
0.0997183 -0.12547 0.872918
0.099153 -0.126898 0.873929
0.0986609 -0.128438 0.875718
0.0982542 -0.130114 0.878446
0.0978815 -0.131855 0.881576
0.0975322 -0.133649 0.885011
0.0971904 -0.135473 0.888581
0.096788 -0.137221 0.891556
0.0962585 -0.138779 0.893176
0.0956933 -0.140288 0.894433
0.0950907 -0.141742 0.895297
0.0944472 -0.14313 0.895711
0.093779 -0.144478 0.895846
0.0930938 -0.145797 0.895796
0.0924389 -0.147171 0.8961
0.0918115 -0.148597 0.896721
0.091203 -0.150063 0.897582
0.0900875 -0.150565 0.892426
0.0887664 -0.150636 0.884692
0.0860171 -0.150421 0.86749
0.0847001 -0.150353 0.859356
0.0838938 -0.151307 0.857453
0.0832245 -0.15254 0.857227
0.0825418 -0.153743 0.856831
0.0818024 -0.154819 0.855708
0.081054 -0.155867 0.854436
0.0802905 -0.156872 0.852951
0.0795434 -0.157906 0.851646
0.078805 -0.158953 0.850433
0.0781133 -0.160105 0.849824
0.0774394 -0.161298 0.849457
0.076789 -0.162546 0.849391
0.0761386 -0.163797 0.849342
0.0754917 -0.165055 0.849329
0.0748716 -0.166384 0.849699
0.0742617 -0.167747 0.850237
0.0736696 -0.169162 0.851047
0.0730904 -0.170619 0.852058
0.0725259 -0.172128 0.853316
0.0719434 -0.173591 0.854325
0.0713461 -0.17502 0.855146
0.07073 -0.176398 0.855691
0.0701133 -0.177778 0.856234
0.0694961 -0.179162 0.856799
0.0689017 -0.180622 0.857724
0.0683058 -0.182087 0.858663
0.0676987 -0.183522 0.859437
0.122185 -0.0997335 0.918429
0.121403 -0.101015 0.917685
0.120626 -0.102298 0.916978
0.119784 -0.103518 0.915696
0.118993 -0.104781 0.914841
0.118233 -0.106069 0.914253
0.117481 -0.107363 0.913724
0.11671 -0.108636 0.913017
0.115969 -0.109937 0.912584
0.109677 -0.111476 0.879847
0.108707 -0.112438 0.877007
0.107838 -0.113502 0.875083
0.107004 -0.114598 0.873463
0.106288 -0.115826 0.872953
0.105536 -0.11701 0.872098
0.104795 -0.118201 0.871322
0.104049 -0.119383 0.870489
0.103346 -0.120616 0.870071
0.102628 -0.121828 0.869499
0.101986 -0.123138 0.869673
0.101375 -0.12449 0.870162
0.100802 -0.125899 0.871053
0.100247 -0.127338 0.872144
0.0997193 -0.128821 0.873531
0.0992783 -0.130438 0.875844
0.0988709 -0.132118 0.878541
0.0984795 -0.133836 0.881453
0.0981296 -0.135635 0.884867
0.0977839 -0.137458 0.888375
0.0973241 -0.139118 0.890703
0.0968164 -0.140714 0.89255
0.0962676 -0.142251 0.893981
0.0956502 -0.143681 0.894667
0.0949976 -0.145054 0.894978
0.0943214 -0.146387 0.895017
0.0936756 -0.147776 0.895414
0.0930634 -0.149229 0.896206
0.0923199 -0.150442 0.895488
0.091179 -0.150901 0.890097
0.0898337 -0.150937 0.882204
0.0873787 -0.150529 0.87602
0.0884346 -0.150818 0.873517
0.0870531 -0.150684 0.864889
0.085859 -0.150876 0.85837
0.0850609 -0.151848 0.856589
0.0844048 -0.153109 0.856532
0.0837288 -0.154326 0.856223
0.0829953 -0.155417 0.855192
0.0822459 -0.156466 0.853932
0.0814817 -0.157473 0.852458
0.0807332 -0.158508 0.851164
0.0799934 -0.159554 0.849956
0.0793067 -0.160719 0.849426
0.0786389 -0.161928 0.84914
0.0779889 -0.163179 0.849086
0.077339 -0.16443 0.849043
0.0766961 -0.165699 0.849087
0.0760752 -0.167028 0.849451
0.0754617 -0.168379 0.849922
0.0748716 -0.169797 0.850739
0.0742869 -0.171236 0.851651
0.073718 -0.172727 0.852816
0.0731308 -0.174175 0.85374
0.0725406 -0.175621 0.854643
0.0719372 -0.177035 0.855365
0.0713422 -0.178481 0.856241
0.0707391 -0.179906 0.856999
0.0701608 -0.181417 0.858169
0.0695766 -0.182921 0.859284
0.0689697 -0.18436 0.860067
0.122666 -0.101646 0.917015
0.121888 -0.102928 0.916304
0.121053 -0.104155 0.915098
0.120267 -0.105423 0.914295
0.11952 -0.106724 0.913828
0.118772 -0.108022 0.913345
0.118014 -0.109309 0.912761
0.110471 -0.111624 0.875364
0.109742 -0.112847 0.874774
0.108907 -0.113947 0.873176
0.108192 -0.115178 0.872681
0.107466 -0.116395 0.872086
0.106714 -0.117576 0.871219
0.105963 -0.118756 0.870364
0.105208 -0.119926 0.869451
0.104495 -0.121147 0.868939
0.103778 -0.122358 0.868373
0.10312 -0.123645 0.868388
0.102501 -0.124985 0.868786
0.101927 -0.126389 0.869655
0.101372 -0.127824 0.870714
0.100846 -0.129305 0.872086
0.100359 -0.13085 0.873881
0.0998998 -0.132446 0.876001
0.0994558 -0.134076 0.878303
0.099076 -0.135816 0.881321
0.0987159 -0.137604 0.884599
0.0983236 -0.139359 0.887588
0.0978843 -0.141054 0.890112
0.097408 -0.142703 0.892292
0.0968433 -0.144216 0.89353
0.0962244 -0.145645 0.894204
0.0955644 -0.147005 0.894422
0.0949195 -0.148395 0.894819
0.0943007 -0.149834 0.895522
0.0933902 -0.150742 0.892908
0.0922159 -0.151144 0.887211
0.0908483 -0.151144 0.879162
0.0894606 -0.151058 0.870738
0.0880704 -0.150916 0.862127
0.0870237 -0.151412 0.857465
0.0862332 -0.152403 0.855806
0.0855856 -0.153679 0.855846
0.0849162 -0.154911 0.855624
0.0841878 -0.156015 0.85467
0.0834439 -0.157079 0.853505
0.082686 -0.158103 0.852134
0.0819438 -0.159155 0.850941
0.0812021 -0.160201 0.84973
0.0805249 -0.161392 0.849341
0.0798505 -0.162587 0.84898
0.0792 -0.163838 0.848929
0.0785505 -0.165091 0.848887
0.0779129 -0.166374 0.849007
0.0772828 -0.167678 0.849232
0.0766685 -0.169028 0.849697
0.0760739 -0.170431 0.850429
0.075479 -0.17184 0.851178
0.0749051 -0.173314 0.852252
0.0743185 -0.174761 0.853168
0.0737359 -0.176225 0.854155
0.073151 -0.17769 0.855134
0.0725807 -0.179208 0.85636
0.0719961 -0.18069 0.857392
0.0714301 -0.182241 0.858743
0.0708525 -0.183764 0.859938
0.0702409 -0.185186 0.860629
0.122316 -0.104787 0.914453
0.121537 -0.106061 0.913719
0.120796 -0.107369 0.913307
0.12005 -0.108668 0.912841
0.112145 -0.110721 0.872957
0.111464 -0.111994 0.872801
0.110789 -0.113272 0.872686
0.11009 -0.114523 0.872351
0.109358 -0.115733 0.871701
0.108631 -0.116948 0.871094
0.107876 -0.118126 0.870217
0.107124 -0.119304 0.869357
0.106375 -0.120482 0.868513
0.105663 -0.121702 0.868014
0.104955 -0.122924 0.867533
0.104289 -0.124201 0.867474
0.103662 -0.125528 0.867777
0.103079 -0.126917 0.868536
0.102517 -0.128339 0.869503
0.101978 -0.129798 0.870721
0.10146 -0.131294 0.87217
0.100976 -0.132848 0.873992
0.100486 -0.134402 0.875782
0.100072 -0.136082 0.878383
0.09969 -0.137825 0.881363
0.0993354 -0.139627 0.884681
0.0989393 -0.14138 0.887606
0.0985312 -0.143131 0.890453
0.0980227 -0.144732 0.892277
0.0974491 -0.146233 0.893412
0.0968065 -0.147623 0.893821
0.0961625 -0.149012 0.894217
0.0955284 -0.150423 0.894742
0.0945814 -0.151268 0.89175
0.0933746 -0.151619 0.885774
0.0919621 -0.151548 0.877344
0.0905697 -0.151466 0.868997
0.0892045 -0.151386 0.860807
0.0881819 -0.151936 0.856497
0.0873953 -0.152937 0.854906
0.0867549 -0.154228 0.855031
0.0860927 -0.155474 0.854898
0.0853777 -0.156607 0.854116
0.0846464 -0.1577 0.85312
0.0838986 -0.158752 0.851911
0.0831614 -0.159819 0.850804
0.0824241 -0.160878 0.849671
0.0817462 -0.162069 0.849284
0.0810709 -0.163263 0.848915
0.0804201 -0.164515 0.848863
0.0797697 -0.165769 0.848823
0.0791328 -0.167055 0.848953
0.0785021 -0.168359 0.849177
0.0778842 -0.169697 0.849571
0.0772827 -0.171082 0.850202
0.0766816 -0.172473 0.850856
0.0761032 -0.173931 0.85184
0.0755182 -0.175379 0.852756
0.0749484 -0.176877 0.853911
0.0743829 -0.178396 0.855155
0.0738346 -0.179975 0.856674
0.0732746 -0.181532 0.858061
0.0727228 -0.183125 0.859603
0.0721497 -0.184665 0.860865
0.0715368 -0.186085 0.861537
0.113438 -0.111414 0.873115
0.112751 -0.112682 0.872904
0.112058 -0.113941 0.872631
0.111329 -0.115159 0.872026
0.110584 -0.116358 0.871285
0.109846 -0.11756 0.870579
0.109073 -0.118717 0.869543
0.108311 -0.119884 0.868604
0.10757 -0.121071 0.867838
0.106859 -0.122293 0.867349
0.10615 -0.123514 0.866873
0.105485 -0.124792 0.866817
0.104857 -0.126116 0.867108
0.104258 -0.127483 0.867697
0.103688 -0.128892 0.868574
0.103142 -0.13034 0.869712
0.102611 -0.131813 0.870999
0.102103 -0.133329 0.87255
0.101587 -0.13484 0.874036
0.101129 -0.136445 0.876138
0.100713 -0.138127 0.878712
0.100353 -0.13991 0.881897
0.0999793 -0.141689 0.884998
0.0996147 -0.143499 0.888243
0.0991654 -0.145189 0.890645
0.0986391 -0.146765 0.892269
0.0980322 -0.148212 0.893045
0.0973967 -0.149615 0.893529
0.0967621 -0.151022 0.894026
0.0957905 -0.15183 0.890818
0.0945691 -0.152163 0.884768
0.0931489 -0.152092 0.876383
0.0917594 -0.152031 0.868205
0.0904051 -0.151987 0.860273
0.0894039 -0.152589 0.856291
0.0886265 -0.153611 0.854827
0.0879792 -0.154889 0.854875
0.0873103 -0.156123 0.854668
0.0865939 -0.157256 0.853889
0.0858676 -0.158362 0.852972
0.0851258 -0.15943 0.851856
0.0844005 -0.160528 0.850919
0.0836691 -0.161604 0.84988
0.0829905 -0.162797 0.849492
0.0823064 -0.163974 0.849031
0.0816485 -0.165212 0.8489
0.0809861 -0.166437 0.8487
0.080349 -0.167724 0.848835
0.0797125 -0.169014 0.848976
0.0790882 -0.170335 0.849277
0.0784799 -0.171702 0.849814
0.077884 -0.173105 0.850526
0.0773071 -0.174564 0.85151
0.0767297 -0.176031 0.852518
0.0761794 -0.17758 0.853923
0.0756343 -0.179155 0.855434
0.0751018 -0.180777 0.857156
0.0745573 -0.182379 0.858748
0.0740132 -0.183994 0.860382
0.0734358 -0.185519 0.861561
0.072816 -0.186921 0.862132
0.114743 -0.112119 0.873363
0.114038 -0.113369 0.872994
0.113322 -0.114606 0.872529
0.112575 -0.115806 0.871778
0.111818 -0.116991 0.870928
0.111069 -0.11818 0.870131
0.110278 -0.119319 0.868951
0.109515 -0.120485 0.868012
0.108773 -0.121672 0.86725
0.108061 -0.122892 0.866755
0.107352 -0.124115 0.866293
0.106689 -0.125392 0.866241
0.106051 -0.126706 0.866449
0.105453 -0.12807 0.867021
0.104883 -0.129478 0.867891
0.104348 -0.130938 0.869103
0.10382 -0.132415 0.870409
0.103305 -0.133918 0.871864
0.102765 -0.135392 0.873097
0.102265 -0.136931 0.874738
0.101799 -0.138531 0.876756
0.101412 -0.140265 0.879619
0.101042 -0.142039 0.882691
0.100702 -0.143879 0.886131
0.100303 -0.145643 0.889005
0.0998259 -0.147293 0.891105
0.099256 -0.148799 0.892256
0.0986311 -0.150218 0.892838
0.0979867 -0.151608 0.893232
0.0969915 -0.152378 0.889811
0.0957169 -0.152625 0.883271
0.0943544 -0.152673 0.875647
0.0929019 -0.152508 0.866895
0.0914994 -0.152387 0.858549
0.0906061 -0.153201 0.855838
0.0898568 -0.154281 0.854725
0.0892134 -0.155568 0.854818
0.0885505 -0.156816 0.85469
0.0878467 -0.157977 0.854069
0.0871254 -0.159099 0.853236
0.0863896 -0.160185 0.852214
0.0856631 -0.161284 0.851285
0.0849294 -0.162362 0.850257
0.084249 -0.163555 0.849868
0.0835582 -0.164721 0.849334
0.0828924 -0.165941 0.849104
0.0822213 -0.167148 0.848805
0.0815767 -0.168419 0.848848
0.080933 -0.169693 0.848902
0.0803079 -0.171013 0.849195
0.0797005 -0.17238 0.849726
0.0791059 -0.173786 0.850444
0.0785305 -0.175248 0.851438
0.0779562 -0.17672 0.85246
0.0774199 -0.178306 0.854039
0.0768905 -0.179921 0.855741
0.0763777 -0.181599 0.857719
0.0758471 -0.183238 0.859484
0.0753095 -0.184873 0.861197
0.0747281 -0.186384 0.862295
0.0741071 -0.187787 0.862857
0.116772 -0.111589 0.874098
0.116055 -0.112831 0.873651
0.115328 -0.114059 0.873099
0.114594 -0.115277 0.872479
0.113825 -0.116454 0.871545
0.113046 -0.117616 0.870515
0.112294 -0.118805 0.869712
0.11151 -0.119952 0.868611
0.110756 -0.12113 0.867761
0.110021 -0.122327 0.86708
0.109308 -0.123547 0.866584
0.108591 -0.124759 0.866039
0.107917 -0.126026 0.865903
0.107272 -0.127328 0.866026
0.106655 -0.128669 0.86643
0.106086 -0.130077 0.867288
0.105544 -0.131526 0.868421
0.105019 -0.133004 0.86973
0.104492 -0.134487 0.871046
0.103953 -0.13596 0.872265
0.103429 -0.137461 0.873647
0.102938 -0.139019 0.87538
0.102527 -0.140709 0.877946
0.102157 -0.142476 0.880963
0.101821 -0.144314 0.884386
0.101448 -0.146109 0.887461
0.101009 -0.147817 0.889929
0.100462 -0.149357 0.891289
0.099847 -0.150792 0.891972
0.0991884 -0.152155 0.892197
0.0983519 -0.153207 0.89052
0.0971961 -0.153681 0.885379
0.092874 -0.153317 0.859964
0.0918837 -0.153957 0.85623
0.0910957 -0.154967 0.854707
0.0904476 -0.156246 0.854751
0.0897876 -0.157501 0.854659
0.0890886 -0.158676 0.854112
0.0883734 -0.159813 0.853367
0.08765 -0.160929 0.852513
0.0869368 -0.162061 0.85176
0.0862082 -0.163156 0.850818
0.0855257 -0.164348 0.85042
0.0848316 -0.165511 0.849863
0.0841509 -0.166701 0.849464
0.083465 -0.167878 0.849
0.0828117 -0.169128 0.84893
0.08216 -0.170385 0.84889
0.0815295 -0.171692 0.849116
0.0809183 -0.173049 0.849586
0.0803247 -0.174457 0.850312
0.0797518 -0.175923 0.851314
0.0791843 -0.177413 0.852425
0.0786634 -0.179037 0.85418
0.0781543 -0.180705 0.856127
0.0776515 -0.182406 0.858206
0.077133 -0.18408 0.860123
0.0765974 -0.185714 0.861823
0.0760149 -0.187226 0.86291
0.0754007 -0.188649 0.863558
0.118765 -0.111016 0.874493
0.118055 -0.112268 0.874112
0.117328 -0.113499 0.873573
0.116604 -0.114733 0.873065
0.115839 -0.115919 0.872188
0.115058 -0.117085 0.871165
0.114276 -0.118245 0.870123
0.113533 -0.119444 0.869409
0.112758 -0.120603 0.868395
0.112022 -0.121803 0.867721
0.111304 -0.123022 0.867202
0.11059 -0.124243 0.866709
0.109869 -0.125454 0.866151
0.109185 -0.126708 0.865922
0.108529 -0.127998 0.865948
0.107895 -0.129316 0.86618
0.107317 -0.130711 0.866942
0.10676 -0.132139 0.867918
0.106228 -0.133606 0.869145
0.105694 -0.135077 0.870373
0.105156 -0.13655 0.871584
0.104634 -0.138052 0.872967
0.104146 -0.139611 0.874696
0.103712 -0.141262 0.877002
0.103343 -0.143026 0.879983
0.102995 -0.144836 0.883214
0.102616 -0.146619 0.886199
0.102184 -0.14833 0.888683
0.101656 -0.149898 0.890218
0.101053 -0.151348 0.890998
0.100401 -0.152722 0.891292
0.0997302 -0.154062 0.891379
0.098715 -0.154798 0.887822
0.0959135 -0.153895 0.878761
0.0944153 -0.153674 0.869683
0.0960008 -0.154959 0.873145
0.0931597 -0.154706 0.856574
0.0923298 -0.155642 0.854625
0.0916764 -0.156911 0.854605
0.0910186 -0.158172 0.854541
0.0903401 -0.15939 0.854238
0.0896314 -0.160545 0.853592
0.0889151 -0.161679 0.852833
0.0882069 -0.162827 0.852165
0.0874818 -0.163934 0.851285
0.0867915 -0.165113 0.850808
0.0860957 -0.166276 0.850252
0.0854063 -0.167451 0.849766
0.0847116 -0.168609 0.849199
0.0840496 -0.169843 0.849037
0.0833923 -0.171085 0.848919
0.0827552 -0.172379 0.849066
0.0821452 -0.173739 0.849549
0.0815527 -0.175149 0.850278
0.0809802 -0.176615 0.851275
0.0804198 -0.178121 0.852454
0.0799134 -0.17978 0.854374
0.0794142 -0.181472 0.856426
0.0789154 -0.183179 0.858522
0.0784052 -0.184872 0.860513
0.0778699 -0.186508 0.862209
0.0772884 -0.188022 0.863291
0.0766809 -0.189466 0.864033
0.120036 -0.111681 0.874388
0.119331 -0.112939 0.874054
0.118606 -0.114173 0.873536
0.117887 -0.115413 0.873075
0.11711 -0.116589 0.872122
0.116328 -0.117755 0.871099
0.115545 -0.118915 0.870057
0.114802 -0.120117 0.869357
0.114036 -0.121288 0.868442
0.113311 -0.122503 0.867881
0.112604 -0.123737 0.867466
0.111889 -0.12496 0.866982
0.111166 -0.12617 0.86641
0.110469 -0.127409 0.866068
0.109792 -0.128674 0.865913
0.109157 -0.129992 0.86613
0.108579 -0.131388 0.866897
0.108022 -0.132815 0.867854
0.107482 -0.134271 0.868988
0.106945 -0.135738 0.870179
0.1064 -0.137199 0.871301
0.10588 -0.138702 0.872685
0.105389 -0.140256 0.874372
0.104943 -0.141886 0.876517
0.104568 -0.143636 0.879398
0.104205 -0.145418 0.882432
0.103812 -0.147173 0.885228
0.103375 -0.14887 0.887616
0.102856 -0.150449 0.889216
0.102263 -0.151914 0.890084
0.101616 -0.153293 0.89042
0.10095 -0.154643 0.890563
0.100088 -0.15565 0.88865
0.0935718 -0.15633 0.854609
0.0929129 -0.15759 0.85454
0.0922546 -0.15885 0.854465
0.0915839 -0.160086 0.854259
0.0908892 -0.161272 0.853783
0.0901794 -0.162424 0.853124
0.0894771 -0.163589 0.852543
0.0887574 -0.164711 0.851743
0.0880657 -0.165891 0.85126
0.0873675 -0.167053 0.850698
0.0866772 -0.16823 0.850218
0.0859757 -0.169377 0.849587
0.0853052 -0.170595 0.849334
0.0846392 -0.17182 0.849123
0.0839962 -0.1731 0.849192
0.083379 -0.174445 0.849591
0.0827928 -0.175869 0.850383
0.082226 -0.177349 0.851442
0.0816734 -0.178873 0.852705
0.0811771 -0.180554 0.854718
0.0806881 -0.182272 0.856876
0.0801928 -0.183986 0.858989
0.0796856 -0.185682 0.860987
0.0791575 -0.187336 0.86275
0.0785961 -0.188908 0.864098
0.0780206 -0.190449 0.865283
0.120592 -0.113593 0.873855
0.119853 -0.114815 0.873238
0.119129 -0.11605 0.872735
0.118354 -0.117229 0.871804
0.117588 -0.118414 0.870939
0.116805 -0.119576 0.869917
0.116073 -0.120791 0.869314
0.115326 -0.121986 0.868579
0.114601 -0.123203 0.868028
0.113896 -0.124441 0.867643
0.113182 -0.125666 0.867167
0.112457 -0.126876 0.86659
0.111748 -0.128103 0.866156
0.11106 -0.129355 0.865904
0.110423 -0.130673 0.866114
0.109847 -0.13207 0.866877
0.109283 -0.133488 0.867759
0.108741 -0.134941 0.868869
0.108203 -0.136406 0.870033
0.107649 -0.137854 0.871062
0.107113 -0.139334 0.872277
0.10662 -0.140882 0.873914
0.106163 -0.142493 0.875928
0.105829 -0.144299 0.879154
0.105494 -0.146122 0.882429
0.105086 -0.14785 0.885037
0.104618 -0.149496 0.887091
0.104073 -0.15103 0.888403
0.103473 -0.152482 0.889195
0.102823 -0.153853 0.889477
0.102159 -0.155204 0.88963
0.0947899 -0.156972 0.854327
0.0941471 -0.158262 0.854423
0.0934981 -0.159543 0.854471
0.0928489 -0.160823 0.854502
0.0921622 -0.162028 0.854124
0.0914593 -0.163198 0.853563
0.0907558 -0.164364 0.85298
0.0900336 -0.165486 0.852177
0.0893339 -0.166652 0.851615
0.0886353 -0.167817 0.851062
0.0879448 -0.168998 0.8506
0.0872485 -0.170161 0.850046
0.0865784 -0.171383 0.849807
0.0859105 -0.172607 0.849585
0.0852704 -0.173898 0.849705
0.084652 -0.175242 0.850088
0.0840547 -0.176639 0.850731
0.0834887 -0.178121 0.851792
0.0829438 -0.179664 0.853132
0.0824449 -0.181336 0.85509
0.0819606 -0.183061 0.857269
0.0814737 -0.184794 0.859459
0.0809683 -0.186493 0.861453
0.0804544 -0.188185 0.863386
0.0799285 -0.189856 0.865186
0.0793897 -0.191504 0.866858
0.121838 -0.114233 0.873527
0.121086 -0.115442 0.872812
0.120359 -0.116675 0.872296
0.119597 -0.117868 0.871478
0.118841 -0.119064 0.870705
0.11806 -0.12023 0.869711
0.117345 -0.121465 0.869268
0.116626 -0.122693 0.868776
0.115909 -0.123921 0.868306
0.115222 -0.125183 0.868087
0.114516 -0.12642 0.867694
0.113789 -0.127631 0.867122
0.113061 -0.128838 0.86653
0.11237 -0.13009 0.866267
0.111726 -0.131398 0.8664
0.111142 -0.132787 0.867092
0.110563 -0.134186 0.867836
0.110021 -0.13564 0.868935
0.109457 -0.137069 0.869846
0.108882 -0.138487 0.870666
0.108337 -0.139951 0.871776
0.107852 -0.141509 0.873468
0.107396 -0.143119 0.875463
0.107084 -0.144954 0.878857
0.10676 -0.14679 0.882191
0.106341 -0.148497 0.884658
0.105847 -0.1501 0.886425
0.105283 -0.151601 0.887537
0.104677 -0.15304 0.888243
0.104016 -0.154392 0.888412
0.103371 -0.155772 0.888747
0.0960665 -0.157721 0.854652
0.0954239 -0.159015 0.854764
0.0947762 -0.160299 0.854819
0.0941275 -0.161583 0.854867
0.09344 -0.16279 0.854495
0.0927363 -0.163962 0.853938
0.092032 -0.165129 0.853358
0.0913068 -0.16625 0.852546
0.0906048 -0.167415 0.851978
0.0899121 -0.168597 0.851506
0.0892282 -0.169796 0.85113
0.0885321 -0.170964 0.8506
0.0878609 -0.172188 0.850363
0.0871841 -0.173395 0.850045
0.0865362 -0.17467 0.850077
0.0859047 -0.175985 0.850306
0.0853082 -0.177385 0.850956
0.0847445 -0.178871 0.852026
0.0842146 -0.18045 0.853537
0.083719 -0.182129 0.855508
0.083243 -0.183872 0.857762
0.0827642 -0.185624 0.860023
0.0822723 -0.187356 0.862162
0.0817762 -0.189094 0.864297
0.0812868 -0.190868 0.866565
0.0807819 -0.19261 0.868659
0.122316 -0.116066 0.872359
0.121585 -0.117295 0.871817
0.120844 -0.118511 0.871184
0.120114 -0.119737 0.870639
0.119353 -0.120925 0.869823
0.11864 -0.122164 0.869406
0.117937 -0.123412 0.869063
0.117218 -0.12464 0.868581
0.116529 -0.125902 0.868358
0.115831 -0.127151 0.868046
0.115124 -0.128388 0.867648
0.114395 -0.129597 0.867064
0.113695 -0.13084 0.866726
0.113047 -0.132147 0.866843
0.112446 -0.133514 0.867371
0.111842 -0.134882 0.867892
0.111285 -0.136315 0.868844
0.110722 -0.137745 0.86975
0.110135 -0.139146 0.870444
0.109589 -0.140609 0.871534
0.109104 -0.142165 0.873205
0.107612 -0.149168 0.884419
0.107085 -0.150717 0.885846
0.106512 -0.152203 0.88686
0.1059 -0.153631 0.887499
0.10524 -0.154983 0.887672
0.0967434 -0.159843 0.855521
0.0960976 -0.161134 0.855599
0.0954524 -0.162429 0.855697
0.094763 -0.163636 0.855318
0.0940568 -0.164808 0.854749
0.0933412 -0.165959 0.854077
0.0926137 -0.16708 0.853259
0.0919099 -0.168246 0.852684
0.0912078 -0.169413 0.85213
0.0905227 -0.170613 0.851753
0.0898313 -0.171797 0.851298
0.0891527 -0.173008 0.850985
0.0884687 -0.174203 0.850599
0.0878257 -0.175493 0.8507
0.0871947 -0.17681 0.850931
0.0865993 -0.178216 0.851596
0.0860435 -0.179723 0.852755
0.0855214 -0.181322 0.854346
0.0850224 -0.182989 0.856247
0.0845362 -0.184703 0.85834
0.0840519 -0.186438 0.860506
0.0835625 -0.188175 0.862654
0.0830841 -0.189958 0.864979
0.0826216 -0.1918 0.867556
0.0821545 -0.193649 0.870124
0.0809489 -0.19631 0.879815
0.081662 -0.195446 0.872417
0.123512 -0.116655 0.87163
0.12278 -0.117884 0.87109
0.122066 -0.119128 0.87068
0.121353 -0.120371 0.870275
0.120609 -0.12158 0.869619
0.119907 -0.122832 0.869295
0.119223 -0.124102 0.869119
0.118505 -0.125333 0.868654
0.117817 -0.126596 0.868433
0.117128 -0.127858 0.868205
0.116429 -0.129107 0.867896
0.1157 -0.130318 0.867322
0.115 -0.131563 0.866988
0.114339 -0.132855 0.866997
0.113716 -0.134196 0.867337
0.113095 -0.135541 0.867689
0.11252 -0.13695 0.868472
0.111959 -0.138382 0.869384
0.11138 -0.139794 0.870149
0.107764 -0.152839 0.886394
0.0981713 -0.160866 0.857351
0.097513 -0.162141 0.857323
0.096843 -0.163394 0.857173
0.0961621 -0.164625 0.856905
0.0954274 -0.165749 0.856067
0.0946884 -0.166859 0.855159
0.0939576 -0.167979 0.854327
0.0932509 -0.169146 0.853749
0.0925466 -0.170315 0.853191
0.0918523 -0.1715 0.852729
0.0911649 -0.172699 0.852341
0.0904777 -0.173896 0.851949
0.0897904 -0.175091 0.851551
0.0891478 -0.176384 0.851654
0.0885158 -0.177704 0.851888
0.0879142 -0.179098 0.852483
0.0873594 -0.180608 0.853642
0.0868397 -0.182212 0.855239
0.0863279 -0.18385 0.856975
0.0858301 -0.185531 0.8589
0.12398 -0.118477 0.870401
0.12329 -0.119747 0.870196
0.122817 -0.121243 0.871734
0.122276 -0.122674 0.872739
0.121769 -0.124147 0.87404
0.121105 -0.125452 0.874061
0.120376 -0.126684 0.873546
0.119482 -0.127724 0.87165
0.1186 -0.128769 0.869829
0.117704 -0.129789 0.867868
0.116974 -0.131001 0.867297
0.116277 -0.13225 0.866997
0.115604 -0.133528 0.866898
0.11496 -0.134844 0.867063
0.11432 -0.136165 0.86725
0.11374 -0.137566 0.867973
0.0996609 -0.161995 0.859745
0.0989731 -0.163223 0.859438
0.0982583 -0.164399 0.858846
0.097564 -0.165611 0.858461
0.0968003 -0.166686 0.857341
0.096042 -0.167765 0.856262
0.0953101 -0.16889 0.855443
0.0946086 -0.170074 0.854944
0.0939092 -0.171259 0.85446
0.0932118 -0.172444 0.853987
0.0925213 -0.173644 0.85359
0.0918322 -0.174842 0.853189
0.0911432 -0.176039 0.852792
0.0904991 -0.177334 0.852892
0.0898657 -0.178657 0.853126
0.0892571 -0.180038 0.85364
0.0886882 -0.181518 0.854636
0.0881545 -0.183089 0.856058
0.0876303 -0.184694 0.857617
0.0871198 -0.186342 0.859367
0.137631 -0.109485 0.917861
0.138363 -0.108146 0.918099
0.139698 -0.108834 0.917911
0.138951 -0.110162 0.917567
0.138218 -0.1115 0.917316
0.125121 -0.122989 0.879843
0.124345 -0.124189 0.878999
0.123664 -0.125489 0.87892
0.122824 -0.126612 0.877541
0.121902 -0.127638 0.875483
0.120941 -0.128609 0.873074
0.119988 -0.129579 0.870704
0.119017 -0.130516 0.868152
0.118284 -0.131726 0.867561
0.117579 -0.132967 0.867199
0.116889 -0.134226 0.866965
0.116217 -0.135507 0.866881
0.115547 -0.136791 0.86682
0.114939 -0.138155 0.867293
0.100366 -0.164172 0.860798
0.0996363 -0.165326 0.860073
0.0989303 -0.166523 0.859592
0.098153 -0.167578 0.858363
0.0973841 -0.168642 0.857198
0.0966578 -0.169785 0.856465
0.0959629 -0.170987 0.856048
0.0952628 -0.172177 0.85558
0.0945713 -0.173381 0.855192
0.0938873 -0.1746 0.854882
0.0931954 -0.175799 0.854475
0.0925055 -0.177 0.854084
0.0918586 -0.178296 0.854174
0.0912251 -0.179622 0.854407
0.0906147 -0.181003 0.854912
0.0900314 -0.182452 0.855736
0.0894815 -0.183986 0.856962
0.088942 -0.185554 0.858333
0.0884174 -0.187169 0.859903
0.140983 -0.109481 0.917343
0.140234 -0.110807 0.916983
0.139497 -0.112142 0.916709
0.13747 -0.112824 0.916949
0.138736 -0.113455 0.91625
0.136665 -0.114098 0.916158
0.137934 -0.114731 0.915486
0.135887 -0.115392 0.915562
0.137154 -0.116024 0.914879
0.135129 -0.116702 0.915106
0.136371 -0.117311 0.914244
0.135574 -0.118583 0.913496
0.101722 -0.165046 0.86173
0.100982 -0.166187 0.860931
0.100269 -0.167374 0.860386
0.0994883 -0.168429 0.859153
0.0987256 -0.169512 0.858078
0.0980131 -0.170688 0.857515
0.0973261 -0.171911 0.857197
0.0966327 -0.17312 0.856819
0.0959413 -0.174331 0.85645
0.0952569 -0.175554 0.85615
0.0945713 -0.176774 0.855834
0.0938855 -0.177991 0.855515
0.0932388 -0.179293 0.855619
0.0926109 -0.180638 0.85593
0.0919923 -0.182006 0.856355
0.0913932 -0.183422 0.856999
0.0908344 -0.184938 0.858117
0.0902931 -0.186503 0.859457
0.0897562 -0.188091 0.860878
0.141533 -0.111466 0.916522
0.140788 -0.112794 0.916195
0.140008 -0.114092 0.915601
0.139204 -0.115366 0.914834
0.138425 -0.11666 0.914241
0.137642 -0.117947 0.913606
0.136836 -0.11921 0.91279
0.136026 -0.120467 0.911943
0.103852 -0.164823 0.863721
0.103069 -0.165899 0.862539
0.102313 -0.167016 0.861602
