ply
format ascii 1.0
element vertex 1548
property float x
property float y
property float z
end_header
-0.0339598 -0.00936609 0.273614
-0.0333115 -0.0097499 0.272901
-0.0326902 -0.0101264 0.272496
-0.0320777 -0.0105 0.272187
-0.0314766 -0.010871 0.272008
-0.0308844 -0.0112395 0.271939
-0.0302996 -0.0116065 0.27196
-0.0297044 -0.0119755 0.271834
-0.0291226 -0.0123415 0.271889
-0.0285435 -0.0127074 0.271975
-0.0279549 -0.0130745 0.271926
-0.0273636 -0.0134419 0.271832
-0.0267618 -0.0138109 0.271567
-0.0261269 -0.0141836 0.270784
-0.0254686 -0.0145581 0.269598
-0.0248089 -0.0149311 0.26833
-0.0241475 -0.015302 0.266976
-0.0234989 -0.0156698 0.265767
-0.0228807 -0.0160334 0.265014
-0.0222809 -0.0163942 0.264544
-0.02169 -0.0167534 0.264209
-0.0211073 -0.0171121 0.263999
-0.0205331 -0.0174698 0.263936
-0.0199554 -0.0178272 0.263792
-0.0193704 -0.0181842 0.263494
-0.0187858 -0.0185402 0.263181
-0.0181933 -0.0188953 0.26267
-0.017602 -0.0192493 0.262154
-0.0170125 -0.0196022 0.261645
-0.0164322 -0.0199553 0.261301
-0.0158568 -0.0203077 0.261052
-0.0152921 -0.0206609 0.261039
-0.0147498 -0.0210182 0.261594
-0.0142327 -0.0213815 0.262828
-0.0137437 -0.0217545 0.264909
-0.0132418 -0.022129 0.266788
-0.0454318 -0.00241415 0.281
-0.0457534 -0.00142878 0.28182
-0.0450483 -0.00184356 0.280908
-0.0443601 -0.00225143 0.280131
-0.0436852 -0.00265441 0.279455
-0.0430195 -0.00305348 0.278849
-0.0423672 -0.00344727 0.278356
-0.0417162 -0.00384025 0.277859
-0.0410871 -0.0042262 0.277563
-0.0404679 -0.0046082 0.277361
-0.0398507 -0.00498893 0.277171
-0.0392384 -0.00536858 0.277021
-0.0386295 -0.00574672 0.2769
-0.0380059 -0.00612878 0.276616
-0.0373797 -0.00651157 0.276288
-0.0367506 -0.00689467 0.275914
-0.0361193 -0.00727788 0.275501
-0.0354681 -0.00766625 0.274839
-0.0348171 -0.00805385 0.274155
-0.0341571 -0.00844293 0.273338
-0.0335033 -0.00882984 0.272563
-0.0328598 -0.00921254 0.271889
-0.0322489 -0.00958681 0.271596
-0.0316421 -0.00995972 0.271339
-0.0310486 -0.0103286 0.271247
-0.0304668 -0.010695 0.271301
-0.0298892 -0.0110606 0.271406
-0.0292953 -0.0114294 0.271289
-0.028715 -0.011795 0.271357
-0.0281366 -0.0121601 0.27145
-0.0275408 -0.0125289 0.271285
-0.0269379 -0.0128983 0.271005
-0.0263252 -0.013269 0.27056
-0.025687 -0.0136432 0.269693
-0.0250286 -0.0140188 0.268468
-0.0243738 -0.0143926 0.267239
-0.023728 -0.0147631 0.2661
-0.0230931 -0.0151305 0.26509
-0.022483 -0.0154939 0.264453
-0.0218908 -0.0158545 0.264102
-0.021305 -0.0162139 0.263844
-0.0207204 -0.0165726 0.263591
-0.0201439 -0.0169306 0.263476
-0.0195669 -0.0172881 0.263326
-0.0189807 -0.0176453 0.262991
-0.0183989 -0.0180019 0.26272
-0.017811 -0.0183576 0.262289
-0.0172239 -0.0187122 0.26185
-0.0166373 -0.0190659 0.261387
-0.0160811 -0.0194214 0.261602
-0.0155317 -0.0197775 0.261986
-0.0149697 -0.0201324 0.262078
-0.0144497 -0.0204934 0.263247
-0.0139533 -0.0208616 0.265137
-0.0134634 -0.0212348 0.267335
-0.0129593 -0.0216096 0.269295
-0.0127665 -0.0225157 0.269572
-0.0124784 -0.0219958 0.272108
-0.0119663 -0.0223783 0.274157
-0.0471067 -0.000617372 0.283056
-0.0473541 0.000348134 0.283167
-0.0467065 -4.85568e-05 0.28283
-0.046436 -0.00102135 0.282501
-0.0460361 -0.00045311 0.282274
-0.0453529 -0.000861975 0.281582
-0.0446554 -0.00127546 0.280732
-0.043968 -0.00168456 0.279955
-0.0432896 -0.00208988 0.27924
-0.0426153 -0.00249333 0.278542
-0.0419536 -0.00289125 0.277949
-0.0413029 -0.00328519 0.277445
-0.0406743 -0.00367144 0.277149
-0.0400551 -0.00405385 0.27694
-0.0394353 -0.00443597 0.276716
-0.0388201 -0.00481693 0.276528
-0.0382118 -0.00519494 0.276409
-0.0375852 -0.00557873 0.27608
-0.0369525 -0.00596398 0.275671
-0.0363165 -0.00634993 0.275206
-0.0356814 -0.00673452 0.274738
-0.0350211 -0.00712673 0.273952
-0.0343685 -0.00751543 0.27323
-0.0337107 -0.00790528 0.272415
-0.0330623 -0.00829113 0.271688
-0.0324217 -0.00867427 0.271029
-0.0318157 -0.00904759 0.27078
-0.0312101 -0.00942009 0.270526
-0.0306176 -0.00978914 0.27043
-0.0300369 -0.0101549 0.270487
-0.0294601 -0.0105199 0.270592
-0.0288703 -0.0108876 0.270518
-0.0282912 -0.0112529 0.270588
-0.0277141 -0.0116176 0.270687
-0.0271161 -0.0119867 0.270475
-0.0265076 -0.0123576 0.270092
-0.0258899 -0.0127295 0.269548
-0.0252652 -0.0131019 0.268865
-0.0246217 -0.013477 0.267841
-0.0239811 -0.0138496 0.26682
-0.0233524 -0.0142194 0.265942
-0.0227273 -0.0145872 0.265082
-0.0221128 -0.0149521 0.264366
-0.0215185 -0.0153136 0.26397
-0.0209307 -0.0156739 0.26367
-0.0203425 -0.0160336 0.263339
-0.0197643 -0.0163918 0.263184
-0.0191876 -0.0167495 0.263035
-0.0186042 -0.017107 0.262747
-0.0180256 -0.0174638 0.262528
-0.0174415 -0.0178203 0.26218
-0.0168585 -0.0181756 0.261824
-0.0162739 -0.0185303 0.261398
-0.0157488 -0.0188869 0.262364
-0.0152264 -0.0192455 0.26346
-0.014691 -0.0196049 0.264284
-0.0141935 -0.01997 0.266164
-0.0137071 -0.0203407 0.268482
-0.0131964 -0.0207119 0.270274
-0.0126835 -0.0210865 0.272154
-0.0121723 -0.0214652 0.274212
-0.0116345 -0.0218419 0.275592
-0.0476041 0.00131669 0.283298
-0.0469441 0.000914287 0.282859
-0.0462913 0.000514763 0.282469
-0.045624 0.000110107 0.281933
-0.0449444 -0.000298551 0.281266
-0.0442461 -0.000714191 0.280398
-0.0435535 -0.00112647 0.279562
-0.0428674 -0.00153582 0.278763
-0.0421937 -0.0019399 0.278062
-0.0415293 -0.00234043 0.277428
-0.0408828 -0.00273352 0.276958
-0.0402579 -0.00311872 0.276693
-0.03964 -0.00350128 0.27649
-0.0390213 -0.00388354 0.27627
-0.0384106 -0.00426324 0.276124
-0.0377992 -0.00464259 0.275966
-0.0371695 -0.00502771 0.275597
-0.0365338 -0.00541489 0.275141
-0.0358877 -0.00580475 0.274551
-0.0352461 -0.00619236 0.273993
-0.0345833 -0.00658641 0.273159
-0.0339294 -0.00697691 0.272401
-0.0332739 -0.00736705 0.271595
-0.0326347 -0.00775122 0.270962
-0.0319994 -0.00813365 0.270351
-0.0313956 -0.00850669 0.270118
-0.0307936 -0.00887834 0.269899
-0.0302015 -0.00924747 0.269798
-0.0296181 -0.00961366 0.269809
-0.0290414 -0.00997822 0.269908
-0.028458 -0.0103444 0.269911
-0.0278768 -0.0107099 0.269944
-0.0272996 -0.0110745 0.27003
-0.0267016 -0.0114441 0.269802
-0.0260904 -0.011816 0.269361
-0.0254665 -0.01219 0.268698
-0.0248509 -0.0125615 0.268134
-0.0242203 -0.0129348 0.267297
-0.0235954 -0.0133062 0.26651
-0.0229809 -0.0136746 0.265861
-0.0223701 -0.0140413 0.265237
-0.02176 -0.014407 0.264593
-0.0211614 -0.0147705 0.264118
-0.020569 -0.0151318 0.263735
-0.0199764 -0.0154928 0.26332
-0.0193947 -0.015852 0.263089
-0.0188143 -0.0162103 0.262871
-0.0182336 -0.0165685 0.262628
-0.0176589 -0.0169255 0.262495
-0.017081 -0.0172822 0.262271
-0.0165036 -0.0176386 0.26204
-0.0159513 -0.0179943 0.262383
-0.0154584 -0.0183514 0.264194
-0.0149667 -0.0187118 0.266144
-0.0144596 -0.0190745 0.267837
-0.0139772 -0.0194427 0.270304
-0.0129225 -0.0201805 0.273174
-0.0123801 -0.0205511 0.274319
-0.0118394 -0.0209245 0.275596
-0.0478245 0.00227465 0.283164
-0.0471853 0.0018797 0.282916
-0.0465181 0.00147328 0.282402
-0.0458579 0.00106983 0.281936
-0.0451847 0.000661975 0.281336
-0.0444984 0.000249691 0.280594
-0.0438067 -0.000164602 0.279777
-0.0431202 -0.000576266 0.278984
-0.0424359 -0.000986273 0.27819
-0.0417639 -0.0013909 0.277492
-0.0411043 -0.00179074 0.276895
-0.0404596 -0.00218376 0.276435
-0.0398361 -0.00256891 0.276176
-0.0392196 -0.0029512 0.27598
-0.0386052 -0.00333282 0.275796
-0.037995 -0.00371215 0.275652
-0.0373839 -0.0040921 0.275487
-0.0367518 -0.00447898 0.275081
-0.0361129 -0.00486764 0.27458
-0.0354607 -0.00526076 0.273906
-0.0348163 -0.00565028 0.273299
-0.0341516 -0.00604597 0.272426
-0.0334996 -0.0064373 0.271671
-0.0328522 -0.00682566 0.270949
-0.0322215 -0.00720832 0.270404
-0.0315913 -0.00759018 0.269845
-0.0309915 -0.00796231 0.269654
-0.0303927 -0.00833338 0.269469
-0.029801 -0.00870249 0.269366
-0.0292179 -0.00906878 0.269374
-0.0286391 -0.00943408 0.269435
-0.028058 -0.00979935 0.269468
-0.0274745 -0.0101658 0.269458
-0.0268899 -0.0105321 0.269428
-0.0262842 -0.0109036 0.269074
-0.0256689 -0.0112772 0.268549
-0.0250466 -0.0116514 0.267888
-0.0244381 -0.0120219 0.267416
-0.0238241 -0.012393 0.266824
-0.0232155 -0.0127618 0.266296
-0.0226166 -0.0131285 0.2659
-0.0220158 -0.0134946 0.265449
-0.0214125 -0.0138602 0.264926
-0.0208137 -0.0142248 0.26445
-0.0202186 -0.0145875 0.264022
-0.0196231 -0.01495 0.263552
-0.0190386 -0.0153103 0.26327
-0.018454 -0.0156699 0.262971
-0.0178734 -0.0160283 0.262731
-0.0173022 -0.0163856 0.262675
-0.0167278 -0.0167432 0.262542
-0.0161816 -0.0170986 0.26305
-0.0156652 -0.0174536 0.264304
-0.0152038 -0.0178103 0.267004
-0.0142556 -0.018536 0.272301
-0.013757 -0.0189046 0.274558
-0.0132076 -0.0192731 0.275512
-0.0126265 -0.0196393 0.275581
-0.0120551 -0.0200075 0.275943
-0.0114862 -0.0203764 0.276421
-0.0114012 -0.0213261 0.280406
-0.0480894 0.00325233 0.283419
-0.0474325 0.0028488 0.283022
-0.0467743 0.00244516 0.282599
-0.0460949 0.00203233 0.281966
-0.0454233 0.00162366 0.281388
-0.04474 0.00121057 0.280683
-0.044052 0.000795694 0.27991
-0.0433655 0.000382426 0.279129
-0.0426804 -2.98277e-05 0.278337
-0.0419979 -0.000440435 0.277546
-0.0413321 -0.000843984 0.276896
-0.0406791 -0.00124221 0.276355
-0.0400406 -0.00163384 0.275948
-0.0394225 -0.00201732 0.275738
-0.0388107 -0.00239824 0.275585
-0.0381966 -0.0027797 0.275401
-0.0375837 -0.00316088 0.275218
-0.0369693 -0.00354224 0.275011
-0.0363373 -0.00392973 0.274597
-0.0356956 -0.00432071 0.274052
-0.0350378 -0.00471647 0.273301
-0.0343913 -0.00510814 0.272652
-0.0337275 -0.00550499 0.271772
-0.0330769 -0.00589679 0.271018
-0.0324352 -0.00628447 0.270349
-0.0318123 -0.00666531 0.269889
-0.0311899 -0.00704563 0.269415
-0.0305931 -0.0074167 0.26926
-0.0299948 -0.0077882 0.269073
-0.0294038 -0.00815737 0.268971
-0.0288216 -0.00852347 0.268987
-0.0282432 -0.00888849 0.269051
-0.0276628 -0.00925385 0.269086
-0.0270767 -0.00962081 0.269034
-0.0264898 -0.00998801 0.268962
-0.0258874 -0.0103593 0.268644
-0.0252757 -0.0107323 0.268166
-0.02466 -0.0111064 0.267592
-0.0240577 -0.0114761 0.26721
-0.0234512 -0.0118461 0.266736
-0.0228502 -0.0122145 0.266328
-0.0222564 -0.0125806 0.266021
-0.0216613 -0.0129464 0.265671
-0.0210651 -0.013312 0.265279
-0.0204685 -0.0136771 0.264851
-0.019871 -0.0140415 0.264381
-0.0192726 -0.0144058 0.263854
-0.0186831 -0.0147674 0.263481
-0.0180926 -0.0151288 0.263053
-0.0175096 -0.0154887 0.262764
-0.0169367 -0.0158463 0.262669
-0.0163641 -0.0162041 0.262578
-0.0158516 -0.0165559 0.263908
-0.0153749 -0.0169079 0.266195
-0.0149452 -0.0172611 0.269845
-0.0145041 -0.0176199 0.273441
-0.0140432 -0.0179853 0.276758
-0.0135094 -0.0183541 0.278236
-0.0129213 -0.0187236 0.278215
-0.0123108 -0.0190905 0.277495
-0.0117117 -0.0194576 0.277081
-0.01112 -0.0198239 0.276857
-0.0476924 0.00382539 0.283238
-0.0470161 0.00341212 0.282659
-0.0463427 0.00300087 0.282092
-0.0456539 0.00258321 0.281364
-0.0449648 0.0021659 0.280611
-0.0442797 0.00175047 0.279873
-0.0435929 0.00133535 0.279098
-0.0429079 0.000921107 0.278314
-0.0422206 0.000506548 0.277484
-0.0415404 9.53193e-05 0.276698
-0.0408811 -0.000306762 0.276098
-0.0402342 -0.000702808 0.275607
-0.0396018 -0.00109263 0.27525
-0.0389896 -0.00147425 0.275092
-0.0383821 -0.00185404 0.274974
-0.0377693 -0.00223512 0.274796
-0.0371565 -0.00261655 0.274606
-0.0365431 -0.00299767 0.274401
-0.0359121 -0.0033855 0.273985
-0.0352715 -0.00377688 0.273441
-0.034615 -0.00417374 0.272687
-0.0339727 -0.00456487 0.272074
-0.0333142 -0.00496148 0.27124
-0.032668 -0.00535231 0.270529
-0.0320342 -0.00573869 0.269943
-0.031419 -0.00611766 0.269571
-0.0307979 -0.00649835 0.269105
-0.0302014 -0.00686976 0.268947
-0.0296066 -0.00724072 0.268799
-0.0290185 -0.00760872 0.268738
-0.0284349 -0.0079757 0.26873
-0.0278569 -0.00834034 0.268799
-0.0272792 -0.0087052 0.268869
-0.0266906 -0.00907309 0.268778
-0.0261016 -0.0094412 0.268669
-0.0255048 -0.00981134 0.268431
-0.0249013 -0.0101828 0.268074
-0.0242897 -0.0105569 0.267558
-0.0236927 -0.0109256 0.267263
-0.0230912 -0.0112958 0.266867
-0.022494 -0.0116637 0.266528
-0.0219005 -0.0120304 0.26623
-0.0213096 -0.0123963 0.265959
-0.0207179 -0.0127618 0.265653
-0.0201218 -0.0131283 0.265238
-0.0195242 -0.0134937 0.264771
-0.0189253 -0.0138591 0.264243
-0.0183312 -0.014223 0.263779
-0.0177344 -0.0145864 0.263227
-0.017149 -0.0149471 0.262882
-0.016607 -0.0153008 0.263499
-0.0160645 -0.0156553 0.26415
-0.0155849 -0.0160033 0.266357
-0.0151434 -0.0163504 0.269677
-0.0147165 -0.0167014 0.273602
-0.0142373 -0.0170612 0.276399
-0.0137433 -0.0174259 0.27898
-0.0131791 -0.0177956 0.279696
-0.0125688 -0.0181662 0.279072
-0.0119557 -0.0185352 0.278298
-0.0113539 -0.0189031 0.277803
-0.0108753 -0.0192825 0.28154
-0.0479801 0.00481662 0.283694
-0.0472907 0.00439582 0.283011
-0.0465958 0.0039734 0.282261
-0.0459062 0.00355336 0.281535
-0.0452006 0.00312693 0.28064
-0.0445081 0.00270657 0.27984
-0.0438206 0.00228884 0.279064
-0.0431362 0.00187346 0.278296
-0.042453 0.0014585 0.277514
-0.041767 0.0010432 0.276681
-0.0410846 0.000629835 0.275857
-0.0404266 0.000227602 0.275256
-0.0397857 -0.000167159 0.27481
-0.039159 -0.000555658 0.274497
-0.038548 -0.000936526 0.274344
-0.0379413 -0.0013158 0.274226
-0.037333 -0.00169594 0.274082
-0.0367213 -0.00207679 0.273896
-0.0361095 -0.00245771 0.273697
-0.0354831 -0.00284473 0.273319
-0.0348476 -0.00323487 0.27282
-0.034193 -0.00363228 0.272073
-0.0335524 -0.00402359 0.271467
-0.0329015 -0.00441848 0.27071
-0.0322608 -0.00480906 0.27005
-0.0316351 -0.00519285 0.269557
-0.0310275 -0.00556983 0.269272
-0.0304131 -0.00594891 0.268887
-0.0298172 -0.00632032 0.268734
-0.0292282 -0.00668942 0.268662
-0.0286434 -0.0070569 0.268644
-0.0280628 -0.00742291 0.268679
-0.0274875 -0.00778668 0.26879
-0.0269121 -0.00815084 0.268897
-0.0263233 -0.00851924 0.268804
-0.0257366 -0.00888694 0.268733
-0.0251426 -0.00925673 0.26854
-0.0245449 -0.00962758 0.268272
-0.0239388 -0.0100009 0.26785
-0.0233443 -0.0103701 0.267598
-0.0227448 -0.0107402 0.267244
-0.022147 -0.0111096 0.266898
-0.0215506 -0.0114781 0.266554
-0.0209591 -0.0118449 0.266278
-0.0203686 -0.0122109 0.266001
-0.0197721 -0.0125782 0.265588
-0.0191785 -0.012944 0.265203
-0.0185798 -0.0133105 0.264687
-0.0179803 -0.0136767 0.264117
-0.0173779 -0.0140428 0.263436
-0.0168218 -0.0143987 0.263758
-0.0163102 -0.0147469 0.265138
-0.0158037 -0.0150953 0.26672
-0.0153572 -0.0154372 0.269893
-0.0149273 -0.0157807 0.273723
-0.0144572 -0.0161341 0.276729
-0.013941 -0.0164965 0.278687
-0.0134115 -0.016862 0.280411
-0.0128225 -0.0172338 0.280471
-0.0122127 -0.0176057 0.279876
-0.0116031 -0.0179769 0.27922
-0.0109975 -0.0183467 0.278645
-0.0486669 0.00523632 0.284333
-0.0489522 0.00623083 0.284749
-0.0482862 0.00581954 0.284305
-0.0476004 0.00539874 0.283669
-0.046895 0.00496913 0.282839
-0.0461811 0.00453605 0.281907
-0.0454708 0.00410539 0.280983
-0.0447569 0.00367314 0.279996
-0.0440532 0.0032463 0.279077
-0.0433638 0.0028263 0.278268
-0.042685 0.00241194 0.277538
-0.0420076 0.00199838 0.276798
-0.0413237 0.00158245 0.27597
-0.040643 0.00116829 0.275147
-0.0399858 0.000765081 0.274539
-0.039345 0.000369985 0.274085
-0.0387157 -1.99327e-05 0.273734
-0.0381023 -0.000402824 0.273538
-0.0374967 -0.000781602 0.273423
-0.0368927 -0.00116006 0.273315
-0.0362827 -0.00154081 0.273134
-0.0356794 -0.00191849 0.273021
-0.0350622 -0.00230179 0.272739
-0.0344354 -0.00268957 0.272328
-0.0337887 -0.00308488 0.271662
-0.0331557 -0.00347379 0.271141
-0.0325103 -0.00386818 0.270438
-0.0318775 -0.00425624 0.26987
-0.0312589 -0.0046384 0.26946
-0.0306522 -0.00501556 0.269186
-0.0300413 -0.00539388 0.268844
-0.0294517 -0.00576384 0.268773
-0.0288656 -0.00613226 0.268743
-0.0282838 -0.00649858 0.268772
-0.0277083 -0.00686294 0.268886
-0.0271354 -0.007226 0.269039
-0.0265592 -0.00759074 0.269142
-0.0259699 -0.00795986 0.269048
-0.0253853 -0.00832709 0.269017
-0.0247938 -0.00869662 0.26887
-0.0242011 -0.00906671 0.268691
-0.0235994 -0.00943922 0.268349
-0.023007 -0.00980831 0.268146
-0.0224067 -0.0101799 0.267787
-0.0218061 -0.0105512 0.2674
-0.0212044 -0.0109223 0.266969
-0.0206076 -0.0112918 0.2666
-0.0200139 -0.0116594 0.266272
-0.019419 -0.0120274 0.265888
-0.0188594 -0.012385 0.266206
-0.0182972 -0.0127434 0.266481
-0.0176978 -0.0131115 0.265956
-0.0171251 -0.0134726 0.265991
-0.0165947 -0.0138239 0.266994
-0.0160846 -0.0141719 0.268544
-0.0155811 -0.0145196 0.270348
-0.0151607 -0.0148544 0.274392
-0.0146957 -0.0152014 0.277543
-0.0141831 -0.0155602 0.279612
-0.0136285 -0.0159268 0.280646
-0.0130699 -0.0162952 0.28163
-0.0124597 -0.01667 0.281088
-0.0118509 -0.0170438 0.280543
-0.0112433 -0.0174163 0.279984
-0.0496253 0.00664612 0.285241
-0.0492284 0.00722394 0.28508
-0.0485538 0.00680715 0.284571
-0.047889 0.00639527 0.284133
-0.0472017 0.0059726 0.283479
-0.0464902 0.00553824 0.282585
-0.0457628 0.00509712 0.281521
-0.045033 0.00465473 0.280402
-0.0443111 0.00421659 0.279325
-0.0435997 0.00378453 0.278318
-0.0429112 0.00336363 0.277502
-0.042235 0.00294907 0.276783
-0.0415679 0.00253928 0.276131
-0.0408907 0.00212476 0.275354
-0.0402155 0.00171179 0.274574
-0.0395553 0.00130629 0.273925
-0.0389108 0.000908078 0.273416
-0.0382782 0.000515978 0.273018
-0.0376624 0.000131523 0.272786
-0.037058 -0.000246994 0.272673
-0.0364579 -0.000623509 0.272599
-0.0358529 -0.00100263 0.272463
-0.0352549 -0.00137801 0.272402
-0.0346501 -0.00175652 0.272254
-0.034032 -0.00214111 0.271937
-0.0333938 -0.00253359 0.271365
-0.0327686 -0.00292054 0.270928
-0.0321306 -0.00331298 0.270309
-0.0315018 -0.00370045 0.269786
-0.0308877 -0.00408177 0.269429
-0.030284 -0.00445842 0.269193
-0.0296763 -0.00483642 0.26889
-0.0290892 -0.00520517 0.26886
-0.0285066 -0.00557269 0.268882
-0.0279279 -0.00593804 0.26896
-0.0273549 -0.00630118 0.269118
-0.0267839 -0.00666379 0.269308
-0.0262073 -0.00702871 0.269415
-0.0256177 -0.00739832 0.269322
-0.0250376 -0.00776432 0.269371
-0.0244506 -0.00813268 0.269306
-0.0238604 -0.00850258 0.269176
-0.0232629 -0.00887482 0.268912
-0.0226741 -0.00924349 0.268785
-0.022088 -0.00961101 0.268693
-0.0158933 -0.0135772 0.272937
-0.0153867 -0.0139257 0.274863
-0.0149276 -0.014266 0.278151
-0.0144253 -0.0146186 0.280508
-0.0138748 -0.0149834 0.281686
-0.0132897 -0.0153556 0.281933
-0.0127027 -0.0157286 0.282134
-0.0120926 -0.0161046 0.281622
-0.011483 -0.0164797 0.281071
-0.0109943 -0.0168428 0.28462
-0.0107534 -0.0177855 0.283495
-0.0494648 0.0081985 0.28506
-0.0488225 0.00779714 0.28484
-0.0481505 0.00738051 0.284348
-0.0474828 0.00696653 0.283881
-0.0467937 0.00654147 0.283204
-0.0460707 0.00609984 0.282196
-0.045335 0.00565213 0.281041
-0.0445917 0.00520077 0.279781
-0.0438609 0.00475648 0.278604
-0.0431421 0.00431859 0.277509
-0.0424557 0.00389725 0.276697
-0.0417853 0.00348443 0.276021
-0.0411252 0.00307681 0.275425
-0.0404552 0.00266444 0.274706
-0.0397864 0.00225268 0.273975
-0.0391237 0.00184505 0.273288
-0.0384762 0.00144423 0.272734
-0.0378438 0.00105144 0.272326
-0.0372286 0.000667166 0.272091
-0.0366253 0.000288861 0.27198
-0.0360305 -8.56486e-05 0.271956
-0.0354367 -0.000459451 0.271939
-0.0348469 -0.000831283 0.271967
-0.0342506 -0.00120629 0.271913
-0.0336407 -0.00158752 0.271689
-0.0330168 -0.00197521 0.27128
-0.032399 -0.00235923 0.270934
-0.0317681 -0.00274958 0.270401
-0.0311459 -0.00313553 0.269959
-0.0305373 -0.00351528 0.269676
-0.0299332 -0.00389271 0.26944
-0.0293279 -0.00427021 0.269175
-0.0287462 -0.00463758 0.269221
-0.0281661 -0.00500354 0.269293
-0.0275904 -0.00536832 0.269422
-0.0270221 -0.00572966 0.269664
-0.0264526 -0.0060912 0.269895
-0.025873 -0.00645789 0.26997
-0.0252825 -0.0068283 0.269878
-0.0247064 -0.00719326 0.270004
-0.0241236 -0.00756067 0.270023
-0.0235329 -0.00793098 0.269905
-0.0229368 -0.00830322 0.269685
-0.0223642 -0.00866657 0.269859
-0.0217758 -0.00903555 0.269756
-0.0217183 -0.00990334 0.272545
-0.0214324 -0.00931291 0.274182
-0.0213546 -0.0101968 0.2767
-0.0156994 -0.0129694 0.277464
-0.0151759 -0.013322 0.279162
-0.0146768 -0.01367 0.281629
-0.014136 -0.0140309 0.283102
-0.0135514 -0.0144039 0.283429
-0.0129391 -0.0147829 0.28295
-0.0123295 -0.0151609 0.282505
-0.0117191 -0.0155382 0.281988
-0.0112283 -0.0158952 0.285487
-0.0496828 0.00916482 0.284882
-0.0490508 0.00876807 0.284753
-0.0484085 0.00836611 0.284529
-0.0477376 0.00794904 0.284041
-0.0470684 0.00753259 0.283551
-0.0463767 0.00710528 0.282844
-0.0456499 0.00665986 0.281791
-0.044906 0.00620515 0.280545
-0.0441499 0.00574507 0.279148
-0.0434074 0.00529254 0.277844
-0.0426852 0.00485113 0.276698
-0.0420006 0.0044292 0.275888
-0.0413408 0.00402003 0.275299
-0.0406916 0.0036171 0.274801
-0.0400317 0.00320815 0.274172
-0.0393693 0.00279857 0.273496
-0.0387077 0.00239006 0.272808
-0.0380608 0.00198862 0.272252
-0.0374287 0.00159532 0.271838
-0.0368148 0.00121096 0.271609
-0.0362167 0.00083442 0.271546
-0.0356263 0.000462052 0.271568
-0.0350366 9.03879e-05 0.271596
-0.0344511 -0.000279907 0.271668
-0.0338621 -0.000651375 0.271699
-0.0332629 -0.00102799 0.271601
-0.03265 -0.0014111 0.271327
-0.0320364 -0.00179428 0.27103
-0.0314147 -0.00218103 0.270616
-0.0307987 -0.00256543 0.270253
-0.03019 -0.00294566 0.269976
-0.0295858 -0.00332398 0.269741
-0.0289879 -0.00369855 0.269585
-0.0284085 -0.0040648 0.269677
-0.0278339 -0.0044291 0.269835
-0.0272632 -0.00479161 0.270053
-0.0267014 -0.0051496 0.270415
-0.0261337 -0.00551095 0.270689
-0.0255549 -0.00587696 0.270803
-0.024966 -0.00624777 0.270751
-0.0243884 -0.00661308 0.270882
-0.023807 -0.00698029 0.270945
-0.0232178 -0.00735103 0.270873
-0.0226321 -0.00772023 0.270854
-0.0220677 -0.00807995 0.271214
-0.0214937 -0.0084442 0.271405
-0.0211674 -0.00870731 0.27628
-0.0150376 -0.0126809 0.285582
-0.0143582 -0.0130835 0.28342
-0.0137852 -0.0134528 0.284103
-0.0131762 -0.013833 0.283762
-0.0125683 -0.0142119 0.283414
-0.0119575 -0.0145915 0.282943
-0.0114644 -0.0149428 0.286362
-0.0492472 0.00972274 0.284391
-0.0486167 0.00932621 0.284269
-0.0479856 0.00892961 0.284136
-0.0473162 0.00851241 0.283656
-0.0466482 0.00809584 0.28317
-0.0459547 0.0076657 0.282436
-0.0452245 0.00721629 0.281339
-0.0444677 0.00675258 0.279957
-0.0436989 0.00628301 0.278422
-0.0429451 0.00582211 0.276988
-0.0422216 0.00537774 0.27581
-0.0415435 0.00495741 0.275045
-0.0408943 0.00455292 0.274549
-0.0402553 0.00415388 0.27414
-0.0396015 0.00374726 0.273561
-0.0389476 0.00334113 0.272963
-0.0382914 0.00293342 0.272317
-0.0376494 0.00253412 0.271807
-0.037019 0.00214055 0.271402
-0.0364098 0.00175807 0.271217
-0.0358159 0.00138357 0.271199
-0.0352298 0.00101335 0.271266
-0.0346443 0.000643428 0.271339
-0.0340623 0.000275079 0.271453
-0.03348 -9.32584e-05 0.271563
-0.0328876 -0.000466513 0.271549
-0.0322852 -0.000845145 0.271403
-0.031679 -0.00122574 0.271199
-0.0310643 -0.00160985 0.270877
-0.0304539 -0.00199189 0.270596
-0.0298482 -0.00237175 0.27036
-0.0292438 -0.0027505 0.270132
-0.028649 -0.00312466 0.270023
-0.0280743 -0.00348861 0.270195
-0.0274998 -0.0038532 0.270368
-0.0269335 -0.00421328 0.270669
-0.026376 -0.00456906 0.271113
-0.0258096 -0.00492934 0.271433
-0.0252329 -0.00529501 0.271596
-0.0246499 -0.00566343 0.271661
-0.0240708 -0.00602986 0.271789
-0.0234927 -0.0063958 0.271935
-0.0229112 -0.0067631 0.272026
-0.0223343 -0.00712875 0.272193
-0.0217739 -0.00748716 0.272663
-0.0212089 -0.00784731 0.27307
-0.0488001 0.0102727 0.283793
-0.0481724 0.00987744 0.283689
-0.0475503 0.00948569 0.283631
-0.0468871 0.00907043 0.283196
-0.0462162 0.00865137 0.282677
-0.0455237 0.0082205 0.281941
-0.0447903 0.00776709 0.280799
-0.0440247 0.00729619 0.279319
-0.0432486 0.00681914 0.277692
-0.0424922 0.00635405 0.276212
-0.0417677 0.00590653 0.275003
-0.0410963 0.00548875 0.274291
-0.0404532 0.00508686 0.273844
-0.0398161 0.00468807 0.273443
-0.0391676 0.00428337 0.272907
-0.0385189 0.00387817 0.272348
-0.037868 0.00347252 0.271748
-0.0372318 0.00307466 0.271285
-0.0366139 0.00268713 0.27101
-0.0360129 0.00230838 0.270912
-0.0354231 0.00193611 0.270938
-0.0348405 0.00156792 0.271046
-0.0342586 0.00119946 0.271158
-0.0336765 0.000831494 0.271273
-0.0330977 0.000464913 0.271424
-0.032509 9.31449e-05 0.271455
-0.0319136 -0.000282044 0.271399
-0.0313147 -0.000659334 0.271288
-0.0307065 -0.00104075 0.271053
-0.0300996 -0.00142186 0.270819
-0.0294971 -0.001801 0.270629
-0.0288955 -0.0021789 0.270444
-0.0283058 -0.00255046 0.270418
-0.0277342 -0.00291313 0.270644
-0.0271616 -0.00327617 0.270862
-0.0265971 -0.00363552 0.271205
-0.0260391 -0.00399143 0.271659
-0.0254695 -0.00435294 0.271947
-0.024894 -0.00471747 0.27215
-0.0243179 -0.00508299 0.272341
-0.0237454 -0.00544626 0.2726
-0.0231759 -0.00580825 0.272917
-0.0226045 -0.00617139 0.273209
-0.0220375 -0.00653193 0.273595
-0.0214828 -0.00688706 0.274218
-0.0209302 -0.00724177 0.274906
-0.0489637 0.0112074 0.283149
-0.0483524 0.010821 0.283186
-0.0477313 0.0104292 0.283133
-0.0471113 0.0100383 0.283088
-0.0464535 0.00962533 0.282692
-0.0457889 0.00920858 0.282221
-0.0450853 0.00876995 0.281373
-0.0443442 0.00830966 0.280142
-0.0435744 0.0078331 0.278601
-0.0427951 0.00735177 0.276922
-0.0420337 0.00688087 0.275371
-0.0413242 0.00643965 0.274292
-0.0406587 0.00602381 0.273626
-0.0400215 0.0056239 0.273226
-0.0393854 0.00522499 0.272824
-0.0387379 0.00481952 0.272286
-0.0380941 0.00441637 0.27177
-0.0374523 0.00401447 0.271255
-0.0368257 0.00362089 0.270888
-0.036217 0.00323745 0.270707
-0.0356236 0.00286289 0.270692
-0.0350373 0.00249264 0.270759
-0.0344546 0.00212383 0.270862
-0.0338728 0.00175599 0.270979
-0.0332909 0.00138804 0.271095
-0.0327123 0.00102132 0.271247
-0.0321269 0.000651236 0.27132
-0.0315381 0.000279579 0.271348
-0.030943 -9.57895e-05 0.271289
-0.0303418 -0.000474599 0.271142
-0.0297404 -0.000853021 0.270985
-0.0291404 -0.00123118 0.270834
-0.0285445 -0.00160681 0.270732
-0.0279634 -0.00197413 0.270835
-0.0273944 -0.00233551 0.271112
-0.0268234 -0.00269757 0.271369
-0.02626 -0.00305548 0.27175
-0.0257001 -0.00341184 0.272194
-0.0251297 -0.0037735 0.27249
-0.0245588 -0.00413624 0.272778
-0.023989 -0.00449769 0.2731
-0.0234214 -0.00485873 0.273463
-0.0228558 -0.00521813 0.27388
-0.0222927 -0.00557644 0.274354
-0.0217314 -0.00593435 0.274878
-0.0211809 -0.00628661 0.275627
-0.0206238 -0.00664259 0.276282
-0.0206125 -0.00748528 0.280215
-0.020077 -0.00699345 0.277171
-0.0485016 0.0117454 0.282414
-0.0479001 0.0113649 0.28253
-0.0472897 0.0109794 0.282567
-0.0466729 0.01059 0.282544
-0.0460254 0.010182 0.282233
-0.0453704 0.00977009 0.281844
-0.0446466 0.00931726 0.280794
-0.043893 0.00884757 0.279429
-0.0431165 0.00836425 0.277802
-0.0423347 0.00787821 0.276076
-0.0415693 0.00740176 0.274461
-0.0408791 0.0069694 0.273553
-0.0402235 0.00655833 0.272976
-0.039591 0.00616048 0.272614
-0.0389593 0.00576263 0.272245
-0.0383167 0.00535922 0.271749
-0.0376779 0.00495769 0.271274
-0.0370458 0.00456027 0.270854
-0.0364281 0.00417098 0.270579
-0.0358239 0.00379035 0.270448
-0.0352348 0.00341763 0.270478
-0.034652 0.0030493 0.270584
-0.0340696 0.00268073 0.270692
-0.0334875 0.00231265 0.270805
-0.0329057 0.0019443 0.270919
-0.0323266 0.0015781 0.271071
-0.0317442 0.00120971 0.271181
-0.0311589 0.000839678 0.271253
-0.0305646 0.000464085 0.271202
-0.0299665 8.66432e-05 0.271095
-0.0293681 -0.00029083 0.270978
-0.0287677 -0.000668944 0.270825
-0.0281749 -0.00104343 0.270767
-0.0275996 -0.00140782 0.270957
-0.0270307 -0.0017686 0.271245
-0.0264617 -0.00212893 0.271544
-0.0258997 -0.00248626 0.271952
-0.0253387 -0.00284265 0.272392
-0.0247674 -0.00320476 0.272681
-0.0242027 -0.00356319 0.273089
-0.0236403 -0.00392052 0.273547
-0.02308 -0.0042768 0.274059
-0.0225192 -0.00463306 0.274583
-0.0219685 -0.00498428 0.275309
-0.0214117 -0.00533892 0.275954
-0.0208533 -0.00569444 0.276597
-0.0202908 -0.00605236 0.277187
-0.0197416 -0.00640364 0.278069
-0.0197581 -0.00722988 0.282758
-0.0191908 -0.00675517 0.27897
-0.0480624 0.0122956 0.281872
-0.0474634 0.011917 0.282007
-0.0468569 0.0115334 0.282074
-0.0462392 0.0111428 0.282036
-0.045598 0.0107382 0.281777
-0.0449526 0.0103309 0.281469
-0.0442131 0.00986665 0.280258
-0.0434511 0.00938905 0.278795
-0.0426686 0.00889886 0.277089
-0.0418904 0.00841176 0.275377
-0.0411223 0.00793026 0.273711
-0.0404512 0.00750808 0.272983
-0.0398014 0.00709883 0.272451
-0.0391694 0.00669997 0.272083
-0.0385349 0.00630032 0.271679
-0.0378972 0.0058982 0.271221
-0.0372643 0.00549948 0.270801
-0.0366411 0.00510608 0.270469
-0.0360317 0.00472158 0.270283
-0.0354317 0.00434273 0.270194
-0.0348427 0.00397021 0.270225
-0.0342567 0.00359984 0.270291
-0.0336711 0.00322939 0.270358
-0.0330861 0.00285941 0.270432
-0.0325044 0.00249124 0.270545
-0.0319252 0.0021252 0.270693
-0.0313431 0.00175701 0.270804
-0.0307611 0.00138882 0.270914
-0.03017 0.00101499 0.270902
-0.0295752 0.000639245 0.270837
-0.0289798 0.000263175 0.270757
-0.0283882 -0.000110574 0.270722
-0.0278014 -0.000481936 0.270749
-0.027229 -0.000843871 0.27099
-0.0266628 -0.00120283 0.271325
-0.0260958 -0.0015622 0.271659
-0.0255325 -0.00191931 0.27206
-0.024971 -0.00227549 0.272503
-0.0244018 -0.00263612 0.272835
-0.023842 -0.0029912 0.273335
-0.0232859 -0.00334434 0.273917
-0.0227321 -0.0036958 0.274564
-0.0221753 -0.00404971 0.275179
-0.0216297 -0.00439658 0.276031
-0.0210692 -0.00475239 0.276639
-0.0205071 -0.00510919 0.277241
-0.0199433 -0.00546722 0.277834
-0.0193905 -0.00581886 0.278683
-0.0188297 -0.00617507 0.279406
-0.018831 -0.00700511 0.283995
-0.0184513 -0.0064264 0.284145
-0.0482316 0.0132292 0.281279
-0.0476396 0.012855 0.281472
-0.0470396 0.0124751 0.281592
-0.0464327 0.0120911 0.28165
-0.0458073 0.0116957 0.281539
-0.045163 0.0112886 0.281245
-0.0445058 0.0108737 0.28082
-0.0437534 0.0103989 0.279469
-0.0429878 0.00991543 0.277947
-0.0422106 0.0094251 0.276268
-0.0414445 0.00894189 0.27465
-0.0406919 0.00846743 0.273121
-0.0400365 0.00805296 0.272538
-0.0393878 0.00764318 0.272007
-0.0387563 0.00724445 0.27164
-0.0381194 0.00684196 0.271199
-0.0374865 0.00644179 0.270784
-0.036859 0.00604509 0.270413
-0.0362405 0.00565457 0.27013
-0.0356323 0.00526998 0.26995
-0.0350357 0.00489232 0.269894
-0.0344463 0.00451951 0.269917
-0.033857 0.004147 0.269942
-0.0332713 0.00377671 0.270006
-0.0326863 0.00340637 0.270075
-0.0321046 0.00303838 0.270185
-0.0315228 0.00267037 0.270295
-0.030941 0.00230238 0.270406
-0.0303593 0.00193437 0.270516
-0.0297714 0.0015625 0.270543
-0.0291801 0.00118888 0.270521
-0.0285884 0.000814813 0.270488
-0.0280006 0.000442812 0.270503
-0.0274194 7.53166e-05 0.270614
-0.0268502 -0.000284999 0.270901
-0.0262835 -0.000643549 0.271236
-0.0257214 -0.000999453 0.27165
-0.025158 -0.00135603 0.272058
-0.0245963 -0.00171149 0.272508
-0.0240296 -0.00207012 0.27289
-0.0234721 -0.0024234 0.273437
-0.0229155 -0.00277566 0.274026
-0.0223675 -0.00312288 0.274791
-0.0218139 -0.00347333 0.275486
-0.0212698 -0.00381857 0.276387
-0.0207123 -0.00417164 0.277074
-0.0201527 -0.0045257 0.277754
-0.0195915 -0.0048812 0.278428
-0.0190337 -0.00523468 0.279207
-0.0184692 -0.00559191 0.279884
-0.0180898 -0.00583549 0.284708
-0.047807 0.0137865 0.280861
-0.0472146 0.0134115 0.281045
-0.0466099 0.0130292 0.281123
-0.0459963 0.0126406 0.281116
-0.0453626 0.0122397 0.280921
-0.04471 0.0118261 0.280539
-0.0440397 0.0114013 0.279976
-0.0432718 0.0109137 0.278454
-0.0425077 0.0104287 0.276924
-0.0417423 0.00994286 0.275336
-0.0409935 0.00946704 0.273865
-0.0402539 0.00899775 0.272445
-0.0396153 0.00859335 0.272025
-0.0389676 0.00818261 0.271492
-0.0383335 0.00778102 0.271086
-0.0377005 0.00737978 0.270675
-0.0370764 0.00698462 0.270349
-0.0364571 0.00659252 0.270061
-0.0358439 0.00620406 0.269829
-0.0352389 0.00582125 0.269683
-0.0346388 0.00544113 0.269581
-0.0340454 0.00506589 0.269557
-0.0334527 0.00469079 0.269534
-0.0328672 0.00432047 0.269597
-0.0322823 0.00395045 0.269664
-0.0317008 0.00358263 0.269774
-0.0311194 0.00321484 0.269884
-0.0305352 0.0028451 0.269957
-0.0299535 0.00247738 0.270064
-0.0293664 0.00210557 0.270094
-0.0287762 0.00173238 0.27008
-0.0281889 0.00136035 0.2701
-0.0276074 0.000992545 0.270203
-0.0270323 0.000628955 0.2704
-0.0264662 0.00027104 0.270736
-0.0259044 -8.40342e-05 0.271149
-0.0253443 -0.000437994 0.271602
-0.0247831 -0.000792262 0.272055
-0.0242242 -0.00114535 0.272559
-0.0236647 -0.00149897 0.27307
-0.0231086 -0.00185013 0.27366
-0.0225514 -0.00220228 0.274253
-0.0220019 -0.00254898 0.275012
-0.0214471 -0.00289902 0.275707
-0.0208997 -0.00324491 0.276566
-0.0203416 -0.00359704 0.277264
-0.0197854 -0.0039483 0.278028
-0.0192253 -0.00430199 0.27875
-0.0186659 -0.00465489 0.279524
-0.0180999 -0.0050123 0.280191
-0.0177149 -0.00525077 0.284996
-0.0473835 0.0143431 0.280447
-0.046785 0.0139646 0.280576
-0.0461814 0.0135823 0.280657
-0.0455556 0.0131857 0.280534
-0.0449132 0.0127785 0.28025
-0.0442462 0.0123547 0.279723
-0.0435612 0.0119187 0.279004
-0.0427938 0.0114285 0.277463
-0.0420416 0.0109478 0.276023
-0.0412924 0.0104694 0.274573
-0.0405652 0.0100051 0.273299
-0.039841 0.0095428 0.272017
-0.0392026 0.00913732 0.27159
-0.0385513 0.0087232 0.27101
-0.0379176 0.00832067 0.270599
-0.0372855 0.00791921 0.27019
-0.0366662 0.00752668 0.269908
-0.0360485 0.00713459 0.269629
-0.0354397 0.00674849 0.26944
-0.0348351 0.00636522 0.269292
-0.0342346 0.00598489 0.269183
-0.0336416 0.00560912 0.269155
-0.0330493 0.00523433 0.269133
-0.0324645 0.00486406 0.269198
-0.0318801 0.00449424 0.269267
-0.0312989 0.00412665 0.269377
-0.0307178 0.00375903 0.269487
-0.0301308 0.00338741 0.269519
-0.0295493 0.00301953 0.269621
-0.0289651 0.00265026 0.26969
-0.0283759 0.00227705 0.269684
-0.0277922 0.00190775 0.269751
-0.0272167 0.00154362 0.269936
-0.026642 0.00118065 0.270141
-0.0260758 0.000822935 0.270476
-0.0255193 0.000472082 0.270974
-0.0249641 0.000122602 0.271513
-0.0244081 -0.00022782 0.272057
-0.0238561 -0.000575616 0.272684
-0.0233007 -0.000925844 0.273277
-0.0227439 -0.00127651 0.273872
-0.0221854 -0.00162795 0.274463
-0.0216323 -0.00197619 0.275174
-0.0210745 -0.00232753 0.275827
-0.0205258 -0.00267212 0.276689
-0.0199696 -0.00302205 0.277441
-0.0194132 -0.00337252 0.278219
-0.0188524 -0.00372532 0.278949
-0.0182896 -0.00407933 0.279674
-0.0177186 -0.00443905 0.280251
-0.0173182 -0.00467936 0.284801
-0.0469543 0.0148948 0.279979
-0.046357 0.0145171 0.280115
-0.0457521 0.0141344 0.280182
-0.0451143 0.0137293 0.279942
-0.044458 0.0133112 0.279516
-0.0437724 0.0128739 0.2788
-0.0430697 0.0124243 0.277893
-0.0423124 0.0119376 0.276423
-0.0415782 0.011466 0.275138
-0.0408485 0.0109975 0.273858
-0.0401419 0.0105451 0.272779
-0.0394355 0.0100922 0.271663
-0.0387896 0.00968018 0.271148
-0.0381348 0.00926244 0.270521
-0.0375012 0.00885926 0.270103
-0.0368703 0.00845785 0.269698
-0.0362528 0.00806499 0.269424
-0.03564 0.00767601 0.269195
-0.0350352 0.00729227 0.269046
-0.0344313 0.00690886 0.268898
-0.0338313 0.00652833 0.268789
-0.0332391 0.00615274 0.268765
-0.0326478 0.00577814 0.26875
-0.0320635 0.00540841 0.268819
-0.0314797 0.00503875 0.268891
-0.0308989 0.00467133 0.269001
-0.030318 0.0043039 0.269111
-0.0297308 0.00393245 0.269138
-0.0291494 0.00356439 0.269238
-0.028568 0.00319682 0.269339
-0.0279822 0.00282563 0.269375
-0.0274016 0.00245835 0.269485
-0.0268285 0.00209633 0.269707
-0.0262566 0.00173507 0.26995
-0.0256899 0.0013781 0.270285
-0.0251361 0.00102976 0.27083
-0.024586 0.000684275 0.271457
-0.0240352 0.000338532 0.272095
-0.0234875 -5.16335e-06 0.272809
-0.0229359 -0.000351459 0.273485
-0.0223803 -0.00070034 0.274118
-0.021821 -0.00105146 0.274712
-0.0212627 -0.00140238 0.275343
-0.0206988 -0.00175658 0.275903
-0.0201468 -0.00210247 0.276716
-0.0195897 -0.0024516 0.277468
-0.0190313 -0.00280225 0.278222
-0.0184717 -0.00315261 0.278998
-0.0179084 -0.0035061 0.279726
-0.0173343 -0.00386708 0.280251
-0.0169138 -0.00411343 0.284428
-0.045943 0.0150789 0.279779
-0.0453285 0.0146893 0.279755
-0.0446777 0.0142743 0.279386
-0.0440036 0.0138428 0.278783
-0.0433005 0.0133911 0.277881
-0.0425786 0.012926 0.276768
-0.0418324 0.0124441 0.275382
-0.0411156 0.0119824 0.274249
-0.0404033 0.0115231 0.273123
-0.0397124 0.0110791 0.272186
-0.0390223 0.0106353 0.271224
-0.0383691 0.0102171 0.270623
-0.037715 0.0097985 0.269992
-0.0370828 0.00939477 0.269576
-0.0364572 0.00899595 0.269219
-0.0358441 0.00860582 0.268989
-0.0352357 0.00821887 0.2688
-0.034631 0.00783477 0.268647
-0.034028 0.00745131 0.268502
-0.0334323 0.00707343 0.26844
-0.0328441 0.0067009 0.268463
-0.0322568 0.0063289 0.268495
-0.0316759 0.00596146 0.268605
-0.0310951 0.00559402 0.268714
-0.0305142 0.00522661 0.268824
-0.0299334 0.00485917 0.268934
-0.0293464 0.00448735 0.268961
-0.028765 0.00411928 0.269061
-0.0281836 0.00375173 0.269163
-0.0275952 0.00337854 0.269161
-0.0270143 0.00301131 0.269267
-0.0264387 0.00264743 0.26945
-0.0258689 0.00228791 0.269726
-0.0253047 0.00193309 0.270101
-0.0247576 0.00159104 0.270764
-0.024213 0.00125043 0.271488
-0.0236669 0.000909177 0.272218
-0.0231191 0.00056662 0.272946
-0.0225665 0.00022091 0.273623
-0.0220078 -0.000128966 0.274217
-0.0214437 -0.000483488 0.27473
-0.020882 -0.000835597 0.275316
-0.0203151 -0.00119124 0.275825
-0.0197595 -0.00153841 0.276582
-0.0191993 -0.0018889 0.277281
-0.01864 -0.00223804 0.278036
-0.0180802 -0.00258782 0.278814
-0.0175165 -0.00294064 0.279545
-0.0169436 -0.00329971 0.280106
-0.0163659 -0.00366295 0.280576
-0.0461573 0.0160395 0.27959
-0.0455443 0.0156503 0.279579
-0.0449173 0.0152514 0.279437
-0.0442532 0.014826 0.278937
-0.0435644 0.0143831 0.278186
-0.0428453 0.0139176 0.277113
-0.0421169 0.0134456 0.275919
-0.0413785 0.0129659 0.274587
-0.0406655 0.0125046 0.273473
-0.0399599 0.012048 0.272399
-0.0392782 0.011608 0.271536
-0.0385931 0.0111661 0.270613
-0.0379381 0.0107449 0.269978
-0.0372929 0.010331 0.269429
-0.0366653 0.00993017 0.269057
-0.036045 0.0095342 0.268749
-0.0354366 0.00914643 0.268562
-0.034832 0.00876161 0.26841
-0.0342277 0.00837747 0.268257
-0.0336254 0.00799379 0.268113
-0.0330304 0.00761646 0.268056
-0.0324431 0.00724426 0.268085
-0.0318564 0.00687243 0.268119
-0.0312758 0.00650517 0.268229
-0.0306952 0.0061379 0.268339
-0.0301175 0.00577281 0.268487
-0.02954 0.00540746 0.268637
-0.0289567 0.00503808 0.268711
-0.0283783 0.00467285 0.268854
-0.0277999 0.0043073 0.268998
-0.0272087 0.00393204 0.268954
-0.0266277 0.00356449 0.269057
-0.0260519 0.00320066 0.269238
-0.0254843 0.00284353 0.269552
-0.0249231 0.00249095 0.269975
-0.0243807 0.00215341 0.270722
-0.0238359 0.00181406 0.271456
-0.0232915 0.00147577 0.272229
-0.0227429 0.00113391 0.272959
-0.0221895 0.000788804 0.273634
-0.0216304 0.000438846 0.274229
-0.0210672 8.63463e-05 0.274776
-0.0205027 -0.000266636 0.275322
-0.0199309 -0.000626048 0.275741
-0.0193699 -0.000975987 0.276404
-0.0188045 -0.00132931 0.277005
-0.0182426 -0.00167982 0.277709
-0.0176823 -0.00202823 0.278489
-0.01712 -0.00237861 0.27926
-0.0165456 -0.00273813 0.279791
-0.0161243 -0.0029685 0.284121
-0.0467699 0.0164278 0.279591
-0.0469987 0.0173995 0.279527
-0.0463845 0.0170094 0.279513
-0.0457631 0.0166147 0.279433
-0.0451433 0.0162208 0.279361
-0.0445039 0.0158122 0.279099
-0.043831 0.015379 0.278508
-0.0431291 0.0149241 0.277617
-0.042402 0.0144506 0.276452
-0.0416709 0.013974 0.275213
-0.040935 0.0134933 0.273886
-0.0402236 0.0130301 0.272768
-0.0395234 0.0125753 0.271733
-0.0388466 0.0121372 0.270907
-0.0381676 0.0116973 0.270031
-0.0375179 0.0112789 0.269442
-0.0368855 0.0108733 0.269022
-0.0362672 0.0104778 0.268741
-0.035648 0.0100823 0.268443
-0.0350403 0.00969444 0.268259
-0.0344354 0.00930919 0.268101
-0.0338286 0.00892189 0.267909
-0.0332232 0.00853601 0.267726
-0.0326289 0.00815828 0.267668
-0.0320416 0.00778573 0.267692
-0.0314551 0.00741384 0.267724
-0.0308748 0.00704678 0.267834
-0.0302945 0.00667971 0.267943
-0.02972 0.00631718 0.268132
-0.0291459 0.005955 0.268328
-0.028569 0.00559067 0.268489
-0.0279941 0.00522809 0.268682
-0.0274189 0.00486481 0.26887
-0.0268299 0.00449124 0.26886
-0.0262486 0.00412325 0.26896
-0.0256699 0.00375722 0.269098
-0.0251051 0.00340288 0.269461
-0.0245464 0.00305321 0.269932
-0.0240024 0.00271525 0.270661
-0.023461 0.0023802 0.271466
-0.0229199 0.0020459 0.272313
-0.0223701 0.00170464 0.273038
-0.0218138 0.00135805 0.273673
-0.0212531 0.00100835 0.274255
-0.020687 0.000654294 0.274757
-0.020118 0.000298139 0.275225
-0.0195417 -6.36814e-05 0.275567
-0.0189761 -0.000416608 0.276142
-0.0184078 -0.000771587 0.276687
-0.0178395 -0.00112635 0.277257
-0.0172772 -0.00147547 0.277994
-0.0167134 -0.00182588 0.278733
-0.0161391 -0.00218447 0.279264
-0.046611 0.0179805 0.279433
-0.0459962 0.01759 0.279415
-0.0453703 0.0171907 0.279289
-0.0447446 0.0167922 0.279162
-0.0440949 0.0163753 0.2788
-0.0434129 0.0159337 0.278113
-0.0426985 0.0154677 0.27709
-0.0419639 0.0149859 0.275835
-0.0412262 0.0145012 0.27451
-0.0404912 0.0140184 0.273174
-0.0397774 0.0135511 0.272013
-0.0390826 0.0130976 0.271013
-0.0384077 0.0126588 0.270191
-0.0377388 0.0122248 0.269407
-0.0370958 0.01181 0.268878
-0.0364727 0.0114105 0.268551
-0.0358595 0.0110181 0.268319
-0.0352447 0.0106247 0.26806
-0.0346408 0.0102395 0.267916
-0.0340398 0.00985655 0.267798
-0.0334334 0.00946937 0.267608
-0.0328282 0.00908274 0.26742
-0.0322332 0.00870379 0.267349
-0.0316422 0.00832874 0.267326
-0.0310527 0.00795437 0.267315
-0.0304757 0.00758973 0.267463
-0.0298986 0.00722537 0.267613
-0.0293277 0.00686559 0.267847
-0.0287572 0.00650609 0.268091
-0.0281865 0.00614708 0.26834
-0.0276122 0.00578506 0.268542
-0.0270371 0.00542233 0.268735
-0.0264507 0.00505034 0.268762
-0.0258694 0.00468229 0.268862
-0.025288 0.00431476 0.268964
-0.0247281 0.00396447 0.269407
-0.0241718 0.00361773 0.269926
-0.0236273 0.00328101 0.270663
-0.0230874 0.00294834 0.271506
-0.0225472 0.00261599 0.272381
-0.0219917 0.00227108 0.27302
-0.0214324 0.00192368 0.273616
-0.020869 0.00157241 0.274156
-0.0202981 0.00121506 0.274573
-0.0197243 0.000855692 0.274953
-0.0191463 0.000492373 0.275257
-0.0185748 0.000134634 0.275709
-0.0180024 -0.000222749 0.276167
-0.01743 -0.000580311 0.276645
-0.0168641 -0.000931951 0.277294
-0.0162969 -0.00128403 0.277951
-0.0158836 -0.00149108 0.282475
-0.0468901 0.0189921 0.27982
-0.0462478 0.0185805 0.279562
-0.0456166 0.0181768 0.279395
-0.0449827 0.0177712 0.279195
-0.0443497 0.0173668 0.278999
-0.0436919 0.0169423 0.278554
-0.0430062 0.0164966 0.277825
-0.0422799 0.0160188 0.276673
-0.0415374 0.015528 0.275325
-0.0407851 0.0150294 0.273836
-0.0400443 0.0145386 0.272419
-0.0393247 0.0140642 0.271179
-0.0386357 0.0136127 0.270219
-0.0379638 0.0131746 0.269412
-0.0373085 0.0127494 0.26876
-0.0366754 0.0123408 0.268324
-0.036061 0.0119472 0.268084
-0.035452 0.0115575 0.267894
-0.0348413 0.0111664 0.267674
-0.034241 0.0107839 0.267568
-0.0336443 0.0104034 0.267493
-0.0330418 0.0100191 0.267347
-0.0324371 0.00963216 0.267161
-0.0318416 0.0092528 0.267082
-0.0312505 0.00887665 0.26705
-0.030661 0.00850202 0.267036
-0.0300845 0.00813808 0.267191
-0.0295108 0.00777675 0.267387
-0.028943 0.00741976 0.267664
-0.0283728 0.00706062 0.267912
-0.0278021 0.00670197 0.268164
-0.0272279 0.00633996 0.268366
-0.0266527 0.00597723 0.268559
-0.0260666 0.00560543 0.26859
-0.0254853 0.00523776 0.268692
-0.0249043 0.00487031 0.268799
-0.0243462 0.00452222 0.269276
-0.0237916 0.00417813 0.269833
-0.0232488 0.00384392 0.270608
-0.0227083 0.00351259 0.271457
-0.0221671 0.00318135 0.272332
-0.0216073 0.00283336 0.272898
-0.0210429 0.00248203 0.273407
-0.0204744 0.00212735 0.273856
-0.0199007 0.00176815 0.274223
-0.0193249 0.00140712 0.274557
-0.0187468 0.00104394 0.274856
-0.0181712 0.000683443 0.275222
-0.0175967 0.000324502 0.275631
-0.0170222 -3.45953e-05 0.276055
-0.0164525 -0.000388282 0.276618
-0.0158817 -0.000742833 0.277181
-0.0465181 0.0195867 0.279871
-0.0458776 0.0191757 0.279629
-0.0452294 0.0187588 0.279308
-0.0445888 0.0183471 0.279044
-0.043951 0.0179381 0.278799
-0.0432891 0.0175094 0.27831
-0.0425999 0.0170591 0.277539
-0.0418667 0.0165732 0.276305
-0.0411126 0.0160707 0.274827
-0.040345 0.0155561 0.273163
-0.0395938 0.0150539 0.271618
-0.0388654 0.0145692 0.270262
-0.0381833 0.014121 0.269356
-0.0375213 0.0136892 0.268639
-0.0368801 0.0132729 0.26812
-0.0362588 0.0128735 0.267808
-0.0356527 0.0124854 0.267652
-0.0350473 0.0120986 0.267497
-0.0344405 0.0117094 0.267313
-0.0338442 0.0113295 0.267249
-0.0332521 0.0109529 0.267227
-0.032651 0.010569 0.267094
-0.0320468 0.0101821 0.266911
-0.0314485 0.00979975 0.266791
-0.0308576 0.00942334 0.266758
-0.0302687 0.0090493 0.26675
-0.0296959 0.00868817 0.266951
-0.0291257 0.00832992 0.267193
-0.0285609 0.00797572 0.267514
-0.0279899 0.00761695 0.267757
-0.0274186 0.00725731 0.267998
-0.0268437 0.00689508 0.268194
-0.0262681 0.0065325 0.268382
-0.0256849 0.00616269 0.268454
-0.0251037 0.00579531 0.268561
-0.0245252 0.00542999 0.268708
-0.023964 0.0050803 0.269144
-0.0234088 0.00473575 0.269693
-0.0228628 0.00440087 0.270428
-0.0223197 0.0040688 0.271243
-0.0217764 0.00373663 0.272088
-0.0212156 0.0033895 0.272648
-0.0206485 0.00303636 0.273108
-0.0200774 0.00267977 0.273508
-0.0195033 0.00232053 0.273865
-0.0189254 0.00195802 0.274156
-0.018347 0.00159507 0.274447
-0.0177695 0.00123277 0.274766
-0.0171949 0.00087386 0.275166
-0.0166184 0.000513685 0.275544
-0.0160454 0.000156839 0.276019
-0.0154709 -0.000200719 0.276486
-0.0467722 0.0205831 0.280033
-0.0461275 0.0201678 0.279759
-0.0454839 0.0197535 0.279486
-0.044824 0.0193263 0.279052
-0.0441745 0.018907 0.278701
-0.0435328 0.0184937 0.278412
-0.0428678 0.0180611 0.277885
-0.0421799 0.01761 0.277115
-0.041447 0.0171219 0.275872
-0.0406944 0.0166165 0.274387
-0.0399193 0.0160927 0.27263
-0.0391654 0.0155844 0.271034
-0.0384369 0.0150967 0.269659
-0.0377568 0.0146482 0.268759
-0.0370979 0.0142167 0.268059
-0.0364659 0.0138073 0.267634
-0.0358532 0.0134134 0.267406
-0.0352476 0.0130256 0.267251
-0.0346426 0.0126383 0.267095
-0.0340401 0.0122522 0.266956
-0.0334481 0.0118756 0.266937
-0.0328603 0.0115022 0.266965
-0.0322635 0.011121 0.266878
-0.0316628 0.0107369 0.266737
-0.0310651 0.0103544 0.266621
-0.0304769 0.00998063 0.266626
-0.0298918 0.00960908 0.266665
-0.0293223 0.00925169 0.266916
-0.0287554 0.00889572 0.267204
-0.0281894 0.00854203 0.26752
-0.0276149 0.00817999 0.267715
-0.0270398 0.00781772 0.267907
-0.0264618 0.00745277 0.268058
-0.0258837 0.0070874 0.268206
-0.0253028 0.00671997 0.268316
-0.0247219 0.00635253 0.268426
-0.0241458 0.00598964 0.268615
-0.0235819 0.00563816 0.269011
-0.0230255 0.00529426 0.269554
-0.0224789 0.00495953 0.270284
-0.0219375 0.0046302 0.271139
-0.0213913 0.00429765 0.271949
-0.0208298 0.0039505 0.272502
-0.0202597 0.00359497 0.272908
-0.0196839 0.00323442 0.27322
-0.0191042 0.00286982 0.27346
-0.0185245 0.002506 0.273713
-0.0179464 0.00214328 0.274004
-0.0173672 0.00178008 0.274285
-0.0167926 0.00142177 0.274682
-0.0162162 0.00106215 0.275057
-0.0156414 0.000704021 0.275486
-0.0150655 0.00034518 0.275908
-0.0463582 0.0211457 0.27971
-0.0457133 0.0207301 0.279431
-0.0450697 0.0203152 0.279154
-0.0444081 0.0198849 0.278696
-0.0437643 0.0194695 0.278394
-0.0431234 0.0190558 0.278107
-0.0424589 0.0186228 0.277579
-0.0417754 0.0181732 0.276844
-0.0410367 0.0176772 0.275527
-0.0402785 0.0171639 0.27397
-0.0395007 0.0166332 0.272161
-0.0387467 0.0161218 0.270546
-0.0380155 0.0156288 0.269125
-0.0373403 0.0151821 0.268263
-0.0366872 0.0147538 0.267614
-0.0360637 0.0143503 0.267273
-0.0354522 0.0139567 0.267053
-0.0348472 0.0135685 0.266898
-0.0342432 0.0131814 0.266747
-0.0336442 0.0127982 0.266647
-0.0330532 0.0124221 0.266638
-0.0324664 0.0120491 0.266672
-0.0318727 0.0116705 0.266622
-0.0312754 0.0112882 0.266517
-0.0306776 0.0109053 0.266398
-0.030093 0.0105349 0.26645
-0.0295142 0.0101688 0.266573
-0.0289479 0.00981447 0.26687
-0.0283832 0.00946156 0.267198
-0.0278169 0.00910735 0.267511
-0.027239 0.00874247 0.267662
-0.0266607 0.00837753 0.26781
-0.0260799 0.00801011 0.26792
-0.025499 0.00764267 0.26803
-0.0249181 0.00727524 0.26814
-0.0243373 0.0069078 0.26825
-0.0237636 0.00654745 0.26848
-0.0231997 0.00619626 0.26888
-0.0226455 0.00585514 0.269465
-0.0220998 0.00552331 0.270228
-0.0215552 0.00519263 0.271041
-0.021004 0.00485614 0.271766
-0.0204396 0.00450689 0.27227
-0.0198649 0.0041478 0.272593
-0.019287 0.00378506 0.272859
