ply
format ascii 1.0
element vertex 1713
property float x
property float y
property float z
end_header
-0.441435 0.0443887 1.25581
-0.441549 0.0428952 1.25616
-0.441825 0.0414101 1.25677
-0.442208 0.0399286 1.25755
-0.442427 0.0384368 1.25808
-0.442792 0.0369503 1.25883
-0.443182 0.0354625 1.25962
-0.443384 0.0339648 1.26012
-0.443482 0.0324618 1.26045
-0.443622 0.0309596 1.26085
-0.443907 0.029461 1.26147
-0.444177 0.0279602 1.26208
-0.444541 0.0264601 1.26283
-0.445139 0.0249628 1.26396
-0.445692 0.023461 1.26501
-0.446309 0.0219567 1.26617
-0.446925 0.0204485 1.26732
-0.447492 0.0189361 1.2684
-0.448042 0.0174199 1.26945
-0.448746 0.015901 1.27074
-0.449531 0.0143776 1.27217
-0.450293 0.0128494 1.27356
-0.451126 0.0113162 1.27506
-0.451692 0.00978006 1.27614
-0.452039 0.00824287 1.27687
-0.45223 0.00670585 1.27735
-0.452521 0.00516584 1.27799
-0.452827 0.00362376 1.27866
-0.450456 0.0772747 1.26916
-0.449733 0.0756535 1.2682
-0.448722 0.0740022 1.26678
-0.44741 0.0723213 1.26488
-0.446255 0.0706665 1.26323
-0.445404 0.0690528 1.26206
-0.44474 0.0674646 1.26119
-0.444293 0.0659034 1.26066
-0.44394 0.0643545 1.26027
-0.443617 0.0628106 1.25994
-0.443284 0.0612678 1.25959
-0.443011 0.0597324 1.25933
-0.44275 0.0582 1.25909
-0.442539 0.0566733 1.25893
-0.442226 0.0551394 1.25861
-0.441947 0.0536101 1.25835
-0.441767 0.05209 1.25823
-0.441525 0.0505668 1.25803
-0.441335 0.0490483 1.2579
-0.441259 0.0475388 1.25795
-0.441372 0.0460423 1.25831
-0.441337 0.0445357 1.25843
-0.441504 0.0430412 1.25887
-0.441749 0.0415501 1.25943
-0.442073 0.0400615 1.26013
-0.442227 0.0385624 1.26054
-0.442479 0.0370669 1.26112
-0.44268 0.0355675 1.26162
-0.442821 0.0340646 1.26202
-0.442862 0.0325568 1.26226
-0.442903 0.0310487 1.2625
-0.443138 0.0295466 1.26305
-0.443444 0.0280448 1.26371
-0.443811 0.0265427 1.26447
-0.444362 0.0250423 1.26552
-0.444959 0.0235394 1.26665
-0.44553 0.0220323 1.26774
-0.446148 0.0205223 1.2689
-0.446768 0.0190085 1.27007
-0.447376 0.0174906 1.27121
-0.448041 0.0159692 1.27245
-0.448814 0.0144436 1.27386
-0.449512 0.0129135 1.27515
-0.450193 0.0113791 1.27642
-0.450652 0.00984237 1.27733
-0.45094 0.00830472 1.27797
-0.451033 0.00676812 1.27829
-0.451272 0.00522825 1.27885
-0.451533 0.00368644 1.27945
-0.457187 0.00198195 1.28578
-0.451807 0.00214269 1.28007
-0.44961 0.0789504 1.27047
-0.448895 0.0773259 1.26952
-0.44818 0.075706 1.26856
-0.447131 0.0740496 1.26708
-0.445867 0.0723744 1.26525
-0.444716 0.0707199 1.2636
-0.443913 0.0691116 1.2625
-0.443251 0.0675234 1.26163
-0.442897 0.0659719 1.26124
-0.4426 0.0644285 1.26095
-0.442384 0.0628949 1.26078
-0.442203 0.0613662 1.26067
-0.442084 0.0598441 1.26065
-0.441937 0.0583203 1.2606
-0.441881 0.0568052 1.26068
-0.441722 0.0552818 1.2606
-0.441557 0.0537587 1.26052
-0.441491 0.0522445 1.26059
-0.441349 0.0507248 1.26054
-0.441202 0.0492057 1.26048
-0.441125 0.0476922 1.26053
-0.441182 0.0461879 1.2608
-0.441187 0.04468 1.26098
-0.441356 0.0431819 1.26143
-0.44156 0.0416845 1.26193
-0.441743 0.0401846 1.2624
-0.441782 0.0386765 1.26264
-0.441826 0.0371682 1.26288
-0.441826 0.0356576 1.26306
-0.441817 0.0341467 1.26322
-0.4418 0.0326354 1.26337
-0.441827 0.0311259 1.26359
-0.442016 0.0296211 1.26406
-0.442364 0.0281197 1.2648
-0.442778 0.0266178 1.26563
-0.443372 0.0251173 1.26676
-0.443976 0.0236132 1.2679
-0.444543 0.0221048 1.26899
-0.445167 0.0205936 1.27016
-0.445782 0.0190783 1.27132
-0.446354 0.0175591 1.27241
-0.446966 0.0160362 1.27357
-0.447734 0.0145097 1.27498
-0.448367 0.0129787 1.27617
-0.448947 0.011444 1.27728
-0.449351 0.00990711 1.2781
-0.449587 0.00836963 1.27866
-0.44963 0.00683353 1.27891
-0.449828 0.00529422 1.2794
-0.450094 0.00375225 1.28001
-0.450364 0.0022085 1.28062
-0.448404 0.0805822 1.27122
-0.447886 0.0789802 1.27058
-0.44715 0.0773537 1.26958
-0.446367 0.0757256 1.26851
-0.445329 0.0740714 1.26704
-0.444224 0.0724154 1.26546
-0.44317 0.0707722 1.26396
-0.442372 0.0691645 1.26286
-0.441741 0.0675798 1.26203
-0.441381 0.0660278 1.26164
-0.441132 0.0644895 1.26141
-0.440976 0.062962 1.26134
-0.44091 0.0614441 1.26141
-0.440857 0.0599279 1.2615
-0.440821 0.0584134 1.26162
-0.44083 0.0569032 1.26181
-0.440823 0.0553913 1.26198
-0.440806 0.0538787 1.26213
-0.440937 0.0523778 1.26251
-0.440952 0.0508672 1.26271
-0.440904 0.0493519 1.26281
-0.440869 0.0478379 1.26293
-0.440927 0.0463301 1.2632
-0.440929 0.0448184 1.26338
-0.441006 0.0433111 1.26368
-0.441156 0.0418074 1.2641
-0.441144 0.040294 1.26425
-0.441024 0.0387753 1.26424
-0.440864 0.0372552 1.26415
-0.440752 0.0357383 1.26415
-0.440642 0.0342221 1.26415
-0.440614 0.0327097 1.26428
-0.440597 0.0311978 1.26443
-0.440782 0.0296922 1.2649
-0.441087 0.0281891 1.26557
-0.441504 0.0266868 1.26642
-0.442059 0.0251851 1.26748
-0.442711 0.0236817 1.26871
-0.44323 0.0221721 1.26971
-0.443846 0.0206605 1.27088
-0.444452 0.0191449 1.27203
-0.445019 0.0176254 1.27312
-0.44558 0.0161021 1.2742
-0.446295 0.0145754 1.27552
-0.44687 0.0130446 1.27663
-0.447398 0.0115103 1.27765
-0.447753 0.00997422 1.2784
-0.447991 0.00843722 1.27896
-0.44808 0.0069009 1.27929
-0.448324 0.00536119 1.27986
-0.448542 0.00382037 1.28039
-0.448859 0.0022759 1.28108
-0.446837 0.0821658 1.27139
-0.446433 0.0805779 1.27093
-0.445944 0.0789812 1.27033
-0.445256 0.0773621 1.26941
-0.444473 0.075735 1.26833
-0.44347 0.0740857 1.26691
-0.442523 0.0724495 1.26557
-0.441528 0.0708135 1.26416
-0.440742 0.0692071 1.26308
-0.440111 0.067623 1.26225
-0.439744 0.0660708 1.26183
-0.439449 0.0645281 1.26154
-0.439295 0.0630016 1.26147
-0.439283 0.0614896 1.26162
-0.439331 0.0599836 1.26188
-0.4394 0.058479 1.26216
-0.439505 0.0569771 1.26251
-0.43964 0.0554771 1.2629
-0.439771 0.0539758 1.26329
-0.439966 0.0524788 1.26378
-0.440083 0.0509746 1.26414
-0.440142 0.0494654 1.26441
-0.440209 0.0479563 1.26469
-0.440278 0.0464469 1.26498
-0.440328 0.0449358 1.26524
-0.440394 0.0434252 1.26552
-0.440535 0.0419185 1.26592
-0.440412 0.0403967 1.2659
-0.440184 0.0388701 1.26571
-0.439905 0.0373426 1.26544
-0.439644 0.0358176 1.2652
-0.43939 0.0342944 1.26497
-0.439275 0.032778 1.26496
-0.439214 0.0312642 1.26504
-0.439356 0.0297572 1.26544
-0.439667 0.0282543 1.26612
-0.440128 0.0267534 1.26704
-0.440691 0.0252518 1.26812
-0.441385 0.0237492 1.26941
-0.441906 0.0222393 1.27043
-0.442508 0.0207273 1.27157
-0.443012 0.0192104 1.27256
-0.443562 0.0176907 1.27363
-0.444026 0.0161672 1.27455
-0.444684 0.0146409 1.27579
-0.445214 0.0131108 1.27683
-0.445736 0.0115773 1.27785
-0.446046 0.0100423 1.27852
-0.446283 0.00850612 1.27909
-0.446373 0.00697059 1.27941
-0.446615 0.00543162 1.27998
-0.446827 0.00389183 1.2805
-0.447145 0.00234815 1.28119
-0.45324 0.00061963 1.28831
-0.4475 0.000801422 1.28195
-0.447048 0.0837291 1.27155
-0.445275 0.0837494 1.27158
-0.444973 0.0821745 1.27127
-0.444492 0.0805772 1.27068
-0.443964 0.0789766 1.27001
-0.443267 0.0773573 1.26907
-0.442482 0.0757314 1.26799
-0.441654 0.074105 1.26684
-0.440914 0.0724942 1.26583
-0.440087 0.070878 1.26468
-0.439314 0.0692728 1.26362
-0.438647 0.0676843 1.26272
-0.438176 0.0661207 1.26214
-0.437775 0.0645674 1.26167
-0.437525 0.0630319 1.26145
-0.437513 0.0615211 1.2616
-0.437604 0.0600201 1.26192
-0.437753 0.0585239 1.26234
-0.437905 0.0570269 1.26276
-0.438092 0.055532 1.26324
-0.438321 0.0540392 1.26378
-0.438622 0.0525508 1.26445
-0.438844 0.0510542 1.26498
-0.439053 0.0495553 1.26549
-0.439279 0.0480564 1.26603
-0.439407 0.0465493 1.26641
-0.439512 0.04504 1.26676
-0.439569 0.0435271 1.26703
-0.439653 0.0420152 1.26734
-0.439431 0.0404862 1.26716
-0.439148 0.0389555 1.26688
-0.438769 0.0374217 1.26645
-0.438406 0.0358912 1.26604
-0.43801 0.0343613 1.26557
-0.437844 0.0328428 1.26548
-0.437735 0.0313273 1.26548
-0.437832 0.0298192 1.26582
-0.438135 0.0283164 1.26648
-0.438642 0.026817 1.26748
-0.4392 0.0253155 1.26856
-0.439855 0.0238125 1.26979
-0.440412 0.0223037 1.27087
-0.440966 0.0207913 1.27194
-0.441416 0.0192743 1.27285
-0.441861 0.0177545 1.27374
-0.442316 0.0162318 1.27466
-0.442875 0.0147062 1.27574
-0.443354 0.0131773 1.27669
-0.443865 0.0116453 1.2777
-0.444218 0.0101113 1.27845
-0.444465 0.00857624 1.27903
-0.444555 0.00704171 1.27935
-0.444843 0.00550325 1.28
-0.445052 0.00396449 1.28051
-0.445365 0.00242204 1.2812
-0.44577 0.000874948 1.28204
-0.443654 0.0853234 1.27166
-0.443489 0.0837674 1.27157
-0.443171 0.082191 1.27124
-0.442571 0.0805785 1.27045
-0.441963 0.0789685 1.26965
-0.44128 0.0773525 1.26873
-0.440564 0.0757368 1.26776
-0.43986 0.0741266 1.2668
-0.439325 0.0725411 1.26612
-0.438702 0.0709489 1.26529
-0.437996 0.069351 1.26433
-0.43733 0.0677618 1.26344
-0.436799 0.0661914 1.26276
-0.436285 0.0646258 1.2621
-0.435884 0.0630751 1.26163
-0.435815 0.0615592 1.2617
-0.435855 0.0600543 1.26194
-0.435957 0.058555 1.26228
-0.436151 0.0570629 1.26277
-0.436389 0.0555734 1.26333
-0.43668 0.0540867 1.26397
-0.437075 0.0526064 1.26479
-0.43744 0.0511214 1.26555
-0.437701 0.0496264 1.26615
-0.437989 0.0481315 1.26679
-0.438134 0.0466251 1.2672
-0.438241 0.0451155 1.26755
-0.438249 0.0435991 1.26775
-0.438287 0.0420843 1.26798
-0.438029 0.0405531 1.26774
-0.437707 0.0390201 1.2674
-0.437282 0.0374841 1.26689
-0.436909 0.0359532 1.26646
-0.436501 0.0344229 1.26597
-0.436325 0.0329042 1.26587
-0.436254 0.0313903 1.26593
-0.43639 0.0298837 1.26632
-0.436688 0.0283809 1.26698
-0.437146 0.0268802 1.2679
-0.437696 0.025379 1.26897
-0.438302 0.0238753 1.27013
-0.438858 0.0223671 1.27121
-0.439369 0.0208545 1.27222
-0.439815 0.019338 1.27312
-0.440163 0.017818 1.27386
-0.440557 0.0162958 1.27468
-0.441013 0.0147714 1.27559
-0.441431 0.013244 1.27645
-0.441897 0.0117137 1.27739
-0.442248 0.0101812 1.27814
-0.442538 0.00864744 1.27879
-0.442685 0.00711369 1.2792
-0.443021 0.0055757 1.27993
-0.443279 0.00403717 1.28053
-0.443641 0.00249445 1.28129
-0.444092 0.000947086 1.28221
-0.44169 0.0868447 1.27119
-0.441577 0.0852976 1.27118
-0.441366 0.083737 1.27102
-0.441022 0.082159 1.27064
-0.440404 0.0805458 1.26982
-0.439815 0.0789401 1.26905
-0.439239 0.0773401 1.2683
-0.438633 0.0757397 1.2675
-0.438081 0.0741497 1.26678
-0.437701 0.0725838 1.26635
-0.437241 0.0710111 1.26578
-0.436552 0.0694148 1.26484
-0.435883 0.0678249 1.26394
-0.435277 0.0662461 1.26313
-0.434649 0.0646688 1.26229
-0.434194 0.063113 1.26173
-0.434081 0.0615937 1.26173
-0.434073 0.0600852 1.26189
-0.434121 0.0585819 1.26214
-0.43427 0.0570872 1.26256
-0.43447 0.0555959 1.26306
-0.434812 0.0541151 1.26379
-0.435211 0.0526367 1.26461
-0.435621 0.0511566 1.26546
-0.435975 0.0496697 1.26621
-0.436317 0.0481797 1.26694
-0.436463 0.0466743 1.26735
-0.436561 0.0451648 1.26769
-0.436562 0.0436488 1.26786
-0.436554 0.0421321 1.26803
-0.436353 0.0406049 1.26788
-0.43609 0.0390756 1.26763
-0.435765 0.037545 1.26728
-0.435393 0.0360142 1.26685
-0.434975 0.0344838 1.26635
-0.434795 0.0329652 1.26623
-0.434676 0.0314499 1.26621
-0.434818 0.0299439 1.26662
-0.435116 0.0284416 1.26728
-0.435562 0.0269413 1.26818
-0.436065 0.0254395 1.26918
-0.436656 0.0239362 1.27032
-0.43717 0.022428 1.27133
-0.437676 0.0209162 1.27233
-0.438127 0.0194007 1.27325
-0.438471 0.0178815 1.27398
-0.43881 0.0163599 1.27471
-0.439202 0.0148363 1.27553
-0.439565 0.0133102 1.2763
-0.439973 0.0117816 1.27714
-0.440278 0.0102512 1.27782
-0.44062 0.00871841 1.27855
-0.44082 0.00718543 1.27906
-0.441167 0.00564864 1.2798
-0.441479 0.00411029 1.28049
-0.441886 0.00256769 1.28134
-0.442295 0.00102238 1.28218
-0.44866 -0.00072661 1.28982
-0.4428 -0.000528483 1.28319
-0.439794 0.0883729 1.27082
-0.439664 0.086824 1.27079
-0.43954 0.0852769 1.27076
-0.439289 0.0837124 1.27054
-0.438884 0.0821276 1.27006
-0.438312 0.0805226 1.26931
-0.437833 0.0789336 1.26871
-0.437358 0.077348 1.26812
-0.436854 0.0757615 1.26748
-0.43639 0.0741833 1.2669
-0.436066 0.072625 1.26656
-0.435619 0.0710542 1.26601
-0.434983 0.0694642 1.26515
-0.434311 0.0678742 1.26424
-0.433697 0.0662946 1.26342
-0.43302 0.0647123 1.2625
-0.432564 0.0631569 1.26193
-0.43241 0.0616342 1.26186
-0.432358 0.0601222 1.26195
-0.432399 0.0586191 1.26219
-0.432539 0.0571246 1.26259
-0.432688 0.0556299 1.26301
-0.432989 0.0541469 1.26368
-0.433382 0.0526694 1.26449
-0.433743 0.051187 1.26526
-0.434095 0.0497016 1.26601
-0.43443 0.0482125 1.26673
-0.434571 0.0467082 1.26713
-0.434657 0.0451995 1.26745
-0.434692 0.0436871 1.26768
-0.43468 0.0421716 1.26784
-0.434579 0.0406512 1.26785
-0.434375 0.0391261 1.2677
-0.434109 0.0375991 1.26744
-0.433742 0.0360691 1.26702
-0.433333 0.0345395 1.26653
-0.433159 0.033022 1.26642
-0.433145 0.0315111 1.26657
-0.433342 0.0300073 1.26707
-0.433693 0.0285068 1.26782
-0.43414 0.0270066 1.26873
-0.434582 0.0255034 1.26963
-0.435071 0.0239984 1.2706
-0.43553 0.0224897 1.27153
-0.435988 0.020978 1.27245
-0.436441 0.0194634 1.27337
-0.436783 0.0179449 1.27411
-0.437074 0.0164239 1.27476
-0.437411 0.0149013 1.27549
-0.437712 0.0133765 1.27616
-0.438069 0.0118494 1.27692
-0.438371 0.0103205 1.2776
-0.438759 0.0087888 1.27841
-0.439014 0.00725634 1.27901
-0.439417 0.00571959 1.27985
-0.439826 0.00418025 1.28069
-0.440238 0.0026382 1.28155
-0.440645 0.00109366 1.2824
-0.44119 -0.000457673 1.28347
-0.447639 -0.0022262 1.29127
-0.441898 -0.00201781 1.28481
-0.437882 0.089895 1.27042
-0.437851 0.0883623 1.27055
-0.437609 0.0867982 1.27033
-0.437415 0.0852427 1.2702
-0.437136 0.0836761 1.26992
-0.436769 0.0820986 1.2695
-0.436306 0.0805106 1.26893
-0.435937 0.0789377 1.2685
-0.435522 0.0773612 1.26801
-0.435103 0.0757868 1.2675
-0.434685 0.074215 1.267
-0.434413 0.0726637 1.26673
-0.434055 0.0711039 1.26633
-0.433519 0.0695255 1.26563
-0.432889 0.0679401 1.26478
-0.432246 0.0663571 1.26391
-0.431578 0.0647756 1.263
-0.431089 0.0632165 1.26238
-0.430895 0.0616899 1.26224
-0.430751 0.0601692 1.26218
-0.430734 0.0586614 1.26233
-0.430813 0.0571623 1.26263
-0.430909 0.0556641 1.26297
-0.431156 0.0541776 1.26354
-0.431542 0.0527012 1.26435
-0.431935 0.0512226 1.26517
-0.432284 0.049738 1.26591
-0.432574 0.0482474 1.26656
-0.432716 0.0467446 1.26697
-0.432789 0.0452363 1.26727
-0.432731 0.0437194 1.26735
-0.432625 0.0422001 1.26735
-0.432568 0.0406841 1.26744
-0.432417 0.0391635 1.26736
-0.432169 0.037639 1.26714
-0.431904 0.0361153 1.26688
-0.431636 0.034593 1.26662
-0.431516 0.0330782 1.2666
-0.431611 0.031572 1.26693
-0.431919 0.0300723 1.26761
-0.432324 0.0285735 1.26845
-0.432724 0.0270719 1.26928
-0.433109 0.0255675 1.27009
-0.43345 0.0240596 1.27083
-0.433846 0.0225504 1.27165
-0.43425 0.0210389 1.27249
-0.434698 0.0195253 1.2734
-0.435005 0.0180075 1.27408
-0.435336 0.0164881 1.27481
-0.435627 0.0149662 1.27546
-0.435877 0.0134426 1.27605
-0.43618 0.011917 1.27673
-0.436475 0.0103897 1.27739
-0.436865 0.00885929 1.27821
-0.437173 0.00732761 1.27889
-0.43758 0.00579212 1.27974
-0.438034 0.00425321 1.28066
-0.438532 0.0027102 1.28166
-0.438943 0.00116631 1.28252
-0.43949 -0.000384144 1.2836
-0.440138 -0.00194157 1.28484
-0.442728 -0.00358733 1.28635
-0.440811 -0.00350441 1.28613
-0.436017 0.0914209 1.27009
-0.435902 0.0898766 1.27009
-0.435808 0.0883358 1.27011
-0.435486 0.0867614 1.26976
-0.435223 0.0851977 1.26951
-0.434906 0.0836278 1.26917
-0.434642 0.0820674 1.26892
-0.434341 0.0805035 1.26861
-0.434036 0.0789409 1.26829
-0.433672 0.0773722 1.26787
-0.433303 0.0758054 1.26744
-0.43289 0.0742352 1.26694
-0.432618 0.0726849 1.26668
-0.432314 0.0711323 1.26636
-0.431869 0.0695654 1.26581
-0.431306 0.0679879 1.26506
-0.430728 0.0664122 1.26429
-0.430114 0.0648363 1.26347
-0.429672 0.0632821 1.26292
-0.429474 0.0617549 1.26277
-0.429279 0.0602292 1.26263
-0.429164 0.0587125 1.26262
-0.429136 0.0572041 1.26275
-0.429136 0.0556982 1.26292
-0.429282 0.0542048 1.26334
-0.429619 0.0527256 1.26406
-0.429957 0.0512446 1.2648
-0.430259 0.0497585 1.26547
-0.430502 0.0482662 1.26604
-0.430598 0.0467624 1.26637
-0.430635 0.0452541 1.26661
-0.430574 0.0437392 1.26669
-0.430465 0.0422221 1.26669
-0.430449 0.0407107 1.26684
-0.430348 0.0391948 1.26685
-0.430197 0.037677 1.26677
-0.43003 0.0361595 1.26667
-0.429949 0.0346467 1.26672
-0.42998 0.0331387 1.26695
-0.430228 0.0316386 1.26753
-0.43064 0.0301422 1.26838
-0.431098 0.0286447 1.26931
-0.431443 0.0271411 1.27006
-0.431814 0.0256358 1.27084
-0.432099 0.0241265 1.27149
-0.432395 0.0226153 1.27215
-0.432747 0.0211031 1.27291
-0.433136 0.0195892 1.27373
-0.433346 0.0180712 1.27425
-0.433595 0.0165518 1.27484
-0.433883 0.015031 1.27549
-0.43413 0.0135085 1.27608
-0.43438 0.0119842 1.27667
-0.434627 0.0104584 1.27725
-0.435058 0.0089289 1.27814
-0.435367 0.00739831 1.27883
-0.435732 0.00586477 1.27961
-0.436226 0.00432631 1.28061
-0.436813 0.00278236 1.28175
-0.437232 0.00123926 1.28262
-0.437787 -0.000310658 1.28372
-0.438433 -0.00186715 1.28497
-0.438998 -0.00342478 1.28608
-0.441542 -0.00507312 1.28751
-0.439613 -0.00498813 1.28727
-0.434251 0.0914347 1.2701
-0.43403 0.0898744 1.26992
-0.433832 0.088319 1.26977
-0.433386 0.0867273 1.26922
-0.433063 0.0851565 1.26887
-0.432749 0.0835893 1.26853
-0.43254 0.0820388 1.26837
-0.432384 0.080497 1.26829
-0.432138 0.0789437 1.26806
-0.431787 0.0773782 1.26767
-0.43142 0.0758128 1.26724
-0.431005 0.0742436 1.26674
-0.430698 0.0726902 1.26641
-0.430405 0.0711405 1.26611
-0.430019 0.0695816 1.26565
-0.429563 0.0680174 1.26508
-0.429082 0.066453 1.26447
-0.428569 0.0648885 1.2638
-0.428209 0.0633429 1.26339
-0.428052 0.0618198 1.2633
-0.427808 0.0602894 1.26308
-0.427641 0.0587677 1.26298
-0.427513 0.0572505 1.26295
-0.427408 0.0557362 1.26295
-0.427419 0.0542322 1.26314
-0.427703 0.0527504 1.26379
-0.427995 0.0512673 1.26444
-0.428289 0.0497826 1.2651
-0.428536 0.0482926 1.26569
-0.428676 0.0467934 1.26609
-0.428715 0.0452867 1.26633
-0.428655 0.0437736 1.26641
-0.428547 0.0422579 1.26641
-0.428569 0.0407501 1.26662
-0.42856 0.0392406 1.26678
-0.428514 0.0377291 1.26688
-0.428453 0.0362174 1.26696
-0.428516 0.0347112 1.26724
-0.428651 0.0332075 1.26763
-0.428961 0.0317094 1.26832
-0.429375 0.0302127 1.26918
-0.429825 0.0287145 1.2701
-0.430157 0.0272102 1.27083
-0.430481 0.0257034 1.27154
-0.430675 0.0241918 1.27204
-0.430921 0.0226798 1.27262
-0.431209 0.0211669 1.27327
-0.431501 0.0196521 1.27393
-0.431655 0.0181343 1.27436
-0.431893 0.0166158 1.27494
-0.432176 0.0150958 1.27558
-0.432384 0.0135743 1.2761
-0.432632 0.012051 1.27669
-0.432874 0.0105262 1.27727
-0.433252 0.00899839 1.27807
-0.433557 0.00746902 1.27876
-0.433916 0.00593681 1.27953
-0.434407 0.00439962 1.28052
-0.435044 0.00285574 1.28176
-0.435518 0.00131212 1.28272
-0.436088 -0.000237303 1.28384
-0.436777 -0.00179438 1.28517
-0.437287 -0.00334913 1.28619
-0.437844 -0.00491005 1.28729
-0.440477 -0.00656652 1.28888
-0.438647 -0.00648434 1.28881
-0.432643 0.0929982 1.27019
-0.432408 0.0914355 1.26998
-0.432119 0.0898658 1.26968
-0.431902 0.0883086 1.2695
-0.431393 0.0867088 1.26885
-0.431073 0.0851401 1.2685
-0.430857 0.0835886 1.26832
-0.430701 0.082047 1.26824
-0.430601 0.0805141 1.26825
-0.430404 0.0789685 1.26811
-0.430095 0.0774094 1.26778
-0.429678 0.075838 1.26727
-0.429263 0.0742696 1.26676
-0.428867 0.0727061 1.26629
-0.428621 0.0711631 1.26606
-0.428289 0.0696116 1.26569
-0.427934 0.0680595 1.26528
-0.42751 0.066502 1.26476
-0.427131 0.064952 1.26431
-0.426778 0.0634071 1.26391
-0.426626 0.0618845 1.26383
-0.426341 0.0603499 1.26354
-0.426125 0.0588236 1.26335
-0.425942 0.0573016 1.26323
-0.425781 0.0557828 1.26314
-0.425694 0.0542712 1.26317
-0.42597 0.0527898 1.2638
-0.426264 0.051308 1.26446
-0.426514 0.049821 1.26505
-0.426755 0.0483315 1.26563
-0.426934 0.0468364 1.2661
-0.426973 0.0453307 1.26634
-0.426917 0.0438189 1.26642
-0.426856 0.042307 1.2665
-0.426931 0.0408031 1.2668
-0.426978 0.0392971 1.26705
-0.426943 0.0377869 1.26717
-0.426982 0.0362801 1.26741
-0.427152 0.0347788 1.26787
-0.427345 0.0332773 1.26837
-0.427707 0.0317807 1.26914
-0.428162 0.030285 1.27007
-0.428551 0.0287843 1.27089
-0.42887 0.0272792 1.2716
-0.429196 0.0257721 1.27232
-0.42931 0.0242585 1.27268
-0.429561 0.0227464 1.27327
-0.429745 0.0212317 1.27376
-0.429923 0.0197157 1.27423
-0.429973 0.0181975 1.27449
-0.430203 0.0166798 1.27505
-0.430396 0.0151606 1.27555
-0.430637 0.01364 1.27613
-0.430889 0.0121176 1.27672
-0.431132 0.0105939 1.2773
-0.431508 0.00906708 1.2781
-0.431851 0.00753816 1.27885
-0.432208 0.00600689 1.27962
-0.432698 0.00447059 1.28062
-0.433383 0.00292663 1.28194
-0.433912 0.00138218 1.28299
-0.434487 -0.000166904 1.28413
-0.435175 -0.0017235 1.28545
-0.435671 -0.00327724 1.28646
-0.436181 -0.00483492 1.28749
-0.436885 -0.00640498 1.28884
-0.443494 -0.00824776 1.29703
-0.437561 -0.00797778 1.29015
-0.432894 0.094565 1.27042
-0.431497 0.0961639 1.27085
-0.431339 0.0946117 1.27077
-0.431006 0.0930315 1.2704
-0.430682 0.0914548 1.27004
-0.430293 0.0898699 1.26958
-0.430056 0.0883109 1.26937
-0.429596 0.0867195 1.26879
-0.429292 0.0851543 1.26846
-0.429088 0.0836055 1.26831
-0.428937 0.0820655 1.26823
-0.428836 0.0805333 1.26824
-0.428636 0.0789884 1.26809
-0.428286 0.0774246 1.26769
-0.427908 0.0758592 1.26724
-0.427483 0.0742904 1.26672
-0.427075 0.0727265 1.26622
-0.426871 0.0711896 1.26606
-0.426584 0.0696442 1.26576
-0.426281 0.0680987 1.26544
-0.425957 0.0665528 1.26508
-0.42564 0.0650097 1.26473
-0.425301 0.0634663 1.26435
-0.425199 0.061949 1.26435
-0.424962 0.0604189 1.26414
-0.424705 0.0588885 1.26389
-0.424475 0.0573623 1.26368
-0.42426 0.0558387 1.2635
-0.424115 0.0543224 1.26344
-0.424301 0.052834 1.26392
-0.424586 0.0513525 1.26457
-0.424841 0.0498668 1.26517
-0.425082 0.0483783 1.26574
-0.425258 0.0468839 1.26621
-0.425294 0.0453788 1.26645
-0.425242 0.043868 1.26654
-0.425187 0.0423572 1.26662
-0.425269 0.0408546 1.26693
-0.425412 0.0393544 1.26735
-0.425437 0.0378477 1.26757
-0.425576 0.0363458 1.26797
-0.425797 0.0348468 1.26852
-0.426078 0.0333487 1.26916
-0.426395 0.03185 1.26986
-0.426883 0.0303552 1.27085
-0.427221 0.0288525 1.27159
-0.427539 0.0273471 1.2723
-0.427869 0.0258399 1.27302
-0.427945 0.024325 1.27333
-0.42814 0.0228119 1.27383
-0.428266 0.0212963 1.27422
-0.428347 0.0197793 1.27453
-0.428299 0.0182606 1.27462
-0.428522 0.0167437 1.27517
-0.428668 0.0152251 1.27559
-0.428911 0.0137055 1.27618
-0.429204 0.0121841 1.27684
-0.429444 0.0106611 1.27742
-0.429782 0.00913549 1.27816
-0.430124 0.00760771 1.27891
-0.43043 0.00607814 1.2796
-0.430876 0.00454393 1.28052
-0.431559 0.00300114 1.28184
-0.432177 0.00145574 1.28305
-0.432753 -9.25126e-05 1.28419
-0.433487 -0.00164964 1.2856
-0.434023 -0.00320426 1.28667
-0.434575 -0.00476342 1.28777
-0.435185 -0.00632829 1.28897
-0.435852 -0.00790002 1.29027
-0.438288 -0.00955654 1.29154
-0.436563 -0.00947737 1.29164
-0.442973 -0.0113467 1.29953
-0.437325 -0.0110626 1.29309
-0.430366 0.0978098 1.27172
-0.429911 0.096205 1.27115
-0.429674 0.0946397 1.27094
-0.42928 0.0930496 1.27046
-0.428907 0.0914659 1.27003
-0.428504 0.0898794 1.26954
-0.428268 0.0883216 1.26932
-0.427912 0.086747 1.26891
-0.427661 0.0851903 1.26868
-0.427463 0.0836428 1.26852
-0.42731 0.082103 1.26845
-0.427199 0.0805702 1.26844
-0.42691 0.0790136 1.26814
-0.426558 0.0774502 1.26773
-0.426138 0.0758804 1.26722
-0.42567 0.0743067 1.26661
-0.425209 0.0727372 1.26603
-0.425038 0.0712057 1.26592
-0.424751 0.0696615 1.26562
-0.424507 0.0681239 1.26539
-0.424285 0.0665902 1.2652
-0.424068 0.0650585 1.26502
-0.423784 0.0635212 1.26472
-0.423731 0.0620092 1.26481
-0.423542 0.0604841 1.26467
-0.423288 0.0589538 1.26442
-0.423015 0.0574234 1.26415
-0.422754 0.0558957 1.26389
-0.422556 0.0543751 1.26374
-0.422732 0.0528867 1.26421
-0.422933 0.0513989 1.26471
-0.423143 0.0499106 1.26524
-0.423378 0.0484226 1.26581
-0.423554 0.046929 1.26628
-0.42355 0.0454223 1.26645
-0.423589 0.0439182 1.26669
-0.423624 0.0424135 1.26692
-0.423711 0.0409117 1.26724
-0.4239 0.0394146 1.26773
-0.423968 0.0379103 1.26802
-0.424155 0.0364108 1.26851
-0.424372 0.0349116 1.26905
-0.424743 0.0334173 1.26984
-0.425051 0.0319181 1.27053
-0.425588 0.030425 1.27161
-0.425886 0.0289206 1.27228
-0.426207 0.027415 1.27299
-0.426531 0.0259074 1.27371
-0.426602 0.0243922 1.27401
-0.426707 0.0228771 1.27436
-0.426732 0.02136 1.27458
-0.426708 0.019842 1.27472
-0.42656 0.0183231 1.27465
-0.426746 0.016807 1.27513
-0.426851 0.0152895 1.27549
-0.427138 0.0137711 1.27615
-0.427469 0.0122506 1.27688
-0.427764 0.0107282 1.27755
-0.428105 0.00920345 1.2783
-0.42854 0.00767508 1.2792
-0.428849 0.00614608 1.2799
-0.429283 0.00461251 1.2808
-0.429911 0.0030715 1.28203
-0.430523 0.00152692 1.28324
-0.431055 -1.93306e-05 1.28431
-0.431788 -0.00157558 1.28572
-0.432371 -0.00313122 1.28688
-0.432971 -0.00469156 1.28806
-0.433582 -0.0062559 1.28927
-0.43429 -0.00782896 1.29064
-0.434992 -0.00940539 1.29199
-0.435743 -0.01099 1.29344
-0.428195 0.0992713 1.27087
-0.428132 0.0977362 1.27095
-0.427812 0.0961566 1.27059
-0.427677 0.0946107 1.27055
-0.427341 0.0930321 1.27017
-0.426981 0.0914518 1.26975
-0.426584 0.0898674 1.26927
-0.426441 0.0883258 1.26921
-0.426144 0.0867613 1.26889
-0.425946 0.0852134 1.26874
-0.425791 0.0836732 1.26866
-0.425669 0.0821387 1.26864
-0.425502 0.0805984 1.26854
-0.425254 0.0790481 1.2683
-0.42491 0.0774864 1.26791
-0.424501 0.0759184 1.2674
-0.423986 0.0743394 1.26672
-0.423525 0.0727704 1.26613
-0.423268 0.071229 1.26588
-0.422992 0.0696869 1.2656
-0.422798 0.0681561 1.26545
-0.422672 0.0666342 1.26542
-0.42251 0.0651089 1.26532
-0.422315 0.0635813 1.26518
-0.422307 0.062074 1.26534
-0.422163 0.0605532 1.26527
-0.421958 0.0590273 1.26511
-0.421739 0.0575016 1.26492
-0.42152 0.055977 1.26473
-0.421321 0.0544558 1.26457
-0.421449 0.0529627 1.26496
-0.421555 0.051467 1.26531
-0.421666 0.0499712 1.26568
-0.42185 0.0484796 1.26616
-0.422025 0.0469864 1.26663
-0.422029 0.0454805 1.26681
-0.422119 0.0439799 1.26714
-0.4222 0.0424783 1.26745
-0.422326 0.0409786 1.26783
-0.422557 0.0394839 1.2684
-0.422664 0.0379812 1.26875
-0.422901 0.0364839 1.26933
-0.423115 0.0349842 1.26986
-0.42344 0.0334874 1.27058
-0.423696 0.0319859 1.27119
-0.424198 0.0304913 1.27221
-0.424414 0.0289845 1.27274
-0.424738 0.0274791 1.27346
-0.42496 0.0259692 1.27401
-0.424971 0.024453 1.27421
-0.425022 0.0229375 1.27447
-0.425001 0.0214205 1.27461
-0.424883 0.0199025 1.27459
-0.424722 0.0183847 1.2745
-0.424901 0.0168699 1.27498
-0.424971 0.0153536 1.27527
-0.425266 0.0138366 1.27595
-0.42564 0.0123175 1.27675
-0.426021 0.0107958 1.27757
-0.426375 0.00927184 1.27834
-0.426909 0.00774321 1.27942
-0.4273 0.00621346 1.28025
-0.427733 0.00468022 1.28116
-0.428301 0.003141 1.28229
-0.428903 0.00159735 1.28348
-0.42943 5.19176e-05 1.28455
-0.430127 -0.00150268 1.2859
-0.430716 -0.00305809 1.28707
-0.431312 -0.00461749 1.28825
-0.431926 -0.00618086 1.28947
-0.432593 -0.00775107 1.29077
-0.433294 -0.00932792 1.29213
-0.434045 -0.0109112 1.29358
-0.440215 -0.012785 1.30113
-0.434612 -0.0124896 1.29471
-0.425831 0.0991707 1.26987
-0.425825 0.0976483 1.27004
-0.425644 0.0960958 1.26992
-0.425469 0.0945452 1.26981
-0.425106 0.0929645 1.26938
-0.424761 0.0913887 1.26898
-0.424454 0.0898215 1.26865
-0.424425 0.0882997 1.26878
-0.424275 0.0867594 1.2687
-0.424176 0.085228 1.26872
-0.424106 0.0837013 1.26878
-0.423979 0.0821666 1.26874
-0.423814 0.0806274 1.26864
-0.423612 0.0790843 1.26848
-0.423319 0.0775299 1.26817
-0.422915 0.0759628 1.26767
-0.422406 0.0743848 1.267
-0.421944 0.0728159 1.2664
-0.421643 0.0712696 1.26608
-0.42137 0.0697284 1.2658
-0.421228 0.0682041 1.26574
-0.421154 0.0666886 1.26579
-0.421038 0.0651686 1.26577
-0.420892 0.0636461 1.2657
-0.420884 0.0621388 1.26587
-0.420785 0.0606224 1.26588
-0.42063 0.0591012 1.26579
-0.420461 0.0575797 1.26569
-0.420299 0.0560597 1.26559
-0.420148 0.0545418 1.26552
-0.420188 0.0530407 1.26576
-0.420191 0.0515363 1.26594
-0.420192 0.0500318 1.26612
-0.420269 0.0485326 1.26642
-0.420354 0.0470336 1.26674
-0.420367 0.0455292 1.26694
-0.420507 0.0440327 1.26735
-0.42064 0.0425347 1.26775
-0.420769 0.0410358 1.26814
-0.421043 0.0395438 1.26878
-0.421194 0.0380437 1.26921
-0.421433 0.0365468 1.26979
-0.42161 0.0350454 1.27026
-0.421974 0.0335507 1.27105
-0.422186 0.0320478 1.27158
-0.422678 0.0305532 1.27258
-0.422846 0.0290451 1.27304
-0.42316 0.02754 1.27375
-0.423327 0.0260291 1.27421
-0.423375 0.0245146 1.27446
-0.423382 0.0229988 1.27465
-0.423317 0.0214817 1.27472
-0.423141 0.0199638 1.2746
-0.422967 0.0184468 1.27449
-0.423095 0.0169328 1.27488
-0.423127 0.0154176 1.27511
-0.423471 0.013902 1.27587
-0.423885 0.0123839 1.27674
-0.424275 0.0108632 1.27758
-0.424675 0.00933986 1.27843
-0.425311 0.00781077 1.27968
-0.425757 0.0062805 1.28061
-0.426195 0.0047477 1.28153
-0.426754 0.00320911 1.28265
-0.427299 0.00166725 1.28375
-0.427774 0.000123815 1.28473
-0.428418 -0.0014282 1.286
-0.42901 -0.00298303 1.28718
-0.429605 -0.00454146 1.28836
-0.430264 -0.00610645 1.28966
-0.430933 -0.00767565 1.29097
-0.431639 -0.0092522 1.29234
-0.432387 -0.0108343 1.29379
-0.432996 -0.0124141 1.295
-0.435175 -0.0140716 1.29585
-0.433514 -0.0139927 1.29606
-0.439792 -0.0159069 1.30381
-0.434154 -0.015583 1.29732
-0.423396 0.0990558 1.26874
-0.423434 0.0975449 1.26899
-0.423268 0.0959978 1.26889
-0.423058 0.0944441 1.26871
-0.422755 0.092876 1.26838
-0.422508 0.0913194 1.26815
-0.422306 0.0897715 1.26799
-0.422425 0.0882754 1.26836
-0.422381 0.0867535 1.26847
-0.42239 0.0852397 1.26866
-0.422372 0.0837217 1.2688
-0.422298 0.082196 1.26886
-0.422141 0.0806587 1.26877
-0.421949 0.0791174 1.26863
-0.421661 0.0775644 1.26832
-0.421262 0.0759983 1.26783
-0.42075 0.0744205 1.26715
-0.420334 0.0728576 1.26663
-0.420028 0.0713112 1.26629
-0.419799 0.0697759 1.26608
-0.419696 0.0682565 1.26609
-0.419674 0.066747 1.26623
-0.419566 0.0652281 1.26622
-0.419468 0.0637109 1.26623
-0.41946 0.0622035 1.2664
-0.419406 0.0606916 1.26648
-0.419303 0.0591753 1.26649
-0.419195 0.057659 1.26648
-0.419088 0.0561434 1.26648
-0.418987 0.0546293 1.26648
-0.418936 0.0531197 1.26657
-0.418835 0.0516063 1.26658
-0.418721 0.0500926 1.26656
-0.418692 0.0485859 1.26669
-0.418684 0.0470807 1.26685
-0.418696 0.045577 1.26705
-0.418839 0.0440816 1.26747
-0.418975 0.0425849 1.26787
-0.419112 0.0410871 1.26828
-0.419391 0.0395962 1.26892
-0.419598 0.0380997 1.26945
-0.419838 0.0366035 1.27003
-0.420022 0.0351031 1.27052
-0.420379 0.0336087 1.27129
-0.420581 0.0321059 1.27181
-0.421016 0.03061 1.27272
-0.421173 0.0291024 1.27317
-0.421431 0.0275965 1.27378
-0.421547 0.0260854 1.27415
-0.421599 0.0245719 1.27442
-0.421604 0.0230573 1.2746
-0.42155 0.0215416 1.27469
-0.421376 0.0200247 1.27457
-0.421196 0.0185088 1.27444
-0.421312 0.0169957 1.27482
-0.421339 0.0154816 1.27504
-0.421641 0.0139673 1.27573
-0.422102 0.0124503 1.27668
-0.422574 0.0109303 1.27766
-0.422985 0.00940779 1.27854
-0.423675 0.00787882 1.27988
-0.424222 0.0063476 1.28098
-0.424711 0.00481397 1.28199
-0.425238 0.00327645 1.28306
-0.425767 0.00173525 1.28414
-0.426183 0.000193807 1.28502
-0.426725 -0.00135437 1.28612
-0.427262 -0.00290581 1.28721
-0.427847 -0.00446346 1.28838
-0.428546 -0.00602894 1.28975
-0.429263 -0.00759927 1.29114
-0.430067 -0.00918001 1.29269
-0.430859 -0.0107641 1.29421
-0.431518 -0.0123474 1.29551
-0.432077 -0.0139275 1.29664
-0.432729 -0.015518 1.29793
-0.438739 -0.0174333 1.30526
-0.433284 -0.0171068 1.29906
-0.421082 0.100477 1.26763
-0.421078 0.0989611 1.2678
-0.421067 0.0974441 1.26796
-0.420836 0.0958883 1.26774
-0.42062 0.0943369 1.26756
-0.420321 0.0927726 1.26723
-0.420122 0.0912271 1.26708
-0.420024 0.0896989 1.26709
-0.420292 0.0882292 1.26772
-0.420362 0.0867272 1.26801
-0.420512 0.085237 1.26844
-0.420642 0.0837426 1.26884
-0.420672 0.0822327 1.26906
-0.420573 0.0807042 1.26908
-0.420431 0.0791705 1.26902
-0.420185 0.077623 1.26878
-0.41974 0.076051 1.26821
-0.419227 0.0744731 1.26752
-0.418765 0.0729045 1.26692
-0.418458 0.0713583 1.26658
-0.418224 0.0698228 1.26636
-0.418169 0.0683093 1.26644
-0.418153 0.0668009 1.26659
-0.418096 0.0652879 1.26667
-0.418044 0.0637756 1.26676
-0.418036 0.0622683 1.26693
-0.417986 0.0607567 1.26702
-0.417931 0.0592449 1.2671
-0.417875 0.0577334 1.26718
-0.417821 0.0562223 1.26727
-0.41777 0.0547118 1.26736
-0.417668 0.0531973 1.26736
-0.417467 0.0516753 1.2672
-0.417246 0.0501533 1.267
-0.417121 0.0486395 1.26697
-0.417019 0.0471282 1.26697
-0.417024 0.0456247 1.26715
-0.417203 0.0441325 1.26763
-0.417383 0.0426391 1.26811
-0.417576 0.0411452 1.26861
-0.41786 0.039655 1.26927
-0.418107 0.038161 1.26987
-0.418307 0.0366631 1.27038
-0.418532 0.0351651 1.27094
-0.418846 0.0336691 1.27165
-0.419044 0.0321667 1.27216
-0.41938 0.0306677 1.2729
-0.41952 0.0291602 1.27332
-0.419736 0.027654 1.27386
-0.419859 0.0261438 1.27425
-0.419961 0.0246325 1.2746
-0.420019 0.0231194 1.27487
-0.419968 0.0216042 1.27496
-0.419798 0.0200879 1.27485
-0.419623 0.0185725 1.27473
-0.419739 0.0170599 1.27511
-0.41977 0.0155463 1.27534
-0.42006 0.0140324 1.27601
-0.420475 0.0125162 1.27689
-0.420987 0.0109965 1.27793
-0.421404 0.00947442 1.27882
-0.422136 0.00794553 1.28024
-0.422783 0.00641315 1.28152
-0.423369 0.00487767 1.2827
-0.423902 0.00333959 1.28378
-0.424386 0.00179926 1.28478
-0.424741 0.000259515 1.28556
-0.425217 -0.00128651 1.28655
-0.425649 -0.002834 1.28747
-0.426189 -0.00438932 1.28857
-0.426885 -0.00595382 1.28993
-0.427599 -0.00752436 1.29133
-0.428406 -0.00910308 1.29288
-0.429246 -0.0106899 1.2945
-0.429958 -0.0122754 1.29589
-0.430614 -0.0138618 1.29719
-0.431364 -0.0154575 1.29865
-0.431971 -0.0170505 1.29987
-0.438067 -0.0189878 1.30737
-0.43278 -0.0186597 1.30143
-0.419046 0.101943 1.26697
-0.419028 0.100427 1.26711
-0.418932 0.0988962 1.26713
-0.41888 0.0973742 1.26722
-0.418546 0.0958029 1.26683
-0.418322 0.0942525 1.26663
-0.418059 0.0926971 1.26637
-0.417908 0.0911617 1.26629
-0.417818 0.0896374 1.26631
-0.418136 0.0881788 1.26703
-0.418302 0.086694 1.26748
-0.418555 0.0852217 1.26809
-0.418787 0.0837442 1.26865
-0.418915 0.0822502 1.26905
-0.418869 0.0807302 1.26915
-0.418812 0.0792092 1.26923
-0.418609 0.0776683 1.26906
-0.418205 0.0761019 1.26856
-0.417744 0.0745306 1.26796
-0.417324 0.0729676 1.26742
-0.41698 0.0714166 1.26702
-0.416744 0.0698807 1.2668
-0.416692 0.0683679 1.26688
-0.41668 0.0668602 1.26704
-0.416629 0.0653478 1.26713
-0.416621 0.0638404 1.26729
-0.416613 0.0623331 1.26745
-0.416604 0.0608256 1.26762
-0.416596 0.0593183 1.26778
-0.416588 0.0578109 1.26794
-0.41658 0.0563036 1.2681
-0.416571 0.0547963 1.26827
-0.416381 0.0532735 1.26812
-0.416129 0.0517469 1.26787
-0.41586 0.0502206 1.26759
-0.415646 0.0487001 1.2674
-0.415455 0.0471826 1.26726
-0.415452 0.0456792 1.26743
-0.415582 0.0441841 1.26782
-0.415718 0.0426888 1.26823
-0.415949 0.041198 1.2688
-0.416235 0.0397088 1.26946
-0.416525 0.0382177 1.27013
-0.416716 0.0367199 1.27063
-0.416938 0.0352222 1.27118
-0.417206 0.033725 1.27181
-0.417403 0.0322232 1.27233
-0.417652 0.030722 1.27292
-0.417795 0.0292156 1.27335
-0.41805 0.0277114 1.27396
-0.418188 0.0262027 1.27437
-0.418339 0.0246931 1.2748
-0.418491 0.0231826 1.27524
-0.418525 0.0216691 1.27547
-0.418415 0.0201535 1.27546
-0.418337 0.0186388 1.27551
-0.418462 0.0171258 1.2759
-0.41853 0.015612 1.27619
-0.418777 0.0140975 1.27679
-0.419184 0.0125809 1.27766
-0.419651 0.0110612 1.27863
-0.420107 0.00953852 1.27959
-0.4208 0.00800961 1.28095
-0.421482 0.00647634 1.28229
-0.422029 0.00494123 1.2834
-0.42256 0.00340294 1.28449
-0.423002 0.00186337 1.28542
-0.423299 0.000325223 1.28611
-0.423676 -0.00121764 1.28693
-0.424007 -0.00276171 1.28768
-0.424445 -0.00431163 1.2886
-0.425094 -0.0058733 1.28989
-0.425851 -0.00744439 1.29137
-0.426709 -0.00902568 1.29301
-0.427649 -0.0106169 1.2948
-0.428456 -0.0122061 1.29636
-0.429215 -0.0137988 1.29784
-0.430012 -0.0153985 1.29939
-0.430724 -0.0169974 1.30079
-0.431532 -0.0186082 1.30235
-0.437347 -0.0205446 1.3094
-0.432204 -0.0202141 1.30369
-0.418913 0.103431 1.26657
-0.417248 0.10345 1.2667
-0.417361 0.10196 1.26707
-0.417318 0.10044 1.26717
-0.417181 0.0989026 1.26712
-0.417038 0.0973652 1.26705
-0.416597 0.0957761 1.26648
-0.416239 0.0942042 1.26606
-0.415925 0.092642 1.2657
-0.415766 0.0911076 1.26561
-0.415719 0.0895926 1.26571
-0.416086 0.0881441 1.2665
-0.416387 0.0866828 1.26719
-0.416731 0.0852261 1.26795
-0.417008 0.083757 1.2686
-0.417233 0.0822782 1.26915
-0.417277 0.0807721 1.2694
-0.417228 0.0792525 1.2695
-0.417071 0.0777183 1.26941
-0.416671 0.0761528 1.26891
-0.416216 0.0745824 1.26831
-0.415762 0.073015 1.26772
-0.415463 0.0714699 1.26739
-0.41523 0.0699346 1.26717
-0.415222 0.0684272 1.26733
-0.415213 0.0669199 1.2675
-0.415205 0.0654126 1.26766
-0.415197 0.0639052 1.26782
-0.415189 0.0623978 1.26798
-0.41518 0.0608904 1.26815
-0.41513 0.0593791 1.26824
-0.415076 0.0578673 1.26832
-0.415021 0.056356 1.2684
-0.415009 0.0548488 1.26856
-0.41478 0.0533231 1.26835
-0.414573 0.0518007 1.26817
-0.414349 0.0502782 1.26796
-0.414137 0.0487582 1.26778
-0.413905 0.0472379 1.26756
-0.413897 0.0457344 1.26772
-0.413978 0.0442368 1.26804
-0.414069 0.0427393 1.26837
-0.414302 0.0412495 1.26894
-0.414583 0.0397607 1.2696
-0.414864 0.03827 1.27025
-0.415051 0.0367728 1.27075
-0.415312 0.0352779 1.27137
-0.415581 0.0337815 1.272
-0.415786 0.0322806 1.27253
-0.416029 0.0307798 1.27312
-0.416215 0.0292754 1.27362
-0.416476 0.0277723 1.27424
-0.416667 0.0262653 1.27474
-0.416828 0.0247562 1.27519
-0.416977 0.0232461 1.27563
-0.417013 0.0217328 1.27586
-0.416946 0.020218 1.27593
-0.416928 0.018704 1.27607
-0.417157 0.0171918 1.27664
-0.417318 0.0156777 1.2771
-0.417607 0.0141626 1.27777
-0.418007 0.0126453 1.27863
-0.418426 0.011125 1.27952
-0.418832 0.00960215 1.2804
-0.419428 0.00807412 1.2816
-0.420054 0.0065416 1.28285
-0.420547 0.00500769 1.28387
-0.421029 0.00347056 1.28487
-0.421424 0.0019326 1.28573
-0.42167 0.000396262 1.28633
-0.421993 -0.00114416 1.28706
-0.422273 -0.00268499 1.28772
-0.42271 -0.00423398 1.28865
-0.423348 -0.00579508 1.28992
-0.424236 -0.00737113 1.29163
-0.425187 -0.00895607 1.29344
-0.42624 -0.0105528 1.29543
-0.427147 -0.0121483 1.29717
-0.428001 -0.0137464 1.29882
-0.428799 -0.0153475 1.30037
-0.429565 -0.0169513 1.30187
-0.430336 -0.0185598 1.30338
-0.431008 -0.0201675 1.30471
-0.432761 -0.0218165 1.30482
-0.431563 -0.0217706 1.30585
-0.433101 -0.0234054 1.30559
-0.431959 -0.0233645 1.30671
-0.437407 -0.0253194 1.31316
-0.432397 -0.0249648 1.30765
-0.416997 0.106424 1.26592
-0.415305 0.106436 1.26601
-0.415346 0.104934 1.26625
-0.415427 0.10344 1.26657
-0.415467 0.101937 1.26681
-0.415441 0.100421 1.26694
-0.415243 0.0988743 1.26679
-0.415033 0.0973261 1.26661
-0.414596 0.0957394 1.26604
-0.414241 0.0941697 1.26562
-0.413932 0.0926102 1.26527
-0.413816 0.0910847 1.26525
-0.413811 0.0895783 1.26542
-0.41422 0.0881383 1.26629
-0.414564 0.0866853 1.26705
-0.414956 0.0852375 1.26789
-0.41528 0.0837769 1.26862
-0.415588 0.0823115 1.26932
-0.415683 0.0808133 1.26965
-0.415643 0.0792958 1.26977
-0.415538 0.0777692 1.26976
-0.415192 0.0762108 1.26935
-0.414742 0.0746411 1.26876
-0.414295 0.0730745 1.26818
-0.414039 0.0715347 1.26792
-0.413806 0.0699994 1.2677
-0.413798 0.068492 1.26786
-0.413789 0.0669847 1.26802
-0.413781 0.0654774 1.26819
-0.413773 0.0639699 1.26835
-0.413765 0.0624626 1.26851
-0.413756 0.0609552 1.26867
-0.41366 0.0594392 1.26869
-0.413556 0.057923 1.26868
-0.413448 0.056407 1.26868
-0.413388 0.0548961 1.26875
-0.413162 0.0533713 1.26854
-0.413007 0.0518537 1.26845
-0.412836 0.0503358 1.26834
-0.412673 0.0488195 1.26824
-0.412485 0.0473025 1.26809
-0.412477 0.045799 1.26825
-0.412556 0.0443014 1.26856
-0.412645 0.0428036 1.26889
-0.412872 0.0413136 1.26945
-0.413108 0.0398224 1.27004
-0.413349 0.0383299 1.27062
-0.413489 0.0368309 1.27104
-0.413751 0.0353364 1.27166
-0.41398 0.0338387 1.27223
-0.414225 0.0323401 1.27283
-0.414472 0.0308401 1.27343
-0.414697 0.0293375 1.27399
-0.414961 0.0278345 1.27462
-0.415197 0.0263291 1.2752
-0.415362 0.0248205 1.27566
-0.415506 0.0233102 1.27609
-0.415536 0.021797 1.27632
-0.415511 0.0202831 1.27645
-0.415509 0.0187692 1.27662
-0.415791 0.0172573 1.27729
-0.416052 0.0157435 1.27791
-0.416385 0.0142278 1.27866
-0.416792 0.0127099 1.27954
-0.41725 0.0111886 1.2805
-0.417651 0.00966505 1.28137
-0.418186 0.00813699 1.28247
-0.418759 0.00660483 1.28363
-0.419188 0.00507159 1.28454
-0.419571 0.00353653 1.28538
-0.419863 0.0020013 1.28607
-0.420063 0.000466764 1.28659
-0.420295 -0.00107018 1.28717
-0.420483 -0.00260679 1.28767
-0.420907 -0.00415471 1.28858
-0.421539 -0.00571339 1.28985
-0.422526 -0.00729328 1.29173
-0.423632 -0.00888473 1.29381
-0.42484 -0.0104896 1.29608
-0.425847 -0.0120908 1.29799
-0.426834 -0.0136974 1.29987
-0.427631 -0.015299 1.30143
-0.428444 -0.0169067 1.30301
-0.429219 -0.0185171 1.30453
-0.429894 -0.0201266 1.30588
-0.430452 -0.0217309 1.30703
-0.430901 -0.02333 1.30799
-0.43131 -0.0249293 1.30887
-0.432809 -0.0265657 1.30854
-0.431676 -0.0265279 1.30969
-0.437122 -0.028513 1.31615
-0.432042 -0.0281278 1.31051
-0.413611 0.107956 1.26591
-0.413583 0.106442 1.26604
-0.413561 0.104929 1.26618
-0.413567 0.103421 1.26636
-0.413516 0.101902 1.26645
-0.413423 0.100375 1.26647
-0.413223 0.0988301 1.26631
-0.413007 0.0972829 1.26612
-0.41258 0.0956994 1.26557
-0.412234 0.0941329 1.26515
-0.41193 0.0925758 1.26481
-0.411816 0.0910527 1.26479
-0.411859 0.089556 1.26504
-0.412281 0.08812 1.26594
-0.412676 0.0866771 1.26679
-0.413151 0.085244 1.26778
-0.413518 0.0837912 1.26858
-0.413833 0.0823283 1.26929
-0.413978 0.0808386 1.26972
-0.414034 0.0793352 1.26999
-0.413937 0.0778103 1.27
-0.413634 0.0762582 1.26966
-0.413228 0.0746943 1.26914
-0.412823 0.0731334 1.26863
-0.412572 0.0715943 1.26838
-0.412383 0.0700641 1.26823
-0.412375 0.0685567 1.26839
-0.412366 0.0670494 1.26855
-0.412358 0.0655421 1.26872
-0.41235 0.0640347 1.26888
-0.412341 0.0625274 1.26904
-0.412333 0.06102 1.2692
-0.412232 0.0595035 1.26921
-0.412078 0.0579825 1.26912
-0.411912 0.0564613 1.26901
-0.4118 0.054946 1.269
-0.411573 0.0534214 1.26878
-0.411433 0.0519057 1.26872
-0.411318 0.0503927 1.2687
-0.411208 0.0488807 1.26869
-0.411065 0.0473671 1.26862
-0.411056 0.0458636 1.26878
-0.411178 0.0443687 1.26916
-0.411311 0.0428738 1.26957
-0.411542 0.0413836 1.27014
-0.411778 0.0398923 1.27072
-0.412013 0.0383993 1.2713
-0.412108 0.0368977 1.27164
-0.41237 0.0354032 1.27227
-0.412603 0.0339056 1.27285
-0.412811 0.0324055 1.27338
-0.413048 0.030905 1.27396
-0.413267 0.0294023 1.27452
-0.413487 0.0278982 1.27507
-0.413683 0.0263919 1.27559
-0.413885 0.0248844 1.27611
-0.413979 0.0233733 1.27645
-0.413998 0.0218604 1.27666
-0.414016 0.0203472 1.27687
-0.414105 0.0188344 1.2772
-0.414444 0.017323 1.27796
-0.414797 0.0158093 1.27875
-0.415182 0.0142932 1.27959
-0.415597 0.0127745 1.28048
-0.416014 0.0112527 1.28138
-0.416411 0.00972847 1.28224
-0.416851 0.00820111 1.28318
-0.417364 0.00666961 1.28424
-0.417693 0.00513825 1.28499
-0.418025 0.00360455 1.28574
-0.418218 0.00207225 1.28625
-0.418402 0.000538797 1.28675
-0.418582 -0.00099569 1.28724
-0.418722 -0.0025299 1.28766
-0.419101 -0.00407468 1.28849
-0.419687 -0.00563106 1.28969
-0.420768 -0.00721328 1.29174
-0.421988 -0.0088095 1.29403
-0.423307 -0.0104196 1.29649
-0.424463 -0.0120281 1.29867
-0.425577 -0.0136431 1.30078
-0.426376 -0.0152459 1.30234
-0.427139 -0.016851 1.30385
-0.427905 -0.0184615 1.30536
-0.42857 -0.0200702 1.30669
-0.429172 -0.0216781 1.30792
-0.429678 -0.0232826 1.30898
-0.430133 -0.0248863 1.30995
-0.430495 -0.0264853 1.31076
-0.430803 -0.0280824 1.31148
-0.436222 -0.0300809 1.31791
-0.431002 -0.0296712 1.31201
-0.411867 0.107957 1.2659
-0.411777 0.106431 1.26592
-0.411695 0.104907 1.26596
-0.411565 0.103374 1.26591
-0.411422 0.101839 1.26584
-0.411235 0.100297 1.2657
-0.41103 0.0987529 1.26553
-0.410816 0.0972084 1.26534
-0.410389 0.0956273 1.26478
-0.410092 0.0940716 1.26445
-0.409882 0.0925331 1.26427
-0.409862 0.0910276 1.26441
-0.409961 0.0895421 1.26476
-0.410427 0.0881152 1.26573
-0.410872 0.0866817 1.26667
-0.411394 0.0852575 1.26774
-0.411769 0.0838071 1.26856
-0.412131 0.0823525 1.26935
-0.412323 0.0808707 1.26986
-0.412424 0.0793745 1.27021
-0.412327 0.0778502 1.27022
-0.412067 0.0763042 1.26995
-0.411705 0.0747465 1.26951
-0.411348 0.0731918 1.26907
-0.411102 0.0716533 1.26883
-0.410959 0.0701289 1.26876
-0.41095 0.0686215 1.26892
-0.410942 0.0671142 1.26908
-0.410934 0.0656069 1.26924
-0.410926 0.0640995 1.26941
-0.410917 0.0625921 1.26957
-0.410909 0.0610847 1.26973
-0.410767 0.0595641 1.26966
-0.410565 0.0580386 1.26949
-0.410346 0.0565128 1.26929
-0.410182 0.0549933 1.26919
-0.409953 0.0534691 1.26897
-0.409856 0.0519574 1.26898
-0.409799 0.0504495 1.26906
-0.409741 0.0489417 1.26913
-0.409644 0.0474317 1.26914
-0.409636 0.0459283 1.26931
-0.409762 0.0444337 1.2697
-0.409902 0.0429391 1.27012
-0.410141 0.0414496 1.2707
-0.410377 0.0399582 1.27129
-0.410603 0.0384647 1.27185
-0.41069 0.0369627 1.27218
-0.410906 0.0354662 1.27273
-0.411095 0.0339668 1.27323
-0.411253 0.0324651 1.27368
-0.411441 0.0309633 1.27418
-0.411656 0.0294612 1.27473
-0.411874 0.0279576 1.27528
-0.41211 0.0264531 1.27587
-0.412353 0.024947 1.27647
-0.412487 0.0234371 1.27687
-0.412553 0.0219251 1.27717
-0.412614 0.0204126 1.27745
-0.412748 0.0189003 1.27786
-0.413091 0.0173887 1.27863
-0.413488 0.0158749 1.27949
-0.413922 0.0143584 1.28042
-0.414384 0.012839 1.2814
-0.414766 0.011317 1.28224
-0.415201 0.00979174 1.28317
-0.415548 0.00826483 1.28395
-0.415973 0.00673433 1.28486
-0.416211 0.00520457 1.28545
-0.416484 0.00367227 1.28611
-0.416582 0.00214281 1.28646
-0.416758 0.000610293 1.28694
-0.416844 -0.000920569 1.28727
-0.416931 -0.00245182 1.2876
-0.417254 -0.00399345 1.28834
-0.417835 -0.00554752 1.28952
-0.419012 -0.00713339 1.29175
-0.420382 -0.0087356 1.2943
-0.421807 -0.0103506 1.29696
-0.423105 -0.0119676 1.29939
-0.424266 -0.0135862 1.30159
-0.425019 -0.0151857 1.30308
-0.425732 -0.0167884 1.3045
-0.426438 -0.0183953 1.30591
-0.427042 -0.0199995 1.30715
-0.427636 -0.0216065 1.30837
-0.428139 -0.0232111 1.30942
-0.428599 -0.0248145 1.31041
-0.429 -0.0264166 1.31129
-0.429293 -0.0280121 1.31198
-0.429484 -0.0296 1.3125
-0.435017 -0.031624 1.31916
-0.429629 -0.0311855 1.31293
-0.410033 0.107938 1.26573
-0.409866 0.106397 1.26562
-0.409721 0.104862 1.26555
-0.409429 0.103299 1.26522
-0.409158 0.101742 1.26494
-0.408965 0.100202 1.26478
-0.40871 0.0986513 1.26452
-0.408455 0.0971021 1.26426
-0.408036 0.0955252 1.26372
-0.407785 0.0939805 1.26346
-0.407622 0.0924526 1.26335
-0.407695 0.0909657 1.26366
-0.407932 0.0895056 1.26424
-0.408537 0.0881036 1.26545
-0.409071 0.0866864 1.26655
-0.409719 0.0852832 1.26784
-0.410185 0.0838478 1.26882
-0.410599 0.0824017 1.2697
-0.410836 0.0809269 1.27029
-0.410974 0.0794364 1.2707
-0.410832 0.0779057 1.27064
-0.410575 0.0763602 1.27037
-0.410214 0.0748028 1.26993
-0.409869 0.0732496 1.26951
-0.40963 0.0717121 1.26928
-0.409535 0.0701937 1.26929
-0.409526 0.0686863 1.26945
-0.409518 0.067179 1.26961
-0.40951 0.0656717 1.26977
-0.409502 0.0641642 1.26994
-0.409493 0.0626569 1.2701
-0.409485 0.0611495 1.27026
-0.409303 0.0596248 1.27012
-0.409057 0.0580952 1.26988
-0.408798 0.0565657 1.2696
-0.408581 0.0550418 1.26941
-0.408349 0.0535179 1.26918
-0.408295 0.0520103 1.26927
-0.408286 0.0505067 1.26943
-0.408275 0.0490028 1.26958
-0.408225 0.0474963 1.26967
-0.408217 0.0459928 1.26983
-0.408387 0.0445014 1.27031
-0.408576 0.04301 1.27081
-0.408822 0.0415205 1.27141
-0.409057 0.0400288 1.27199
-0.409274 0.0385345 1.27255
-0.409311 0.0370298 1.27279
-0.409479 0.0355308 1.27325
-0.40962 0.0340295 1.27367
-0.409724 0.0325258 1.27403
-0.409859 0.0310223 1.27444
-0.410023 0.029519 1.2749
-0.410203 0.0280151 1.27539
-0.410441 0.0265114 1.27598
-0.410727 0.0250073 1.27666
-0.410913 0.0234991 1.27716
-0.411036 0.0219887 1.27754
-0.411197 0.0204777 1.278
-0.41138 0.018966 1.2785
-0.41172 0.0174541 1.27926
-0.412154 0.0159404 1.2802
-0.412628 0.0144237 1.2812
-0.41305 0.012904 1.28211
-0.413429 0.0113817 1.28294
-0.413861 0.00985635 1.28387
-0.414159 0.00832971 1.28457
-0.414535 0.00679982 1.2854
-0.414766 0.0052701 1.28598
-0.415 0.00373895 1.28657
-0.415049 0.00221078 1.28683
-0.415178 0.00067994 1.28724
-0.415212 -0.000848762 1.28748
-0.415294 -0.00237913 1.2878
-0.415656 -0.00392169 1.2886
-0.416318 -0.00547938 1.28994
-0.417537 -0.00706615 1.29224
