ply
format ascii 1.0
element vertex 1730
property float x
property float y
property float z
end_header
0.196669 -0.202576 0.943353
0.196598 -0.203768 0.942983
0.196456 -0.204912 0.94236
0.196265 -0.206021 0.941562
0.196076 -0.207129 0.940769
0.19588 -0.20823 0.939949
0.195728 -0.209359 0.939291
0.195644 -0.210536 0.938879
0.19562 -0.211754 0.93868
0.195663 -0.21302 0.938724
0.195811 -0.214365 0.93915
0.196039 -0.21577 0.939862
0.196264 -0.217176 0.940563
0.196569 -0.218645 0.941552
0.196875 -0.220119 0.942545
0.197137 -0.221563 0.943377
0.197396 -0.22301 0.9442
0.197607 -0.224422 0.944849
0.197703 -0.225748 0.945082
0.197741 -0.22703 0.94511
0.197742 -0.228282 0.944999
0.197703 -0.229504 0.944749
0.197735 -0.230781 0.944751
0.197698 -0.232005 0.944508
0.197646 -0.233215 0.944208
0.197603 -0.234432 0.943941
0.197537 -0.235631 0.943594
0.197381 -0.236753 0.942921
0.197223 -0.237871 0.942241
0.197038 -0.238965 0.941464
0.196834 -0.24004 0.940619
0.196631 -0.241114 0.939778
0.196417 -0.242176 0.938898
0.196149 -0.243187 0.93782
0.195814 -0.244137 0.936506
0.195409 -0.24502 0.934939
0.194981 -0.245878 0.933293
0.194583 -0.246758 0.931753
0.19425 -0.247692 0.930447
0.194192 -0.248873 0.930126
0.194375 -0.250277 0.930676
0.19464 -0.251759 0.931517
0.195205 -0.253524 0.933431
0.195838 -0.255363 0.935595
0.19632 -0.257066 0.937211
0.196667 -0.258647 0.938345
0.197251 -0.260461 0.94033
0.197638 -0.262091 0.941606
0.198319 -0.264014 0.943935
0.19904 -0.265984 0.946407
0.199702 -0.267906 0.948665
0.20013 -0.269604 0.950088
0.200557 -0.271307 0.951503
0.200666 -0.272695 0.951778
0.200751 -0.274062 0.95197
0.200809 -0.275402 0.952062
0.200828 -0.276704 0.952017
0.200791 -0.277948 0.951771
0.20079 -0.279229 0.951654
0.200731 -0.280449 0.951325
0.200607 -0.281601 0.950769
0.200495 -0.282763 0.950252
0.20042 -0.283965 0.949872
0.200478 -0.285309 0.949966
0.200592 -0.286714 0.950257
0.200825 -0.288249 0.950976
0.201108 -0.289842 0.951876
0.20155 -0.291613 0.953339
0.201939 -0.293332 0.954613
0.202374 -0.295109 0.956055
0.202839 -0.296923 0.957602
0.203215 -0.298644 0.958826
0.201576 -0.183557 0.958275
0.201502 -0.184774 0.957892
0.201364 -0.185956 0.957286
0.201144 -0.187089 0.956382
0.200808 -0.188152 0.955059
0.200489 -0.189221 0.9538
0.200135 -0.190266 0.952414
0.199764 -0.191296 0.95097
0.19931 -0.192272 0.949225
0.198766 -0.193187 0.947157
0.198338 -0.194168 0.945509
0.19803 -0.195217 0.944292
0.197885 -0.196366 0.94366
0.197886 -0.197606 0.943552
0.198031 -0.198938 0.943962
0.198204 -0.200291 0.944471
0.198391 -0.201656 0.945033
0.198496 -0.202969 0.945299
0.198461 -0.20419 0.945061
0.19832 -0.205339 0.944443
0.198111 -0.20644 0.94358
0.1979 -0.207538 0.942712
0.197682 -0.208629 0.941819
0.197525 -0.20976 0.941145
0.197443 -0.210942 0.94074
0.197417 -0.212163 0.940537
0.197441 -0.213419 0.940511
0.197561 -0.214747 0.940833
0.197725 -0.216107 0.941307
0.197827 -0.217425 0.941562
0.197996 -0.218794 0.942056
0.198183 -0.220179 0.942614
0.198331 -0.221537 0.94303
0.198498 -0.222911 0.943517
0.198695 -0.224312 0.944113
0.198813 -0.225654 0.944423
0.198876 -0.226954 0.944535
0.198899 -0.228224 0.944506
0.198859 -0.229445 0.944252
0.198867 -0.230703 0.944166
0.19879 -0.231893 0.943778
0.198713 -0.233083 0.943391
0.198652 -0.234285 0.943063
0.198568 -0.235467 0.942648
0.198391 -0.236571 0.941903
0.198206 -0.237667 0.941131
0.197963 -0.238711 0.940151
0.197679 -0.239718 0.939026
0.197396 -0.240722 0.937903
0.197098 -0.24171 0.936729
0.196763 -0.242662 0.935419
0.196402 -0.243587 0.934019
0.196019 -0.244488 0.932543
0.195659 -0.245405 0.931146
0.195349 -0.246362 0.929928
0.195314 -0.247565 0.929694
0.195599 -0.249058 0.9306
0.196146 -0.250795 0.932439
0.196764 -0.252606 0.934534
0.197657 -0.25468 0.937605
0.198346 -0.256575 0.939949
0.198812 -0.258269 0.941499
0.199163 -0.25986 0.942637
0.199744 -0.261675 0.944593
0.200145 -0.263325 0.945908
0.20057 -0.265004 0.94731
0.201005 -0.266698 0.948745
0.20138 -0.268339 0.949966
0.201547 -0.269781 0.950447
0.201716 -0.271227 0.950934
0.20185 -0.272639 0.951294
0.201973 -0.274043 0.951619
0.202053 -0.275405 0.951789
0.202092 -0.276726 0.951813
0.202075 -0.277991 0.951636
0.202092 -0.279291 0.951582
0.202051 -0.280532 0.951322
0.201931 -0.281689 0.950779
0.20182 -0.282855 0.95027
0.201706 -0.284016 0.949751
0.201716 -0.285309 0.949673
0.201783 -0.286662 0.949796
0.201975 -0.288151 0.950364
0.202243 -0.289726 0.951201
0.202691 -0.291501 0.952675
0.203082 -0.293218 0.953946
0.203481 -0.294951 0.955248
0.203924 -0.296737 0.956703
0.204258 -0.298408 0.957774
0.203204 -0.183754 0.959419
0.203065 -0.184939 0.958809
0.202865 -0.186088 0.95798
0.202641 -0.187221 0.957064
0.202355 -0.188316 0.955928
0.201957 -0.189343 0.954394
0.201527 -0.190346 0.952745
0.201111 -0.191352 0.951145
0.200625 -0.192312 0.949297
0.200036 -0.193203 0.947083
0.199609 -0.194186 0.945448
0.199359 -0.195273 0.944445
0.199311 -0.196484 0.944162
0.199432 -0.197801 0.94448
0.199645 -0.199179 0.945128
0.199915 -0.200596 0.945979
0.200158 -0.202 0.946734
0.200281 -0.203328 0.947062
0.200228 -0.20454 0.946759
0.200102 -0.205705 0.9462
0.199876 -0.206799 0.945281
0.199667 -0.207903 0.944424
0.199449 -0.208998 0.943534
0.199289 -0.210132 0.942853
0.199205 -0.211316 0.942441
0.199161 -0.212528 0.942173
0.199124 -0.213745 0.941929
0.199142 -0.215001 0.941881
0.199196 -0.216284 0.941961
0.199177 -0.217514 0.941782
0.199229 -0.218797 0.941856
0.199339 -0.220124 0.942136
0.199467 -0.221466 0.942479
0.199617 -0.222827 0.9429
0.199817 -0.224228 0.943498
0.199958 -0.225587 0.943888
0.200041 -0.226902 0.944071
0.200065 -0.228172 0.944043
0.200024 -0.229392 0.943786
0.199996 -0.230622 0.943572
0.199875 -0.231777 0.943031
0.199775 -0.232948 0.942563
0.199693 -0.234132 0.942158
0.199571 -0.235283 0.941612
0.199392 -0.236385 0.940864
0.199203 -0.237478 0.940082
0.198921 -0.238489 0.93897
0.198579 -0.239447 0.937644
0.198237 -0.2404 0.936317
0.197873 -0.24133 0.934913
0.197476 -0.242228 0.933395
0.197096 -0.243135 0.931936
0.196773 -0.244088 0.930679
0.196516 -0.245096 0.929658
0.196505 -0.24632 0.929507
0.196798 -0.247816 0.930433
0.197429 -0.249623 0.932558
0.198291 -0.251649 0.935501
0.199202 -0.253731 0.938618
0.200119 -0.255829 0.941751
0.200815 -0.257735 0.944105
0.201259 -0.259413 0.94556
0.201579 -0.260982 0.946582
0.201891 -0.262546 0.947572
0.202041 -0.26396 0.947987
0.202211 -0.265395 0.948475
0.202398 -0.26685 0.949023
0.202565 -0.268287 0.949499
0.202752 -0.269746 0.950044
0.202943 -0.271213 0.950605
0.203096 -0.272644 0.951031
0.203262 -0.27409 0.951503
0.203346 -0.275456 0.951686
0.203406 -0.276799 0.951779
0.203406 -0.278082 0.951666
0.203424 -0.279383 0.951612
0.203366 -0.280608 0.951293
0.203266 -0.281787 0.950824
0.203156 -0.282955 0.950321
0.203026 -0.284101 0.949745
0.202995 -0.28535 0.949522
0.203038 -0.286679 0.949559
0.203211 -0.288146 0.950053
0.203486 -0.289727 0.950909
0.203926 -0.29149 0.952345
0.204341 -0.293232 0.953691
0.204738 -0.294959 0.954975
0.205138 -0.296695 0.956269
0.205449 -0.298339 0.95725
0.204502 -0.18503 0.959256
0.204221 -0.186137 0.958145
0.20398 -0.187262 0.957172
0.203781 -0.188409 0.956355
0.203431 -0.189466 0.954999
0.203071 -0.190513 0.953606
0.202589 -0.191484 0.951782
0.202047 -0.192414 0.949746
0.201389 -0.193267 0.947298
0.201032 -0.194296 0.945921
0.200857 -0.195432 0.945188
0.200957 -0.196737 0.945432
0.201186 -0.198125 0.946131
0.201479 -0.199555 0.947055
0.201695 -0.200941 0.94771
0.20188 -0.20231 0.948251
0.201922 -0.203588 0.948286
0.201823 -0.204774 0.947824
0.201678 -0.205928 0.947197
0.201469 -0.207038 0.946345
0.201264 -0.208148 0.945504
0.20108 -0.20927 0.944739
0.200939 -0.21042 0.944129
0.200818 -0.211582 0.943588
0.200735 -0.21277 0.943183
0.200634 -0.213944 0.942713
0.200532 -0.215116 0.942239
0.200463 -0.216311 0.941883
0.200379 -0.217495 0.941473
0.200354 -0.218721 0.941274
0.200413 -0.220009 0.941367
0.200517 -0.221332 0.941624
0.200683 -0.222704 0.942099
0.200886 -0.224105 0.942703
0.201049 -0.225479 0.943165
0.201171 -0.226824 0.943484
0.201213 -0.228107 0.943517
0.201153 -0.229312 0.943193
0.201068 -0.230497 0.942781
0.200905 -0.231618 0.942091
0.20078 -0.232769 0.941539
0.200692 -0.233947 0.941114
0.200558 -0.235087 0.940527
0.200415 -0.236219 0.939913
0.200228 -0.237313 0.93914
0.199926 -0.238308 0.937961
0.199526 -0.239218 0.93644
0.199155 -0.240147 0.93502
0.198732 -0.241027 0.933417
0.198315 -0.241907 0.931834
0.197957 -0.242834 0.930463
0.19791 -0.244027 0.930184
0.197947 -0.245295 0.930202
0.198266 -0.246813 0.931216
0.198897 -0.248614 0.933324
0.19984 -0.250703 0.936533
0.200812 -0.252832 0.939842
0.201761 -0.254951 0.943068
0.202458 -0.256851 0.945407
0.202898 -0.258523 0.946838
0.203068 -0.259951 0.947324
0.203083 -0.261234 0.94726
0.203107 -0.262527 0.947229
0.203248 -0.263932 0.947612
0.203417 -0.265365 0.94809
0.203569 -0.266785 0.94851
0.203774 -0.268258 0.949114
0.203977 -0.269731 0.949712
0.20415 -0.271179 0.950206
0.204305 -0.272611 0.950633
0.204512 -0.274097 0.951247
0.20458 -0.275447 0.951369
0.204644 -0.276793 0.951476
0.204663 -0.278095 0.951427
0.204662 -0.279379 0.951309
0.204604 -0.280603 0.950988
0.204541 -0.281822 0.950654
0.204453 -0.283013 0.950227
0.204323 -0.284161 0.949656
0.204294 -0.285414 0.949439
0.204337 -0.286741 0.949474
0.204511 -0.28821 0.949968
0.204834 -0.28984 0.950982
0.205282 -0.291609 0.952436
0.205701 -0.293354 0.95379
0.206094 -0.295074 0.955046
0.206471 -0.296784 0.956251
0.206745 -0.298385 0.957093
0.205644 -0.299857 0.95782
0.206925 -0.299884 0.957605
0.205379 -0.186074 0.957602
0.205136 -0.187199 0.956629
0.204987 -0.188375 0.955991
0.204579 -0.1894 0.954437
0.204184 -0.190428 0.952931
0.203666 -0.191379 0.950989
0.203089 -0.19229 0.948844
0.202537 -0.193208 0.946784
0.202401 -0.194371 0.946193
0.202452 -0.195647 0.94626
0.202728 -0.197063 0.947119
0.203081 -0.198531 0.948248
0.203322 -0.199932 0.948984
0.203474 -0.20128 0.949403
0.203551 -0.202583 0.949562
0.203489 -0.203796 0.949231
0.203324 -0.204941 0.948535
0.203171 -0.206093 0.947883
0.202943 -0.207193 0.946968
0.202739 -0.208306 0.946136
0.202575 -0.209445 0.945445
0.202451 -0.210609 0.944897
0.202311 -0.21176 0.944291
0.202206 -0.212935 0.943811
0.202044 -0.214068 0.943126
0.201876 -0.215196 0.942423
0.201725 -0.216333 0.94178
0.201583 -0.217476 0.941168
0.201502 -0.218661 0.940771
0.201558 -0.219947 0.940854
0.20166 -0.221267 0.941099
0.201828 -0.222639 0.941576
0.202035 -0.224043 0.94219
0.202201 -0.225418 0.942661
0.202304 -0.226748 0.942909
0.202343 -0.228028 0.94293
0.202283 -0.229233 0.942605
0.202178 -0.230402 0.942125
0.202011 -0.231521 0.941426
0.201879 -0.232665 0.94085
0.201773 -0.233829 0.940365
0.201641 -0.234971 0.939788
0.201504 -0.236108 0.939196
0.201319 -0.237204 0.938435
0.201032 -0.238212 0.937314
0.200644 -0.239134 0.935845
0.200289 -0.240078 0.934489
0.19992 -0.241005 0.933082
0.199576 -0.241951 0.931767
0.199441 -0.243072 0.931181
0.199645 -0.244486 0.931784
0.199926 -0.24597 0.932653
0.20048 -0.247698 0.934478
0.201307 -0.249676 0.937261
0.202294 -0.251808 0.940599
0.203031 -0.253727 0.943062
0.203737 -0.255627 0.945416
0.204189 -0.257305 0.94688
0.204404 -0.258771 0.947516
0.204362 -0.260003 0.947256
0.204377 -0.261288 0.947192
0.204379 -0.26256 0.947083
0.204518 -0.263963 0.947455
0.204687 -0.265396 0.947929
0.204822 -0.266798 0.948285
0.205011 -0.268255 0.948828
0.205194 -0.269708 0.949351
0.205345 -0.271134 0.949764
0.20548 -0.272544 0.950118
0.205692 -0.274034 0.95074
0.205763 -0.275386 0.950873
0.205847 -0.276752 0.951048
0.205883 -0.278072 0.95106
0.205884 -0.279356 0.950946
0.205827 -0.280582 0.950629
0.20578 -0.281818 0.950351
0.205711 -0.283031 0.949994
0.205586 -0.284184 0.949442
0.205561 -0.285441 0.949237
0.205641 -0.286808 0.949402
0.205835 -0.288297 0.94996
0.206202 -0.289973 0.951121
0.206659 -0.29175 0.952596
0.207079 -0.293492 0.953938
0.207468 -0.295209 0.955175
0.207826 -0.296895 0.956304
0.208087 -0.298481 0.957095
0.208271 -0.299985 0.957617
0.206032 -0.186991 0.955177
0.206013 -0.188239 0.954995
0.205653 -0.189292 0.953618
0.205334 -0.190365 0.952387
0.204886 -0.191358 0.950703
0.204445 -0.192351 0.949044
0.204012 -0.193343 0.947416
0.204038 -0.194606 0.947392
0.204231 -0.195971 0.947953
0.204608 -0.197451 0.94916
0.204948 -0.198914 0.950234
0.205138 -0.200287 0.950784
0.205199 -0.201581 0.950884
0.20517 -0.202819 0.950668
0.205016 -0.203976 0.950015
0.204783 -0.20508 0.949087
0.204568 -0.206193 0.94822
0.204303 -0.20727 0.947179
0.204095 -0.208383 0.946341
0.203928 -0.209521 0.945644
0.203804 -0.210686 0.945093
0.203664 -0.21184 0.944493
0.20356 -0.213016 0.944014
0.203354 -0.214121 0.943182
0.203143 -0.215219 0.94233
0.202948 -0.216327 0.941538
0.202784 -0.217455 0.940853
0.202668 -0.218615 0.940334
0.202723 -0.2199 0.940412
0.202843 -0.221233 0.940715
0.203011 -0.222604 0.941191
0.203203 -0.223995 0.941746
0.203393 -0.225388 0.942293
0.203514 -0.22673 0.942601
0.203534 -0.227997 0.942558
0.203491 -0.229215 0.942294
0.203383 -0.230382 0.941804
0.203215 -0.231501 0.941105
0.203082 -0.232645 0.940527
0.202997 -0.233827 0.940118
0.202886 -0.234987 0.939616
0.202771 -0.236143 0.939104
0.202622 -0.237269 0.938469
0.202352 -0.238294 0.937416
0.202001 -0.239249 0.936083
0.201687 -0.240231 0.934877
0.201396 -0.241227 0.93375
0.20123 -0.242327 0.933059
0.201284 -0.243614 0.933135
0.201695 -0.24521 0.93445
0.20217 -0.246867 0.935988
0.202887 -0.248742 0.938369
0.203734 -0.25074 0.941198
0.204475 -0.252655 0.943657
0.204955 -0.254347 0.945209
0.205391 -0.256005 0.946609
0.205631 -0.257491 0.947327
0.20565 -0.258779 0.947276
0.205628 -0.260029 0.947085
0.205628 -0.2613 0.946969
0.205629 -0.262572 0.946855
0.205769 -0.263975 0.947226
0.205941 -0.26541 0.947706
0.206084 -0.266819 0.948086
0.206275 -0.268278 0.948633
0.206455 -0.269727 0.94914
0.206584 -0.27113 0.949473
0.206696 -0.272519 0.949745
0.206889 -0.273989 0.950297
0.206961 -0.275341 0.95043
0.207045 -0.276706 0.950602
0.207083 -0.278027 0.950617
0.207083 -0.279311 0.9505
0.207045 -0.280555 0.950252
0.207 -0.281794 0.949981
0.206971 -0.283048 0.949764
0.206887 -0.284245 0.949355
0.206884 -0.285525 0.949228
0.207006 -0.286936 0.949532
0.20726 -0.288489 0.950296
0.207654 -0.290192 0.951541
0.208099 -0.291955 0.952962
0.208519 -0.293697 0.954298
0.208885 -0.295387 0.955446
0.209225 -0.297052 0.956503
0.209475 -0.298624 0.957248
0.209685 -0.300157 0.957853
0.206793 -0.186711 0.953264
0.206926 -0.188041 0.953612
0.206622 -0.189125 0.952438
0.206379 -0.190241 0.951478
0.206011 -0.191282 0.950083
0.205741 -0.192376 0.949029
0.205484 -0.193474 0.94802
0.205693 -0.194848 0.948632
0.206027 -0.1963 0.949681
0.206456 -0.197815 0.951058
0.206749 -0.199251 0.951961
0.206867 -0.200583 0.952258
0.20682 -0.201812 0.951978
0.206666 -0.202973 0.951326
0.206409 -0.204066 0.950318
0.206108 -0.205129 0.949159
0.205849 -0.206215 0.948143
0.205562 -0.207279 0.947032
0.205353 -0.208393 0.946192
0.205219 -0.209554 0.945613
0.205094 -0.21072 0.945065
0.204955 -0.211876 0.94447
0.204833 -0.213041 0.943932
0.204608 -0.214133 0.943034
0.204353 -0.215202 0.942036
0.204153 -0.216307 0.94123
0.20397 -0.217422 0.94048
0.203872 -0.218596 0.940027
0.203929 -0.219882 0.940109
0.204068 -0.221229 0.940478
0.204242 -0.222604 0.940968
0.204438 -0.223997 0.941531
0.204624 -0.225387 0.942062
0.204764 -0.226743 0.942432
0.204785 -0.228011 0.942392
0.204763 -0.229246 0.942202
0.20466 -0.230418 0.94173
0.204531 -0.231568 0.941169
0.204401 -0.232717 0.940604
0.204318 -0.233901 0.940201
0.204205 -0.235061 0.939698
0.204125 -0.236246 0.939306
0.203978 -0.237376 0.938683
0.203765 -0.238451 0.937834
0.203514 -0.239491 0.936851
0.203343 -0.240595 0.936146
0.203221 -0.241739 0.93561
0.203226 -0.242988 0.935512
0.203441 -0.244417 0.936143
0.203974 -0.246121 0.937871
0.204518 -0.247841 0.939632
0.205243 -0.249727 0.942024
0.205883 -0.251547 0.944119
0.206377 -0.253246 0.945707
0.20661 -0.25472 0.946396
0.206814 -0.256171 0.946985
0.206834 -0.257459 0.946938
0.206852 -0.258745 0.946882
0.206832 -0.259998 0.946698
0.206834 -0.261271 0.946589
0.206836 -0.262544 0.946479
0.20698 -0.263949 0.946858
0.207134 -0.265366 0.947273
0.20728 -0.266778 0.947661
0.207473 -0.268237 0.948208
0.207655 -0.269687 0.948719
0.20776 -0.271066 0.948962
0.207889 -0.27247 0.949291
0.20808 -0.273937 0.949833
0.208154 -0.27529 0.949968
0.208236 -0.276653 0.950134
0.208293 -0.277993 0.950213
0.208275 -0.279258 0.950032
0.208258 -0.280525 0.949859
0.208255 -0.281806 0.94973
0.20829 -0.283124 0.949732
0.20827 -0.28439 0.949548
0.208331 -0.285737 0.949639
0.208516 -0.287214 0.950158
0.208818 -0.288816 0.951078
0.209204 -0.29051 0.952286
0.209613 -0.292234 0.953574
0.209988 -0.293928 0.954745
0.21033 -0.29559 0.9558
0.210655 -0.297239 0.956796
0.210932 -0.298841 0.957631
0.211146 -0.300377 0.958244
0.207481 -0.186393 0.951118
0.207701 -0.187768 0.951766
0.20761 -0.18897 0.951333
0.20751 -0.190168 0.950874
0.207321 -0.191313 0.950107
0.207235 -0.192515 0.949692
0.207156 -0.193721 0.949304
0.207498 -0.195176 0.950373
0.207883 -0.196661 0.951588
0.208266 -0.198151 0.952797
0.208487 -0.199545 0.953444
0.208518 -0.200825 0.953433
0.208351 -0.201983 0.952742
0.208096 -0.203083 0.951746
0.207753 -0.204125 0.950446
0.207406 -0.205159 0.949132
0.207106 -0.20622 0.947981
0.206796 -0.207272 0.946797
0.206566 -0.208373 0.945889
0.20645 -0.209546 0.945371
0.206325 -0.210713 0.944825
0.206189 -0.211871 0.944244
0.206068 -0.213038 0.943712
0.205858 -0.214142 0.942872
0.205599 -0.21521 0.941864
0.2054 -0.216317 0.941063
0.205216 -0.217432 0.940315
0.205138 -0.218621 0.939932
0.205197 -0.219909 0.94002
0.205322 -0.221246 0.940338
0.205477 -0.222607 0.940758
0.205654 -0.223985 0.94125
0.205838 -0.225372 0.941771
0.20598 -0.22673 0.942144
0.206024 -0.228015 0.942181
0.206029 -0.229271 0.942082
0.205965 -0.230474 0.941748
0.205878 -0.231659 0.941333
0.205772 -0.232828 0.940853
0.205708 -0.234029 0.940519
0.20563 -0.235218 0.940136
0.205549 -0.236404 0.939741
0.205422 -0.237553 0.939189
0.205271 -0.238681 0.938559
0.205109 -0.239797 0.937887
0.205048 -0.240996 0.937563
0.205096 -0.242285 0.937611
0.205257 -0.24367 0.938049
0.205607 -0.245217 0.939137
0.206238 -0.247008 0.941188
0.206803 -0.24875 0.94301
0.207315 -0.250454 0.944653
0.207734 -0.252083 0.945973
0.207993 -0.253578 0.946745
0.208018 -0.254869 0.946713
0.20802 -0.256141 0.946606
0.208039 -0.257428 0.946552
0.208035 -0.258695 0.946422
0.208017 -0.259949 0.946244
0.208019 -0.261222 0.946135
0.20804 -0.262512 0.946091
0.208183 -0.263916 0.946462
0.208338 -0.265333 0.946877
0.208484 -0.266744 0.947261
0.208676 -0.268201 0.9478
0.208841 -0.269633 0.948247
0.208927 -0.270994 0.948424
0.209038 -0.272379 0.948687
0.209189 -0.273805 0.949086
0.209261 -0.275156 0.949214
0.209345 -0.27652 0.949384
0.209405 -0.277862 0.949472
0.209407 -0.279146 0.94936
0.209449 -0.280471 0.949386
0.209472 -0.281778 0.949348
0.209558 -0.283149 0.949522
0.209605 -0.284481 0.949566
0.209754 -0.28592 0.949957
0.209991 -0.287451 0.950648
0.210343 -0.289104 0.95173
0.210732 -0.290802 0.952942
0.211118 -0.292501 0.954141
0.211428 -0.294125 0.955081
0.211744 -0.295759 0.956041
0.21207 -0.297409 0.957034
0.212355 -0.299017 0.957884
0.212574 -0.300559 0.958512
0.208349 -0.186177 0.949614
0.208527 -0.187526 0.950111
0.208524 -0.188776 0.949985
0.208463 -0.189994 0.949661
0.208485 -0.191258 0.949621
0.208613 -0.192584 0.949943
0.208736 -0.19391 0.950253
0.209122 -0.195392 0.951461
0.209551 -0.196905 0.952819
0.209846 -0.198342 0.953714
0.20998 -0.199686 0.954058
0.209917 -0.20091 0.953724
0.209744 -0.202066 0.953017
0.209465 -0.203153 0.951943
0.209077 -0.204168 0.950494
0.208684 -0.205176 0.94903
0.208337 -0.206208 0.947725
0.207988 -0.207236 0.946413
0.207739 -0.208325 0.945443
0.207624 -0.2095 0.944934
0.207519 -0.21068 0.944457
0.207424 -0.211867 0.944017
0.207322 -0.213048 0.943552
0.207149 -0.214179 0.942847
0.206927 -0.215274 0.94197
0.206749 -0.216397 0.941246
0.206568 -0.217516 0.94051
0.206512 -0.218723 0.940205
0.20657 -0.220011 0.940287
0.206696 -0.221349 0.940604
0.206811 -0.22268 0.940882
0.206945 -0.224028 0.941226
0.207107 -0.225399 0.941666
0.207232 -0.226743 0.941976
0.207284 -0.228034 0.942039
0.20733 -0.229322 0.942081
0.207329 -0.230574 0.94196
0.207283 -0.231792 0.941689
0.207198 -0.232979 0.941282
0.207137 -0.234185 0.940957
0.207074 -0.235388 0.940627
0.206992 -0.236575 0.940231
0.206907 -0.237759 0.939825
0.206879 -0.23899 0.939616
0.206842 -0.240211 0.939373
0.206872 -0.241489 0.939359
0.207066 -0.242902 0.939905
0.207353 -0.244396 0.940769
0.207762 -0.245997 0.942048
0.208211 -0.247637 0.943464
0.20859 -0.249222 0.944639
0.208855 -0.250715 0.945426
0.209029 -0.252132 0.945904
0.209076 -0.253441 0.945946
0.209122 -0.25475 0.945986
0.209148 -0.256042 0.945957
0.209188 -0.257347 0.945977
0.209186 -0.258616 0.945854
0.209184 -0.259884 0.945729
0.209184 -0.261154 0.945611
0.209206 -0.262445 0.94557
0.209329 -0.26383 0.945873
0.209482 -0.265244 0.946275
0.209621 -0.266647 0.946631
0.209794 -0.268084 0.947102
0.20996 -0.269517 0.947549
0.210052 -0.270881 0.947744
0.210164 -0.272267 0.948005
0.210273 -0.273651 0.948261
0.210363 -0.275018 0.948448
0.21045 -0.276384 0.948625
0.210515 -0.277729 0.948729
0.21054 -0.279035 0.948693
0.210622 -0.2804 0.948855
0.210669 -0.281731 0.948897
0.210784 -0.28313 0.949168
0.210901 -0.284533 0.949448
0.211122 -0.286044 0.950078
0.211409 -0.287626 0.950932
0.21179 -0.289309 0.952107
0.212158 -0.290984 0.953238
0.212496 -0.292631 0.954264
0.212755 -0.2942 0.955022
0.213069 -0.295831 0.955967
0.213402 -0.297486 0.956977
0.213736 -0.299147 0.957989
0.213999 -0.300736 0.958762
0.214863 -0.304357 0.966201
0.214275 -0.302342 0.959576
0.209575 -0.184907 0.949461
0.209484 -0.186108 0.949035
0.209659 -0.187455 0.949518
0.209793 -0.18878 0.949857
0.209883 -0.190084 0.950049
0.21008 -0.191449 0.950607
0.21035 -0.192859 0.951411
0.210483 -0.194193 0.951748
0.21076 -0.195613 0.952579
0.211085 -0.197066 0.953573
0.211254 -0.198429 0.954031
0.211277 -0.199706 0.953993
0.211214 -0.200931 0.953659
0.211023 -0.202077 0.952893
0.21072 -0.203151 0.951742
0.210305 -0.204151 0.95021
0.209885 -0.205143 0.948663
0.209495 -0.206149 0.947218
0.209141 -0.207175 0.945896
0.208889 -0.208263 0.944923
0.208795 -0.209452 0.944484
0.208693 -0.210635 0.944023
0.208639 -0.211849 0.943721
0.208558 -0.213045 0.943331
0.208427 -0.214205 0.94277
0.20823 -0.215319 0.941982
0.208095 -0.216474 0.941409
0.207917 -0.217597 0.940688
0.207878 -0.218817 0.940439
0.207917 -0.220092 0.940456
0.208 -0.2214 0.940624
0.208073 -0.222701 0.940755
0.208179 -0.224027 0.940998
0.208319 -0.225382 0.941361
0.208445 -0.226726 0.941672
0.20852 -0.228035 0.941812
0.208589 -0.22934 0.941929
0.208627 -0.230623 0.941943
0.208603 -0.231858 0.941744
0.208542 -0.233065 0.941421
0.2085 -0.234287 0.941162
0.208458 -0.235508 0.940904
0.208396 -0.236712 0.940576
0.208371 -0.237947 0.940377
0.20841 -0.239232 0.940393
0.208441 -0.240512 0.940383
0.208534 -0.241843 0.940581
0.208767 -0.24329 0.941253
0.209086 -0.244813 0.942219
0.209381 -0.246319 0.943103
0.209703 -0.247852 0.944077
0.209948 -0.249324 0.944791
0.210082 -0.250704 0.945127
0.210124 -0.252008 0.945153
0.21017 -0.253314 0.94519
0.21022 -0.254626 0.945243
0.210249 -0.25592 0.945223
0.210291 -0.257226 0.945247
0.210271 -0.258478 0.945064
0.210288 -0.259763 0.945004
0.210289 -0.261033 0.944887
0.21033 -0.262341 0.94491
0.210455 -0.263726 0.945215
0.210609 -0.265139 0.945618
0.210724 -0.266519 0.94589
0.210915 -0.267971 0.946415
0.211084 -0.269405 0.946868
0.211179 -0.270772 0.947073
0.21131 -0.272174 0.947398
0.211437 -0.273574 0.947707
0.211525 -0.274938 0.947885
0.211615 -0.276306 0.94807
0.211686 -0.277656 0.948191
0.211712 -0.278964 0.948161
0.211795 -0.280329 0.948324
0.211864 -0.28168 0.948436
0.212002 -0.283102 0.948783
0.212164 -0.28455 0.94921
0.212431 -0.286107 0.949992
0.212723 -0.287693 0.950859
0.213087 -0.289357 0.951967
0.213428 -0.291001 0.952997
0.213741 -0.292621 0.953933
0.213978 -0.294165 0.954611
0.214298 -0.2958 0.955567
0.214658 -0.297481 0.956659
0.215 -0.299149 0.957691
0.215268 -0.300742 0.958473
0.215527 -0.302327 0.959224
0.21634 -0.305897 0.966451
0.215562 -0.303675 0.95922
0.20969 -0.183718 0.949972
0.211387 -0.182693 0.951415
0.211213 -0.183854 0.950707
0.211094 -0.185044 0.950185
0.210981 -0.186235 0.949687
0.211099 -0.187552 0.94997
0.211234 -0.18888 0.950312
0.211329 -0.190187 0.950519
0.211559 -0.191572 0.951181
0.2118 -0.192966 0.951883
0.21195 -0.194311 0.952275
0.212202 -0.195717 0.95301
0.212482 -0.197143 0.953844
0.212587 -0.198469 0.954082
0.212608 -0.199746 0.954035
0.212503 -0.200947 0.953564
0.212274 -0.20207 0.952668
0.21195 -0.203133 0.951455
0.211493 -0.204108 0.949788
0.211029 -0.205074 0.9481
0.210592 -0.206052 0.946506
0.210213 -0.207062 0.945104
0.209939 -0.208136 0.944062
0.209845 -0.209324 0.943626
0.209745 -0.210508 0.943173
0.20973 -0.211748 0.943006
0.209677 -0.212962 0.94271
0.20961 -0.214166 0.942367
0.209477 -0.215325 0.941802
0.209406 -0.216524 0.941443
0.209267 -0.217677 0.940859
0.209264 -0.218923 0.940732
0.209263 -0.22017 0.940613
0.209302 -0.221448 0.94063
0.209328 -0.222716 0.940602
0.209391 -0.224011 0.940696
0.209492 -0.225336 0.940923
0.209617 -0.226679 0.941228
0.209712 -0.228002 0.941432
0.209801 -0.229322 0.941616
0.209862 -0.230622 0.941706
0.209859 -0.231874 0.941578
0.209819 -0.233098 0.941326
0.209778 -0.234321 0.941073
0.209757 -0.235559 0.940885
0.209716 -0.236781 0.940629
0.209735 -0.238051 0.940577
0.209822 -0.239376 0.940753
0.209916 -0.240708 0.940954
0.210051 -0.242074 0.941292
0.210312 -0.243546 0.942056
0.210567 -0.245016 0.942796
0.210795 -0.246467 0.943447
0.211016 -0.247915 0.944073
0.211164 -0.249304 0.944453
0.211222 -0.25062 0.944532
0.211262 -0.25192 0.944549
0.211306 -0.253225 0.944579
0.211353 -0.254534 0.94462
0.211398 -0.255841 0.944655
0.211423 -0.257132 0.944621
0.211385 -0.258366 0.944373
0.211403 -0.259652 0.944316
0.211422 -0.260938 0.944263
0.211471 -0.262252 0.944308
0.211581 -0.263622 0.94456
0.211733 -0.265033 0.944952
0.211848 -0.266411 0.945221
0.212041 -0.267864 0.94575
0.212215 -0.269302 0.946217
0.212332 -0.270688 0.946491
0.212462 -0.272088 0.94681
0.212568 -0.273467 0.947047
0.212655 -0.274829 0.94722
0.212747 -0.276198 0.947409
0.21284 -0.277569 0.947603
0.212888 -0.278897 0.947643
0.21297 -0.28026 0.947798
0.213055 -0.281627 0.947966
0.21319 -0.283044 0.948299
0.213354 -0.284494 0.948729
0.213639 -0.286067 0.949565
0.213931 -0.28765 0.950423
0.214249 -0.289265 0.95137
0.214547 -0.290863 0.952248
0.214818 -0.292436 0.953035
0.215019 -0.293941 0.953586
0.215346 -0.29558 0.954561
0.215735 -0.297289 0.955744
0.216103 -0.298981 0.956853
0.216413 -0.300615 0.957771
0.216694 -0.302223 0.958588
0.216752 -0.303595 0.958661
0.213187 -0.182968 0.953068
0.212897 -0.184073 0.951971
0.212695 -0.185222 0.951175
0.212575 -0.186412 0.950651
0.212662 -0.187714 0.950828
0.21281 -0.189051 0.95121
0.212897 -0.190356 0.951385
0.213123 -0.19174 0.952031
0.213331 -0.193117 0.952614
0.213479 -0.194462 0.952996
0.213668 -0.195833 0.953516
0.213861 -0.197209 0.954048
0.213883 -0.198486 0.954003
0.213858 -0.199736 0.9538
0.21371 -0.200911 0.953183
0.213437 -0.202009 0.952149
0.213088 -0.203057 0.950855
0.212607 -0.204019 0.949117
0.212119 -0.204971 0.947358
0.211641 -0.205924 0.945633
0.211256 -0.206931 0.94422
0.210976 -0.208001 0.943162
0.210844 -0.209165 0.942603
0.210706 -0.210323 0.942021
0.21071 -0.211574 0.941919
0.210675 -0.212799 0.941683
0.210657 -0.214035 0.941506
0.210612 -0.215253 0.941238
0.210604 -0.216497 0.941097
0.210504 -0.217677 0.940644
0.210501 -0.218923 0.940517
0.210495 -0.220167 0.940379
0.210516 -0.221431 0.940333
0.210538 -0.222697 0.940293
0.210581 -0.223978 0.940318
0.210661 -0.225286 0.940469
0.210767 -0.226615 0.940708
0.210861 -0.227937 0.940907
0.210952 -0.229258 0.941096
0.211034 -0.230574 0.941256
0.211053 -0.231842 0.941202
0.211032 -0.233081 0.941015
0.211012 -0.23432 0.940829
0.211012 -0.235575 0.940711
0.210974 -0.2368 0.940468
0.211015 -0.238088 0.940489
0.211123 -0.239429 0.940731
0.21124 -0.24078 0.941007
0.211355 -0.242131 0.941277
0.211599 -0.243587 0.941974
0.211828 -0.245036 0.942625
0.212009 -0.246447 0.943113
0.212194 -0.247865 0.943614
0.212344 -0.249254 0.943996
0.212405 -0.250572 0.944084
0.212445 -0.251872 0.9441
0.21249 -0.253177 0.94413
0.212535 -0.254484 0.944164
0.212558 -0.255772 0.944123
0.212576 -0.257056 0.944064
0.212514 -0.25827 0.943739
0.212533 -0.259555 0.943681
0.212558 -0.260847 0.94365
0.21263 -0.26218 0.94377
0.212743 -0.263552 0.944029
0.212915 -0.26498 0.944485
0.213052 -0.266378 0.944824
0.21325 -0.267834 0.945365
0.213429 -0.269275 0.945843
0.213547 -0.270661 0.946118
0.213676 -0.27206 0.946431
0.213743 -0.273402 0.946535
0.213832 -0.274766 0.946713
0.213924 -0.276134 0.9469
0.214016 -0.277502 0.947086
0.214064 -0.27883 0.947127
0.214164 -0.28021 0.947339
0.214249 -0.281577 0.947505
0.214363 -0.282973 0.947765
0.214505 -0.284398 0.948116
0.214745 -0.285923 0.948795
0.214949 -0.287417 0.949356
0.215199 -0.288958 0.950066
0.215471 -0.290526 0.950853
0.215724 -0.292078 0.951572
0.215934 -0.293589 0.952151
0.216305 -0.295271 0.953265
0.216717 -0.296999 0.954516
0.217083 -0.298685 0.955612
0.217416 -0.30034 0.956598
0.217719 -0.301968 0.957483
0.217803 -0.303366 0.95764
0.214784 -0.183135 0.954017
0.214534 -0.184265 0.953059
0.214356 -0.185429 0.952344
0.21423 -0.186619 0.951802
0.214255 -0.18789 0.951768
0.214347 -0.189198 0.951959
0.214418 -0.190496 0.952079
0.2146 -0.191857 0.952574
0.214769 -0.193213 0.953019
0.214932 -0.194568 0.953448
0.215097 -0.195926 0.953883
0.21521 -0.197255 0.954141
0.215185 -0.198506 0.953942
0.215089 -0.199715 0.953501
0.214873 -0.20085 0.952659
0.214533 -0.201908 0.951401
0.214155 -0.202939 0.950019
0.213648 -0.203886 0.948207
0.213158 -0.204838 0.946451
0.21266 -0.205778 0.944665
0.212288 -0.206794 0.943307
0.212007 -0.207864 0.942249
0.211835 -0.209001 0.941558
0.211652 -0.210129 0.940829
0.211629 -0.211361 0.940635
0.211591 -0.212582 0.94039
0.211617 -0.213847 0.940361
0.211642 -0.215111 0.940327
0.211705 -0.216402 0.940421
0.211665 -0.217624 0.940173
0.211681 -0.218883 0.940108
0.211639 -0.220103 0.939852
0.211659 -0.221365 0.9398
0.211682 -0.222631 0.939759
0.211728 -0.223914 0.939798
0.211791 -0.225209 0.939889
0.211895 -0.226536 0.940121
0.211986 -0.227854 0.940304
0.21208 -0.229177 0.940501
0.212167 -0.230495 0.940673
0.212208 -0.231781 0.940694
0.212206 -0.233034 0.940571
0.212186 -0.234272 0.940384
0.212186 -0.235528 0.940268
0.212168 -0.236769 0.940091
0.212212 -0.238058 0.940118
0.212353 -0.239426 0.940471
0.212511 -0.240809 0.94088
0.212652 -0.24218 0.94123
0.212886 -0.243628 0.94189
0.213117 -0.245077 0.94254
0.213258 -0.246456 0.942892
0.213399 -0.247836 0.943242
0.213527 -0.249207 0.94355
0.21359 -0.250526 0.943641
0.213633 -0.251828 0.943666
0.213682 -0.253137 0.94371
0.213712 -0.25443 0.943691
0.213712 -0.255698 0.943572
0.213702 -0.256957 0.94342
0.213616 -0.258149 0.943013
0.213632 -0.259432 0.94295
0.21368 -0.260743 0.942991
0.213756 -0.262079 0.943122
0.213888 -0.263467 0.943442
0.21408 -0.264912 0.943959
0.214238 -0.266328 0.944366
0.214443 -0.26779 0.944927
0.214647 -0.269252 0.945482
0.214763 -0.270636 0.945748
0.214911 -0.272052 0.946119
0.214978 -0.273393 0.946221
0.215067 -0.274757 0.946398
0.215159 -0.276124 0.946582
0.215251 -0.277493 0.946768
0.215278 -0.2788 0.946738
0.215361 -0.280163 0.946892
0.215448 -0.28153 0.947059
0.215544 -0.282907 0.947255
0.215662 -0.284309 0.947527
0.215857 -0.285788 0.948052
0.216012 -0.287231 0.948446
0.216195 -0.288703 0.948931
0.216444 -0.290243 0.94963
0.216676 -0.291771 0.950278
0.216886 -0.293279 0.95085
0.217259 -0.294958 0.951963
0.217692 -0.296704 0.953272
0.218057 -0.298385 0.954359
0.218435 -0.300083 0.955484
0.218784 -0.301757 0.956516
0.218943 -0.303232 0.956919
0.216698 -0.182198 0.95612
0.216447 -0.183333 0.955164
0.216256 -0.184497 0.954409
0.216101 -0.185677 0.953773
0.215991 -0.18688 0.953289
0.215992 -0.188141 0.953172
0.216055 -0.189437 0.953266
0.2161 -0.190723 0.953296
0.21624 -0.192063 0.953645
0.21635 -0.193388 0.953892
0.21649 -0.194731 0.954239
0.216592 -0.196055 0.95446
0.216598 -0.197324 0.954361
0.216486 -0.198525 0.95387
0.21628 -0.199669 0.953064
0.215953 -0.200739 0.951856
0.215519 -0.201741 0.950294
0.215094 -0.202744 0.948765
0.214581 -0.203687 0.94694
0.214113 -0.204652 0.945266
0.213656 -0.20562 0.943629
0.213328 -0.206663 0.942423
0.213065 -0.207745 0.941433
0.212871 -0.208868 0.940671
0.212623 -0.209953 0.939728
0.212526 -0.211136 0.939292
0.212457 -0.212335 0.938944
0.212506 -0.213613 0.93899
0.212567 -0.2149 0.939073
0.212698 -0.216235 0.939392
0.212722 -0.217499 0.939354
0.212756 -0.21877 0.93935
0.212715 -0.21999 0.939096
0.212758 -0.221268 0.939121
0.212808 -0.222553 0.939172
0.212877 -0.223851 0.939281
0.21294 -0.225146 0.939374
0.213023 -0.226457 0.939532
0.213111 -0.227773 0.939704
0.213187 -0.229081 0.939837
0.213276 -0.2304 0.940015
0.21334 -0.231702 0.94011
0.213341 -0.232956 0.939994
0.21332 -0.234195 0.939807
0.213339 -0.235463 0.939751
0.213321 -0.236704 0.939574
0.213343 -0.237977 0.939528
0.213466 -0.239329 0.939817
0.213622 -0.240709 0.940216
0.213788 -0.242099 0.940648
0.214014 -0.24354 0.941275
0.214251 -0.244993 0.941942
0.21443 -0.246401 0.942415
0.214565 -0.247775 0.942742
0.214673 -0.249129 0.94298
0.214755 -0.250462 0.94313
0.214839 -0.251799 0.943291
0.214914 -0.253129 0.943419
0.214927 -0.254408 0.943342
0.214906 -0.255658 0.943153
0.214873 -0.256897 0.942925
0.214759 -0.258066 0.942431
0.214758 -0.259333 0.942309
0.214826 -0.26066 0.942412
0.214942 -0.262032 0.942675
0.215096 -0.263439 0.943065
0.21531 -0.264902 0.94365
0.215493 -0.266341 0.944135
0.215699 -0.267802 0.944695
0.215904 -0.269265 0.94525
0.216039 -0.270666 0.945575
0.216189 -0.272083 0.945947
0.216257 -0.273425 0.946051
0.216349 -0.274791 0.946234
0.216418 -0.276137 0.946341
0.216488 -0.277485 0.946452
0.216514 -0.27879 0.946416
0.216601 -0.280157 0.946582
0.216692 -0.281527 0.946761
0.21679 -0.282908 0.946965
0.216905 -0.284305 0.947222
0.217057 -0.285741 0.947601
0.217169 -0.287139 0.947848
0.217306 -0.288563 0.948176
0.217529 -0.290077 0.948789
0.21774 -0.29158 0.94936
0.21795 -0.293086 0.949929
0.218304 -0.294742 0.950972
0.218734 -0.296483 0.952263
0.219081 -0.29814 0.953279
0.21944 -0.299816 0.954335
0.21982 -0.301518 0.955461
0.220049 -0.303066 0.956091
0.217977 -0.183461 0.955852
0.217819 -0.184644 0.955213
0.217704 -0.185848 0.954711
0.217608 -0.187061 0.954272
0.217588 -0.188313 0.954088
0.217674 -0.189623 0.954253
0.217742 -0.190925 0.954361
0.217834 -0.192239 0.954543
0.217924 -0.193555 0.954723
0.218038 -0.194886 0.954981
0.218049 -0.19616 0.954899
0.217949 -0.19737 0.954449
0.217764 -0.198529 0.953718
0.217464 -0.19962 0.952606
0.217043 -0.200635 0.951094
0.216538 -0.201595 0.949305
0.216086 -0.202581 0.947692
0.215572 -0.203525 0.945877
0.215131 -0.204508 0.944301
0.214719 -0.205504 0.942823
0.214436 -0.206576 0.94177
0.214197 -0.207673 0.940862
0.213983 -0.208784 0.94004
0.213707 -0.209852 0.93901
0.213539 -0.210988 0.938339
0.213421 -0.212154 0.937831
0.213446 -0.213415 0.937796
0.213533 -0.214718 0.937967
0.213716 -0.216086 0.938453
0.213803 -0.217392 0.938622
0.213858 -0.218677 0.938685
0.213836 -0.219909 0.938496
0.2139 -0.221202 0.938589
0.213954 -0.222488 0.938647
0.214027 -0.223789 0.938772
0.214093 -0.225086 0.93887
0.214153 -0.22638 0.938949
0.214237 -0.227692 0.93911
0.21429 -0.228983 0.939166
0.214363 -0.230289 0.939289
0.214428 -0.23159 0.939384
0.214429 -0.232844 0.939267
0.214408 -0.234082 0.93908
0.214447 -0.235366 0.93909
0.21445 -0.236623 0.938982
0.214472 -0.237895 0.938937
0.214597 -0.239247 0.939228
0.214751 -0.240624 0.939615
0.214922 -0.242017 0.940058
0.215149 -0.243457 0.940686
0.21537 -0.244895 0.941293
0.215546 -0.2463 0.941754
0.21566 -0.247656 0.942008
0.215769 -0.249009 0.942246
0.215854 -0.250345 0.942406
0.215981 -0.251717 0.942705
0.216076 -0.253062 0.942895
0.216109 -0.254358 0.942887
0.216089 -0.255608 0.942698
0.216053 -0.256846 0.942463
0.21596 -0.258033 0.942039
0.21596 -0.2593 0.941917
0.216051 -0.260648 0.942095
0.21619 -0.26204 0.942433
0.216369 -0.263468 0.942898
0.216588 -0.264936 0.943499
0.216814 -0.266411 0.944117
0.217022 -0.267874 0.944678
0.217227 -0.269338 0.945231
0.217343 -0.270721 0.945489
0.217472 -0.272118 0.945791
0.217501 -0.273425 0.945766
0.217573 -0.274771 0.945881
0.217623 -0.276099 0.945922
0.217689 -0.277441 0.946016
0.217733 -0.278765 0.94604
0.217842 -0.280152 0.946278
0.217938 -0.281527 0.946468
0.218037 -0.282907 0.946672
0.21817 -0.284322 0.946987
0.218303 -0.285738 0.947298
0.218396 -0.287117 0.947482
0.218513 -0.288522 0.947744
0.218713 -0.29001 0.948274
0.218877 -0.291465 0.948689
0.219066 -0.292948 0.949185
0.219402 -0.294583 0.950159
0.219814 -0.296301 0.951382
0.22016 -0.297955 0.952388
0.220539 -0.299648 0.953503
0.220947 -0.301376 0.954711
0.221208 -0.302956 0.955439
0.219353 -0.183509 0.956023
0.219186 -0.184688 0.955352
0.21906 -0.185888 0.954819
0.21896 -0.1871 0.95437
0.219003 -0.188387 0.954392
0.219168 -0.18974 0.954813
0.219279 -0.191066 0.955059
0.219378 -0.192387 0.955265
0.219465 -0.193703 0.955432
0.219489 -0.194985 0.955391
0.219387 -0.196195 0.954935
0.219191 -0.197351 0.954169
0.218932 -0.198469 0.953199
0.218523 -0.199497 0.951734
0.218048 -0.200481 0.950054
0.217514 -0.201425 0.948182
0.217059 -0.20241 0.946568
0.216553 -0.203359 0.944786
0.216175 -0.204381 0.943428
0.21583 -0.205419 0.942176
0.215612 -0.206532 0.941342
0.215419 -0.207659 0.94059
0.215225 -0.208784 0.939837
0.214927 -0.209839 0.938742
0.214694 -0.210933 0.937859
0.214546 -0.212081 0.937256
0.214547 -0.213325 0.937142
0.214616 -0.214615 0.937251
0.214823 -0.215998 0.937809
0.214932 -0.217318 0.938048
0.214988 -0.218603 0.938116
0.214986 -0.219849 0.937992
0.215072 -0.221157 0.938155
0.215129 -0.222445 0.938221
0.21522 -0.223758 0.938401
0.215283 -0.225053 0.938492
0.215303 -0.226317 0.938437
0.215367 -0.227614 0.938527
0.215415 -0.228901 0.938566
0.215467 -0.230191 0.938618
0.215509 -0.231475 0.938638
0.215529 -0.232743 0.938585
0.215528 -0.233995 0.938462
0.21557 -0.23528 0.938481
0.215619 -0.236572 0.938522
0.215665 -0.237862 0.938554
0.215791 -0.239215 0.938846
0.215922 -0.240574 0.939156
0.216066 -0.241944 0.939507
0.216249 -0.243348 0.939985
0.216428 -0.244751 0.940451
0.216562 -0.246119 0.940768
0.216675 -0.247473 0.941018
0.21681 -0.248846 0.941337
0.216923 -0.250203 0.941588
0.217077 -0.251596 0.94197
0.217191 -0.252957 0.942221
0.217242 -0.254267 0.942268
0.217221 -0.255516 0.942079
0.217189 -0.256756 0.941855
0.21714 -0.257982 0.941575
0.217183 -0.259286 0.941595
0.217301 -0.260657 0.941859
0.217486 -0.262088 0.942342
0.217731 -0.263575 0.943021
0.217979 -0.265068 0.943709
0.218209 -0.266547 0.944335
0.218417 -0.268011 0.944894
0.218599 -0.269452 0.945364
0.218673 -0.270798 0.945482
0.218783 -0.272178 0.945719
0.218811 -0.273483 0.94569
0.218859 -0.274808 0.945725
0.218885 -0.276113 0.945689
0.218928 -0.277435 0.945707
0.218972 -0.278758 0.94573
0.219084 -0.280147 0.945972
0.219185 -0.281527 0.946178
0.219282 -0.282905 0.946373
0.219415 -0.284319 0.946683
0.219507 -0.285695 0.946861
0.219585 -0.287058 0.94699
0.21968 -0.288439 0.947179
0.219879 -0.289925 0.947701
0.220041 -0.291378 0.948107
0.220253 -0.292881 0.94867
0.220571 -0.294497 0.949582
0.220964 -0.296192 0.950733
0.221305 -0.297838 0.951715
0.221662 -0.299506 0.95275
0.222134 -0.301298 0.954158
0.222703 -0.303197 0.95588
0.220394 -0.18465 0.954966
0.220307 -0.18587 0.95456
0.220346 -0.187155 0.954567
0.220499 -0.188501 0.954948
0.220753 -0.189903 0.955658
0.220919 -0.191261 0.95608
0.221044 -0.192598 0.95637
0.221068 -0.193882 0.956328
0.221037 -0.195135 0.956106
0.220839 -0.196294 0.955338
0.220547 -0.197398 0.954262
0.220177 -0.198454 0.952933
0.219676 -0.19943 0.951178
0.219114 -0.200364 0.949223
0.218555 -0.201295 0.947279
0.218101 -0.202281 0.945676
0.217619 -0.203245 0.943983
0.217287 -0.204296 0.94278
0.217003 -0.205372 0.941736
0.216808 -0.2065 0.94098
0.216619 -0.207631 0.940245
0.216429 -0.208758 0.939507
0.21615 -0.209828 0.938481
0.215879 -0.210898 0.937477
0.215729 -0.212045 0.93687
0.215745 -0.213299 0.936805
0.215809 -0.214585 0.936895
0.216015 -0.215967 0.937447
0.216146 -0.217301 0.937754
0.216224 -0.218602 0.937892
0.216204 -0.219836 0.937709
0.21629 -0.221143 0.937869
0.216324 -0.222416 0.937863
0.216413 -0.223727 0.938033
0.216456 -0.225007 0.938053
0.216455 -0.226256 0.93793
0.216496 -0.227537 0.937946
0.216523 -0.228807 0.937913
0.216571 -0.230093 0.937951
0.216593 -0.231361 0.937903
0.216629 -0.232641 0.937904
0.21665 -0.233909 0.937852
0.216718 -0.235214 0.937955
0.216794 -0.236526 0.938083
0.216887 -0.237851 0.938263
0.217014 -0.239205 0.938558
0.217123 -0.240546 0.938792
0.217236 -0.241891 0.939038
0.217352 -0.243241 0.939295
0.217462 -0.244588 0.939533
0.217591 -0.245951 0.939831
0.217725 -0.24732 0.940146
0.217887 -0.248714 0.940552
0.21803 -0.250094 0.940896
0.218209 -0.251506 0.941358
0.218304 -0.25285 0.941542
0.218331 -0.25414 0.941513
0.218331 -0.255406 0.941389
0.218325 -0.256668 0.941251
0.218325 -0.257934 0.941129
0.218435 -0.259297 0.941367
0.218621 -0.260727 0.941849
0.218834 -0.262182 0.942417
0.219128 -0.263712 0.94325
0.2194 -0.265225 0.944007
0.219613 -0.26669 0.944577
0.2198 -0.268134 0.945059
0.219959 -0.269555 0.945454
0.220009 -0.270879 0.945491
0.220073 -0.272217 0.945576
0.220094 -0.273517 0.945524
0.22012 -0.274821 0.945487
0.220124 -0.276106 0.945377
0.220145 -0.277407 0.945324
0.22021 -0.27875 0.945413
0.220305 -0.280122 0.945597
0.220408 -0.281503 0.945807
0.220505 -0.28288 0.945998
0.220636 -0.284292 0.946299
0.220705 -0.285645 0.946401
0.220802 -0.287027 0.946593
0.2209 -0.28841 0.946785
0.221101 -0.289897 0.947311
0.221265 -0.291349 0.947717
0.221479 -0.292855 0.948285
0.221758 -0.294428 0.949061
0.222128 -0.296098 0.950131
0.222465 -0.297738 0.951096
0.22282 -0.299401 0.952116
0.223428 -0.301331 0.953954
0.224271 -0.30351 0.956543
0.222466 -0.190132 0.956904
0.22263 -0.191491 0.957317
0.222714 -0.192808 0.957467
0.222667 -0.194056 0.957192
0.222569 -0.195275 0.956755
0.222299 -0.196396 0.955756
0.221912 -0.197448 0.954377
0.221449 -0.198454 0.952754
0.220857 -0.199379 0.950711
0.220248 -0.200288 0.948616
0.219664 -0.201205 0.946598
0.219211 -0.202193 0.945011
0.21877 -0.203184 0.943461
0.218462 -0.204249 0.94234
0.218216 -0.20535 0.941426
0.218041 -0.206491 0.940737
0.217871 -0.207634 0.940067
0.217681 -0.208764 0.939334
0.217441 -0.209859 0.938438
0.217192 -0.210945 0.93751
0.217046 -0.212096 0.93692
0.217045 -0.21334 0.936798
0.217108 -0.214626 0.936883
0.217293 -0.215993 0.937361
0.217382 -0.2173 0.937531
0.217461 -0.218601 0.937669
0.217441 -0.219835 0.937484
0.217508 -0.221129 0.937584
0.217519 -0.222385 0.937499
0.217605 -0.223695 0.937659
0.217627 -0.22496 0.937609
0.217626 -0.226209 0.937486
0.217665 -0.227488 0.937495
0.217691 -0.228757 0.93746
0.217738 -0.230043 0.937491
0.217763 -0.231313 0.937453
0.217801 -0.232593 0.937456
0.217824 -0.233863 0.937412
0.217896 -0.23517 0.937525
0.217993 -0.236497 0.937719
0.218113 -0.237843 0.937986
0.218224 -0.239184 0.938224
0.218312 -0.240509 0.93839
0.218398 -0.241832 0.938545
0.218444 -0.243127 0.938575
0.218488 -0.24442 0.938598
0.218594 -0.245763 0.938818
0.218707 -0.247114 0.939063
0.218852 -0.248491 0.939409
0.21904 -0.249906 0.939894
0.219244 -0.251337 0.940431
0.219359 -0.252697 0.940682
0.219426 -0.254018 0.940778
0.219487 -0.255335 0.940852
0.219509 -0.25662 0.940803
0.219558 -0.257928 0.940838
0.219716 -0.259332 0.941229
0.219928 -0.260784 0.94179
0.220167 -0.26226 0.942435
0.220486 -0.263811 0.943341
0.220784 -0.265347 0.944178
0.220999 -0.266813 0.944748
0.221182 -0.268254 0.945216
0.221315 -0.269652 0.945521
0.221338 -0.270953 0.945473
0.221359 -0.272252 0.945418
0.221358 -0.273532 0.945294
0.221359 -0.274813 0.945173
0.22134 -0.276077 0.944991
0.221341 -0.277358 0.944871
0.221427 -0.278721 0.945024
0.221524 -0.280094 0.945214
0.221627 -0.281476 0.945425
0.221725 -0.282853 0.945614
0.221853 -0.284261 0.945904
0.221878 -0.285571 0.945862
0.221971 -0.286947 0.946036
0.222068 -0.288329 0.946225
0.222275 -0.289821 0.946766
0.222445 -0.291279 0.947188
0.222702 -0.292825 0.947889
0.22296 -0.294376 0.948594
0.223328 -0.296041 0.949649
0.223663 -0.297678 0.950599
0.224064 -0.299385 0.95176
0.224782 -0.301423 0.953934
0.225843 -0.303824 0.957208
0.224368 -0.190457 0.958739
0.224431 -0.191765 0.95882
0.224397 -0.193023 0.958588
0.224235 -0.19421 0.957945
0.224032 -0.195374 0.957167
0.223714 -0.196471 0.956018
0.223258 -0.197487 0.954426
0.22274 -0.198464 0.952632
0.222075 -0.19935 0.950367
0.221434 -0.200242 0.948176
0.220822 -0.201144 0.946081
0.220367 -0.202133 0.944496
0.219947 -0.203137 0.94302
0.219659 -0.204216 0.941972
0.219414 -0.205318 0.941062
0.219255 -0.20647 0.94043
0.219102 -0.207625 0.939818
0.218928 -0.208765 0.939139
0.21875 -0.2099 0.938445
0.218544 -0.211016 0.937664
0.218426 -0.212186 0.937163
0.218408 -0.21342 0.936987
0.21845 -0.214693 0.937002
0.218592 -0.216033 0.937339
0.218659 -0.217325 0.937437
0.218719 -0.218613 0.937512
0.218696 -0.219846 0.937317
0.218742 -0.221125 0.937344
0.218729 -0.222366 0.937185
0.218795 -0.223661 0.937277
0.218796 -0.224911 0.937161
0.218797 -0.226162 0.937043
0.218837 -0.227441 0.937052
0.218883 -0.228725 0.937082
0.218934 -0.230013 0.937125
0.218962 -0.231285 0.937094
0.219025 -0.232584 0.937179
0.219047 -0.233853 0.93713
0.219118 -0.235159 0.937236
0.219234 -0.2365 0.937488
0.219373 -0.23786 0.937813
0.21947 -0.23919 0.938004
0.219558 -0.240515 0.938168
0.219602 -0.241806 0.938188
0.219603 -0.243065 0.938072
0.219604 -0.244324 0.937953
0.219667 -0.245632 0.938035
0.219739 -0.246949 0.938146
0.219863 -0.248308 0.938421
0.220067 -0.249734 0.938954
0.220272 -0.251163 0.939489
0.220412 -0.252542 0.939817
0.220523 -0.253899 0.940052
0.220649 -0.255269 0.940334
0.220699 -0.256577 0.940373
0.220816 -0.257943 0.940626
0.221042 -0.259403 0.941228
0.221296 -0.26089 0.941918
0.221559 -0.262388 0.942638
0.2219 -0.263958 0.943607
0.222179 -0.265477 0.944378
0.222371 -0.266924 0.944871
0.222532 -0.268344 0.945263
0.222621 -0.269703 0.945423
0.222601 -0.270966 0.945238
0.222619 -0.272262 0.945173
0.222599 -0.273525 0.944986
0.222579 -0.274787 0.9448
0.22258 -0.276069 0.944679
0.222599 -0.277368 0.944618
0.222667 -0.278714 0.944714
0.222786 -0.280107 0.944969
0.22289 -0.281489 0.945178
0.222966 -0.282845 0.945298
0.223073 -0.284232 0.945515
0.223094 -0.285539 0.94546
0.223165 -0.286894 0.945563
0.223263 -0.288275 0.945753
0.223473 -0.289768 0.946298
0.223646 -0.291229 0.946728
0.223906 -0.292776 0.947431
0.224163 -0.294325 0.948128
0.224553 -0.296009 0.949244
0.224936 -0.297692 0.950341
0.225457 -0.299519 0.951876
0.22631 -0.301693 0.954468
0.226681 -0.190993 0.961867
0.226427 -0.19214 0.960929
0.226111 -0.193251 0.959792
0.225808 -0.194366 0.958697
0.225495 -0.195471 0.95757
0.225154 -0.196558 0.956352
0.224647 -0.197549 0.954605
0.22406 -0.198489 0.952598
0.223339 -0.199346 0.950166
0.222665 -0.200222 0.947883
0.222026 -0.201111 0.945714
0.221587 -0.202111 0.944187
0.221188 -0.203129 0.942787
0.220921 -0.204221 0.94181
0.220697 -0.205338 0.940974
0.220535 -0.206489 0.940335
0.220381 -0.207644 0.939721
0.220209 -0.208787 0.939052
0.220055 -0.209938 0.938436
0.219873 -0.211071 0.937736
0.219779 -0.212257 0.937313
0.21976 -0.213492 0.937135
0.219796 -0.214762 0.937131
0.219894 -0.216073 0.937322
0.21992 -0.217338 0.937287
0.219956 -0.21861 0.937282
0.219892 -0.219816 0.936956
0.219914 -0.221079 0.936906
0.219897 -0.222317 0.936733
0.219963 -0.223612 0.936824
0.219947 -0.22485 0.936652
0.219968 -0.226115 0.936599
0.22001 -0.227395 0.936615
0.220079 -0.228695 0.936715
0.220157 -0.230002 0.936842
0.220209 -0.231292 0.936888
0.220293 -0.232606 0.937036
0.220334 -0.23389 0.937048
0.220401 -0.235193 0.937141
0.220535 -0.236548 0.937447
0.220694 -0.237923 0.937834
0.220814 -0.239271 0.938096
0.220885 -0.240583 0.938202
