ply
format ascii 1.0
element vertex 1669
property float x
property float y
property float z
end_header
0.00747331 0.0631535 0.613516
0.00735802 0.0618293 0.613692
0.00724309 0.0605001 0.613804
0.00712834 0.0591776 0.614
0.00701291 0.0578783 0.614512
0.00689674 0.0565801 0.615052
0.00678121 0.0552875 0.615689
0.00666463 0.0540141 0.616628
0.00654866 0.0527391 0.61758
0.00643072 0.0514731 0.618707
0.00631395 0.0502042 0.619836
0.00619582 0.048932 0.620961
0.00607856 0.0476463 0.621913
0.00596101 0.0463577 0.622856
0.00584398 0.0450358 0.623258
0.00572751 0.0437064 0.623538
0.00561201 0.0423745 0.623777
0.00549574 0.0410392 0.62395
0.00535274 0.0401339 0.632647
0.0112465 0.0920633 0.620332
0.0111284 0.0906756 0.620121
0.0110098 0.0892666 0.619706
0.0108892 0.0878106 0.618843
0.0107674 0.0863019 0.61746
0.0106459 0.0848006 0.616097
0.0105253 0.083306 0.614749
0.0104057 0.0818478 0.613703
0.0102878 0.080454 0.613251
0.0101714 0.0790797 0.612975
0.0100548 0.077713 0.612758
0.00993861 0.0763457 0.612521
0.00982223 0.0749884 0.612375
0.00970583 0.0736072 0.61196
0.00959032 0.0722757 0.612065
0.00947457 0.0709385 0.612104
0.00935974 0.0696169 0.612313
0.0092444 0.0682821 0.61237
0.00912975 0.066979 0.612796
0.00901468 0.0656567 0.613
0.0088993 0.064335 0.613211
0.00878408 0.0630112 0.613397
0.0086693 0.0616935 0.61366
0.00855428 0.0603701 0.613851
0.00843909 0.0590533 0.614129
0.0083244 0.0577538 0.61465
0.00820926 0.0564553 0.615195
0.00809366 0.055162 0.615832
0.00797843 0.0538925 0.61684
0.00786278 0.0526219 0.61787
0.00774764 0.05136 0.619077
0.00763177 0.0500956 0.620296
0.00751481 0.0488224 0.621427
0.00739817 0.0475357 0.622383
0.00728154 0.0462454 0.623322
0.00716567 0.0449226 0.62373
0.00704918 0.043588 0.623939
0.00693353 0.0422546 0.624169
0.00680604 0.0413438 0.632541
0.0124582 0.0905404 0.620036
0.012339 0.0891416 0.619715
0.0122169 0.0876993 0.61898
0.0120933 0.0861991 0.61768
0.0119699 0.0847147 0.616482
0.0118468 0.0832209 0.615148
0.0117251 0.081762 0.614106
0.0116061 0.0803588 0.613571
0.0114875 0.0789759 0.613215
0.0113704 0.0776014 0.612927
0.0112532 0.0762341 0.612699
0.0111365 0.0748764 0.612555
0.0110189 0.0735007 0.612205
0.0109033 0.0721683 0.612311
0.0107877 0.0708221 0.612258
0.010672 0.0694976 0.612442
0.0105565 0.0681614 0.61249
0.0104423 0.0668518 0.612848
0.0103264 0.0655285 0.613043
0.0102117 0.0642112 0.613316
0.0100965 0.0628875 0.61351
0.00998158 0.0615702 0.613786
0.00986611 0.0602474 0.613993
0.00975151 0.0589311 0.614288
0.00963711 0.057631 0.61481
0.00952261 0.0563316 0.615355
0.00940778 0.0550418 0.616053
0.00929428 0.0537717 0.617066
0.00917933 0.0525007 0.618104
0.00906523 0.0512385 0.619321
0.0089513 0.0499785 0.620626
0.00883605 0.0487044 0.621761
0.00872152 0.047422 0.622808
0.00860572 0.0461308 0.623752
0.00848943 0.0448148 0.624302
0.0083734 0.0434793 0.624518
0.00825692 0.0421415 0.624692
0.0137966 0.0905363 0.621115
0.0136734 0.089087 0.620359
0.0135477 0.0876145 0.619361
0.0134213 0.0861055 0.617987
0.0132952 0.0846141 0.616729
0.0131697 0.0831367 0.615559
0.0130472 0.0816856 0.6146
0.0129262 0.080282 0.614074
0.012808 0.0788972 0.613712
0.0126887 0.0775134 0.61334
0.0125706 0.0761368 0.613025
0.0124528 0.0747707 0.612802
0.0123345 0.0734008 0.612524
0.0122185 0.0720602 0.612549
0.0121018 0.0707124 0.612487
0.0119863 0.069386 0.612659
0.0118702 0.0680484 0.612701
0.0117553 0.0667312 0.612976
0.0116397 0.0654021 0.613112
0.011525 0.0640843 0.613385
0.0114097 0.0627605 0.613584
0.0112951 0.0614433 0.61387
0.0111799 0.0601218 0.614101
0.0110652 0.0588104 0.614471
0.0109512 0.0575092 0.614987
0.0108369 0.0562132 0.61559
0.010724 0.054928 0.61637
0.0106118 0.0536631 0.617473
0.0104992 0.0523973 0.618608
0.0103862 0.051139 0.619907
0.010274 0.0498771 0.621207
0.0101603 0.048602 0.622351
0.0100463 0.047318 0.623397
0.009932 0.0460299 0.62442
0.00981654 0.0447222 0.625145
0.00970035 0.0433942 0.625531
0.00958556 0.0420838 0.626261
0.0151338 0.0904534 0.621499
0.015007 0.0889901 0.620623
0.0148795 0.0875069 0.619534
0.0147493 0.085997 0.618156
0.0146223 0.0845143 0.616985
0.0144957 0.0830539 0.615984
0.0143718 0.0816105 0.615111
0.0142498 0.080205 0.614577
0.01413 0.0788179 0.614204
0.0140099 0.0774312 0.613815
0.0138898 0.0760455 0.613417
0.0137709 0.0746701 0.613106
0.0136515 0.073299 0.612823
0.0135337 0.071944 0.6127
0.0134163 0.0705902 0.612578
0.0133017 0.0692693 0.612821
0.0131862 0.0679377 0.61294
0.0130709 0.0666214 0.613236
0.0129564 0.0653039 0.613523
0.0128419 0.0639912 0.613872
0.0127268 0.0626666 0.614077
0.0126122 0.0613483 0.614364
0.0124967 0.0600301 0.614656
0.0123826 0.0587167 0.615017
0.0122686 0.0574083 0.615454
0.0121555 0.0561112 0.616059
0.0120434 0.0548309 0.616927
0.0119323 0.0535667 0.618064
0.0118214 0.0523054 0.619292
0.011711 0.05105 0.620662
0.0115998 0.0497903 0.622027
0.0114881 0.0485133 0.623172
0.0113752 0.0472326 0.624305
0.0112631 0.045948 0.625425
0.0111489 0.0446516 0.626389
0.0110342 0.0433356 0.627039
0.0109212 0.0420505 0.628303
0.0166001 0.09183 0.622685
0.01647 0.0903456 0.621662
0.0163424 0.0888832 0.6208
0.0162114 0.0873892 0.619616
0.0160792 0.0858863 0.618307
0.0159508 0.0844121 0.617222
0.015824 0.0829687 0.61639
0.0156989 0.0815332 0.615604
0.0155761 0.0801341 0.615144
0.0154548 0.0787378 0.61469
0.0153321 0.0773412 0.614212
0.0152111 0.0759538 0.613805
0.0150907 0.0745688 0.613405
0.014971 0.0731967 0.613121
0.0148534 0.0718478 0.613074
0.0147357 0.0705003 0.613035
0.0146204 0.0691738 0.613226
0.0145053 0.067849 0.613436
0.0143908 0.0665313 0.613732
0.0142762 0.0652133 0.614029
0.0141617 0.0639001 0.614387
0.0140467 0.0625795 0.614659
0.013932 0.0612592 0.614938
0.0138169 0.0599388 0.615219
0.0137022 0.0586179 0.615498
0.0135882 0.0573077 0.615927
0.0134757 0.0560098 0.61654
0.0133651 0.0547349 0.617505
0.0132563 0.0534757 0.618738
0.0131469 0.0522183 0.620049
0.0130395 0.0509661 0.621502
0.0129307 0.0497091 0.622942
0.0128197 0.0484304 0.624092
0.012709 0.0471479 0.625232
0.0125982 0.0458707 0.626516
0.0124864 0.0445825 0.627667
0.0123729 0.043275 0.628521
0.0122641 0.0420111 0.630242
0.0167258 0.0932713 0.6233
0.0181858 0.09452 0.623319
0.0180634 0.0931235 0.62311
0.0179378 0.0916991 0.622642
0.0178062 0.0902177 0.621647
0.0176767 0.0887535 0.620772
0.0175432 0.0872585 0.619581
0.0174094 0.0857641 0.618352
0.0172795 0.0842999 0.617364
0.0171532 0.082867 0.616639
0.0170263 0.0814386 0.615927
0.0169033 0.0800381 0.615463
0.0167791 0.0786326 0.614926
0.0166551 0.0772284 0.614377
0.0165325 0.0758405 0.613971
0.016411 0.0744557 0.61358
0.0162912 0.0730891 0.613361
0.0161737 0.0717461 0.613389
0.0160571 0.0704052 0.613435
0.0159426 0.0690916 0.613785
0.0158278 0.0677727 0.61408
0.0157146 0.0664608 0.614463
0.0156008 0.0651477 0.614839
0.0154874 0.0638385 0.61527
0.0153712 0.0625107 0.615475
0.0152564 0.0611884 0.61575
0.0151408 0.05986 0.61595
0.0150244 0.0585261 0.616076
0.0149103 0.057209 0.61643
0.0147993 0.0559147 0.617113
0.0146897 0.0546384 0.618079
0.0145821 0.0533784 0.619323
0.0144765 0.0521299 0.620796
0.0143703 0.0508811 0.622327
0.0142645 0.0496238 0.623795
0.0141559 0.0483482 0.625029
0.0140465 0.0470688 0.626257
0.0139385 0.0457941 0.627627
0.0138285 0.0445089 0.628874
0.0137182 0.0432128 0.629987
0.0136142 0.0419689 0.632144
0.0195197 0.09434 0.622853
0.0193978 0.0929507 0.622702
0.0192724 0.0915399 0.622351
0.0191404 0.0900707 0.621463
0.0190096 0.0886092 0.620612
0.0188731 0.087109 0.619372
0.0187381 0.0856238 0.618228
0.0186067 0.0841625 0.617269
0.0184799 0.0827387 0.616632
0.018353 0.0813188 0.616008
0.0182282 0.0799176 0.61554
0.0181024 0.0785105 0.614992
0.0179776 0.0771063 0.614447
0.0178545 0.0757182 0.614045
0.0177316 0.0743345 0.613668
0.0176124 0.0729751 0.613536
0.0174944 0.0716326 0.613575
0.0173779 0.0702978 0.613696
0.017265 0.0689903 0.614129
0.0171521 0.0676771 0.614504
0.0170383 0.0663643 0.614889
0.0169251 0.0650558 0.615335
0.0168124 0.0637456 0.615769
0.0166956 0.0624112 0.615907
0.0165807 0.0610879 0.616187
0.0164661 0.0597639 0.616459
0.0163491 0.0584286 0.616582
0.0162357 0.0571101 0.616935
0.0161254 0.0558192 0.617685
0.016016 0.0545363 0.618577
0.0159104 0.0532737 0.619805
0.0158074 0.0520291 0.621358
0.0157042 0.0507854 0.622993
0.0156003 0.0495278 0.624485
0.0154946 0.0482608 0.62589
0.015388 0.0469841 0.627199
0.0152816 0.0457121 0.62865
0.0151739 0.0444246 0.6299
0.0150666 0.043139 0.631248
0.014968 0.0419088 0.63372
0.0135641 0.0411331 0.642423
0.0148686 0.0406669 0.636111
0.0209722 0.0955168 0.622258
0.0208512 0.0941394 0.62221
0.0207261 0.0927341 0.621914
0.0205962 0.0912988 0.621339
0.0204629 0.089832 0.620461
0.020332 0.0883901 0.619774
0.0201963 0.0869097 0.618706
0.0200634 0.0854519 0.617811
0.0199336 0.0840161 0.617088
0.019805 0.0825928 0.616457
0.0196756 0.0811656 0.61576
0.0195496 0.0797629 0.615277
0.0194219 0.0783481 0.614651
0.0192971 0.0769509 0.614175
0.0191739 0.0755716 0.613864
0.0190523 0.0742033 0.613652
0.0189334 0.0728518 0.613609
0.0188169 0.071516 0.61373
0.0186997 0.0701811 0.613857
0.0185888 0.0688794 0.614366
0.0184766 0.0675725 0.614824
0.0183642 0.0662659 0.615295
0.0182523 0.0649623 0.615814
0.0181418 0.0636634 0.616405
0.0180248 0.0623278 0.616547
0.0179108 0.0610093 0.616907
0.0177965 0.059684 0.617185
0.0176795 0.0583468 0.617305
0.0175646 0.0570212 0.617581
0.0174534 0.0557229 0.618248
0.017345 0.0544325 0.619053
0.0172399 0.0531636 0.620208
0.0171389 0.0519172 0.621754
0.0170386 0.050673 0.623403
0.0169371 0.0494198 0.624988
0.0168339 0.0481573 0.62649
0.0167298 0.0468835 0.627875
0.0166259 0.0456099 0.62933
0.0165206 0.0443249 0.630656
0.0164156 0.0430417 0.632082
0.0163183 0.0417968 0.634315
0.0162214 0.0405487 0.636622
0.0224341 0.0967631 0.622242
0.0223089 0.0953643 0.622024
0.0221867 0.0939821 0.621937
0.0220594 0.0925642 0.621531
0.021926 0.0911131 0.620813
0.0217913 0.0896539 0.619998
0.0216602 0.0882132 0.619318
0.0215224 0.0867351 0.618267
0.021389 0.0852878 0.617464
0.0212584 0.0838601 0.616816
0.0211285 0.0824368 0.616184
0.0209967 0.0810013 0.615405
0.0208694 0.0795974 0.614908
0.0207405 0.0781824 0.614275
0.0206139 0.0767856 0.6138
0.0204917 0.0754152 0.613581
0.0203723 0.0740622 0.613531
0.0202539 0.0727189 0.613579
0.0201398 0.0713964 0.613852
0.0200252 0.0700743 0.614132
0.0199144 0.068773 0.614655
0.0198025 0.0674661 0.615124
0.0196908 0.0661589 0.615599
0.0195789 0.0648549 0.616127
0.0194687 0.0635552 0.61672
0.0193528 0.0622198 0.616877
0.0192397 0.0609065 0.617317
0.0191264 0.0595851 0.617663
0.019009 0.0582477 0.617794
0.0188943 0.0569208 0.618072
0.0187854 0.055627 0.618822
0.0186763 0.0543291 0.61954
0.0185715 0.053053 0.620608
0.0184715 0.0517995 0.622066
0.0183736 0.0505537 0.62371
0.0182731 0.0492952 0.625224
0.0181735 0.0480364 0.626807
0.0180715 0.046762 0.628202
0.017969 0.0454877 0.629665
0.0178654 0.0442012 0.630986
0.017762 0.0429171 0.632417
0.0176663 0.0416626 0.634492
0.0175723 0.0404131 0.636791
0.0161975 0.0396643 0.646477
0.0174762 0.0391477 0.638903
0.0238956 0.0979987 0.622128
0.023771 0.096607 0.621979
0.0236458 0.0952108 0.621783
0.0235217 0.0938164 0.621592
0.0233907 0.0923863 0.621078
0.0232538 0.0909185 0.620209
0.0231189 0.0894676 0.619461
0.0229838 0.0880193 0.618706
0.022846 0.0865518 0.617746
0.0227113 0.0851067 0.616959
0.0225794 0.0836792 0.616309
0.0224471 0.082248 0.615595
0.0223133 0.080811 0.614793
0.0221834 0.0794004 0.614222
0.0220547 0.0779927 0.613655
0.021928 0.0766058 0.613276
0.0218073 0.0752445 0.613146
0.0216884 0.0739002 0.613187
0.021572 0.0725643 0.613314
0.0214574 0.0712425 0.613594
0.0213443 0.0699276 0.613956
0.0212357 0.0686334 0.614563
0.0211255 0.0673336 0.61512
0.0210155 0.0660324 0.615674
0.0209073 0.0647402 0.616352
0.0207984 0.0634468 0.617036
0.0206821 0.062111 0.6172
0.0205707 0.0608031 0.617723
0.0204582 0.0594864 0.618145
0.0203415 0.0581482 0.618285
0.0202257 0.0568151 0.618491
0.0201183 0.0555252 0.619315
0.0200093 0.0542212 0.619963
0.0199031 0.0529328 0.620866
0.0198036 0.0516724 0.622234
0.019707 0.0504237 0.623849
0.0196069 0.0491545 0.625204
0.0195098 0.047895 0.626787
0.0194105 0.0466245 0.628258
0.0193099 0.0453496 0.629726
0.0192081 0.0440633 0.63106
0.0191089 0.0427826 0.63257
0.0190148 0.0415232 0.634573
0.0189232 0.0402685 0.636785
0.0188293 0.0390015 0.638882
0.0253542 0.0992126 0.621829
0.0252347 0.097849 0.621919
0.0251063 0.0964386 0.621614
0.024979 0.0950338 0.621344
0.0248515 0.0936274 0.621045
0.0247158 0.0921748 0.620331
0.0245752 0.0906981 0.619376
0.0244389 0.0892476 0.618621
0.0243011 0.0877917 0.617788
0.0241618 0.0863265 0.616837
0.0240262 0.0848905 0.616123
0.0238935 0.0834646 0.615477
0.0237598 0.0820337 0.614756
0.0236253 0.0806049 0.614025
0.0234942 0.0791956 0.613456
0.0233658 0.0777974 0.612978
0.0232426 0.0764272 0.612763
0.0231222 0.0750748 0.612722
0.023005 0.0737388 0.612849
0.0228893 0.0724098 0.61305
0.0227751 0.071088 0.613331
0.0226624 0.0697741 0.613704
0.0225547 0.0684811 0.614325
0.0224465 0.0671876 0.614957
0.0223372 0.0658861 0.61551
0.0222308 0.0645999 0.616267
0.0221245 0.0633129 0.617034
0.0220091 0.0619841 0.617291
0.0218986 0.0606758 0.617819
0.0217877 0.059364 0.618315
0.0216721 0.0580307 0.618532
0.0215564 0.0566977 0.618753
0.0214501 0.0554073 0.619582
0.0213418 0.0541017 0.620221
0.0212349 0.0528068 0.621041
0.0211335 0.0515292 0.62216
0.021037 0.0502688 0.623597
0.0209364 0.0489931 0.624853
0.020841 0.0477333 0.62643
0.0207445 0.0464634 0.627914
0.0206475 0.0451934 0.629466
0.0205498 0.0439152 0.630955
0.0204522 0.0426343 0.632469
0.0203597 0.0413705 0.634399
0.0202714 0.0401148 0.6366
0.0201799 0.0388429 0.638606
0.0266963 0.0990747 0.621715
0.0265734 0.097696 0.621683
0.026443 0.0962777 0.621312
0.0263128 0.0948617 0.620946
0.0261799 0.0934314 0.62044
0.0260402 0.0919691 0.619633
0.0258958 0.0904828 0.618586
0.0257547 0.0890168 0.617683
0.0256136 0.0875532 0.616768
0.0254724 0.0860889 0.615812
0.0253337 0.0846453 0.615013
0.0252003 0.0832219 0.614377
0.0250645 0.0817923 0.613653
0.0249305 0.0803745 0.613015
0.0248024 0.0789821 0.612604
0.0246766 0.0776031 0.612307
0.0245556 0.07625 0.612264
0.0244379 0.0749134 0.612385
0.0243222 0.0735843 0.612585
0.0242066 0.0722553 0.612785
0.0240929 0.0709334 0.613065
0.0239806 0.0696191 0.613435
0.0238713 0.0683189 0.613974
0.0237629 0.0670195 0.614534
0.0236532 0.0657176 0.615081
0.0235486 0.0644324 0.615847
0.0234435 0.0631463 0.616624
0.0233314 0.0618303 0.617042
0.0232245 0.0605337 0.617724
0.0231152 0.0592281 0.618308
0.0230016 0.0579003 0.618605
0.022887 0.0565723 0.618903
0.0227819 0.0552811 0.619734
0.0226739 0.0539746 0.62037
0.0225666 0.0526735 0.621108
0.0224634 0.0513843 0.622059
0.0223655 0.0501123 0.623321
0.0222654 0.0488304 0.624476
0.0221711 0.0475659 0.625978
0.0220764 0.0462971 0.627476
0.0219829 0.0450276 0.62904
0.0218889 0.0437579 0.630681
0.0217935 0.0424768 0.632197
0.021705 0.0412131 0.634133
0.0216189 0.0399566 0.636327
0.0215329 0.0386913 0.638476
0.0281617 0.100318 0.621649
0.0280378 0.0989328 0.621569
0.0279114 0.0975405 0.621425
0.0277764 0.096103 0.620895
0.0276399 0.0946636 0.620326
0.0275009 0.0932066 0.619585
0.0273566 0.0917339 0.618678
0.0272105 0.0902485 0.617626
0.0270661 0.0887742 0.616637
0.0269207 0.0873037 0.615645
0.0267778 0.0858395 0.614676
0.0266361 0.0843886 0.613792
0.0264992 0.0829591 0.613082
0.0263628 0.0815333 0.612376
0.0262319 0.0801337 0.6119
0.0261043 0.0787539 0.611599
0.0259818 0.0773934 0.611479
0.0258623 0.0760504 0.61153
0.0257468 0.0747225 0.611735
0.0256328 0.0734009 0.612008
0.0255189 0.0720795 0.612287
0.0254072 0.0707646 0.612642
0.0252965 0.0694567 0.613081
0.025188 0.0681553 0.613605
0.0250769 0.0668479 0.61407
0.0249672 0.0655397 0.614537
0.0248614 0.0642487 0.615226
0.024756 0.0629573 0.615931
0.0246463 0.0616483 0.616431
0.0245416 0.0603592 0.617203
0.0244373 0.0590667 0.61796
0.0243256 0.0577508 0.618418
0.0242135 0.0564289 0.618802
0.024111 0.0551422 0.619704
0.0240035 0.0538352 0.620338
0.0238958 0.0525284 0.620999
0.0237925 0.0512334 0.621865
0.023696 0.0499599 0.623107
0.0235974 0.0486767 0.624247
0.023505 0.0474122 0.625755
0.0234121 0.0461441 0.62727
0.0233194 0.0448703 0.628763
0.0232267 0.0435957 0.63032
0.023132 0.04231 0.631749
0.0230454 0.0410463 0.633687
0.0229649 0.0397942 0.63597
0.0228863 0.0385411 0.638375
0.0215633 0.0377633 0.647976
0.0228011 0.0372657 0.640455
0.0294997 0.100156 0.621336
0.0293733 0.0987609 0.621179
0.0292408 0.0973434 0.620826
0.0291001 0.0958865 0.620126
0.0289585 0.0944278 0.619386
0.0288148 0.0929615 0.618553
0.0286678 0.0914807 0.617563
0.0285207 0.0900046 0.61658
0.0283726 0.0885245 0.615525
0.0282244 0.0870474 0.614458
0.0280768 0.0855745 0.613391
0.0279316 0.0841167 0.612426
0.0277908 0.0826804 0.61163
0.0276553 0.0812656 0.611011
0.0275273 0.0798855 0.610708
0.0274036 0.0785237 0.610574
0.027285 0.0771816 0.610628
0.0271681 0.0758479 0.610765
0.027054 0.074528 0.611047
0.0269403 0.0732076 0.611326
0.0268265 0.0718877 0.611613
0.0267137 0.0705679 0.611905
0.0266016 0.069254 0.612267
0.0264915 0.067946 0.612704
0.02638 0.0666315 0.613074
0.026268 0.0653166 0.613445
0.0261624 0.0640256 0.614117
0.0260576 0.0627349 0.614816
0.0259518 0.0614389 0.615466
0.0258525 0.0601637 0.616409
0.0257531 0.0588859 0.617349
0.025646 0.0575839 0.617991
0.0255373 0.0562734 0.618534
0.0254362 0.0549868 0.619438
0.0253287 0.0536797 0.620072
0.0252228 0.0523727 0.620733
0.0251186 0.0510728 0.621523
0.0250236 0.0497988 0.622759
0.0249275 0.0485205 0.623979
0.0248375 0.0472566 0.625497
0.0247474 0.0459887 0.627022
0.0246565 0.0447139 0.628501
0.0245644 0.0434334 0.629954
0.0244686 0.0421421 0.63128
0.0243854 0.0408789 0.633224
0.0243107 0.0396322 0.635617
0.0242407 0.0383923 0.638301
0.0241671 0.0371371 0.640834
0.0308335 0.0999763 0.620887
0.0307031 0.0985679 0.620616
0.0305645 0.0971271 0.620066
0.0304169 0.0956471 0.619165
0.0302672 0.094162 0.618188
0.0301202 0.0926874 0.617269
0.0299711 0.0912092 0.616286
0.0298253 0.0897458 0.615399
0.0296727 0.0882603 0.614278
0.0295246 0.0867935 0.613289
0.0293734 0.0853133 0.61214
0.0292257 0.0838555 0.611157
0.0290842 0.082421 0.610362
0.028951 0.0810233 0.609891
0.0288247 0.0796539 0.609679
0.0287046 0.0783103 0.609713
0.0285876 0.0769766 0.609845
0.028472 0.0756506 0.610053
0.0283592 0.074331 0.610331
0.0282453 0.0730117 0.610613
0.0281326 0.071693 0.610905
0.0280195 0.0703749 0.611209
0.0279059 0.0690557 0.611501
0.0277942 0.0677414 0.611856
0.0276806 0.0664203 0.612136
0.0275673 0.0650991 0.612418
0.0274604 0.0638021 0.613003
0.0273567 0.0625122 0.613693
0.0272552 0.0612287 0.614486
0.0271597 0.0599626 0.615535
0.0270654 0.0586988 0.616654
0.0269636 0.0574106 0.617476
0.0268595 0.0561121 0.618183
0.02676 0.0548263 0.619098
0.0266548 0.0535242 0.619806
0.0265488 0.0522172 0.620467
0.0264443 0.0509124 0.621184
0.0263511 0.0496387 0.622425
0.026259 0.0483661 0.623739
0.0261722 0.0471028 0.625273
0.0260842 0.045835 0.626804
0.0259938 0.0445582 0.628254
0.0259015 0.0432715 0.629594
0.0258059 0.0419746 0.630818
0.0257271 0.040715 0.632833
0.0256597 0.0394779 0.635423
0.0255997 0.0382512 0.638394
0.0255379 0.0370123 0.6413
0.0322978 0.101202 0.620668
0.0321612 0.0997725 0.620241
0.032024 0.0983419 0.619784
0.0318806 0.0968865 0.619103
0.0317293 0.0953963 0.618106
0.0315724 0.0938929 0.616961
0.0314241 0.0924212 0.616052
0.0312754 0.0909559 0.615165
0.0311281 0.0894962 0.614296
0.0309744 0.0880134 0.613187
0.0308268 0.0865569 0.612277
0.0306726 0.0850781 0.611126
0.0305243 0.0836226 0.610153
0.0303824 0.0821966 0.609424
0.0302509 0.0808093 0.609044
0.0301247 0.0794421 0.608845
0.0300069 0.0781078 0.608963
0.029892 0.0767819 0.609166
0.0297768 0.0754563 0.609371
0.029663 0.074137 0.609644
0.0295494 0.0728181 0.609923
0.0294365 0.0714995 0.610209
0.0293239 0.0701812 0.610502
0.0292101 0.0688621 0.610789
0.0290964 0.0675421 0.611067
0.0289809 0.0662151 0.611267
0.0288655 0.0648882 0.611467
0.0287579 0.063586 0.611974
0.0286532 0.0622915 0.612592
0.0285556 0.0610162 0.613474
0.0284626 0.0597571 0.614601
0.0283749 0.0585071 0.615892
0.0282784 0.0572315 0.616881
0.0281787 0.0559455 0.617755
0.0280824 0.0546655 0.618753
0.0279808 0.0533687 0.61954
0.0278749 0.0520617 0.620201
0.0277716 0.0507566 0.620915
0.0276802 0.049483 0.62216
0.0275916 0.0482147 0.623549
0.0275068 0.0469522 0.625102
0.0274215 0.0456842 0.626637
0.0273317 0.0444026 0.628006
0.0272383 0.0431098 0.629242
0.0271442 0.0418123 0.63045
0.0270679 0.0405529 0.632473
0.0270094 0.0393242 0.635241
0.0269616 0.0381133 0.638555
0.0269101 0.0368855 0.641726
0.0336198 0.100979 0.619876
0.0334811 0.0995446 0.6194
0.0333396 0.0980994 0.618814
0.0331898 0.0966264 0.617977
0.0330308 0.0951182 0.616815
0.0328719 0.0936159 0.615663
0.0327221 0.0921488 0.614777
0.0325729 0.0906863 0.6139
0.0324245 0.0892287 0.613033
0.0322715 0.0877567 0.612004
0.0321217 0.0863026 0.6111
0.0319685 0.0848357 0.610045
0.0318212 0.0833917 0.609166
0.0316786 0.081969 0.608456
0.0315508 0.0805985 0.608227
0.0314239 0.0792332 0.608037
0.0313041 0.0778937 0.608094
0.0311884 0.0765684 0.608292
0.0310751 0.0752496 0.608558
0.03096 0.0739249 0.608763
0.0308495 0.0726139 0.609117
0.0307385 0.0713025 0.609473
0.0306271 0.0699906 0.609828
0.0305143 0.0686713 0.610106
0.0304005 0.0673516 0.610379
0.030285 0.0660253 0.610579
0.0301696 0.064699 0.610779
0.0300633 0.0633979 0.611291
0.0299566 0.0620984 0.611838
0.0298603 0.0608239 0.612721
0.0297691 0.059565 0.613843
0.0296822 0.058316 0.615137
0.0295896 0.0570464 0.616198
0.0294954 0.0557726 0.61724
0.0294025 0.054499 0.618325
0.0293044 0.0532082 0.6192
0.0292019 0.0519061 0.619934
0.0290983 0.0506006 0.620643
0.0290086 0.0493262 0.621878
0.0289235 0.0480621 0.623338
0.0288416 0.0467995 0.624896
0.0287588 0.0455317 0.626439
0.0286701 0.04425 0.627813
0.0285767 0.0429529 0.628973
0.0284844 0.0416551 0.630181
0.0284118 0.0403959 0.632214
0.028359 0.039171 0.635068
0.0283185 0.0379639 0.63848
0.0282754 0.0367422 0.641801
0.0347975 0.0993089 0.618495
0.0346533 0.0978606 0.617875
0.0344966 0.0963667 0.616854
0.0343344 0.09486 0.615689
0.0341747 0.0933617 0.614558
0.0340232 0.0918967 0.613676
0.0338724 0.090436 0.612799
0.0337197 0.0889702 0.611847
0.0335635 0.0874982 0.610802
0.0334151 0.0860539 0.609974
0.0332635 0.0846006 0.609028
0.0331171 0.083169 0.608253
0.032979 0.0817644 0.607707
0.032852 0.0804027 0.607556
0.0327253 0.0790382 0.607366
0.032605 0.0776992 0.60742
0.0324896 0.0763742 0.607615
0.032377 0.0750563 0.607884
0.0322641 0.0737395 0.608165
0.0321533 0.0724305 0.608534
0.0320437 0.0711205 0.608901
0.0319326 0.0698091 0.609257
0.0318197 0.06849 0.60953
0.0317043 0.0671644 0.60973
0.031589 0.0658388 0.60993
0.0314736 0.0645131 0.61013
0.0313673 0.0632126 0.610642
0.0312611 0.0619132 0.611181
0.031165 0.0606387 0.612057
0.0310759 0.0593794 0.613166
0.0309931 0.0581354 0.614524
0.0309033 0.056872 0.615664
0.0308139 0.0556048 0.616795
0.0307251 0.0543375 0.617971
0.0306294 0.0530524 0.618928
0.0305279 0.0517506 0.619668
0.0304237 0.0504402 0.620302
0.0303346 0.0491649 0.621522
0.0302524 0.0479002 0.622975
0.0301715 0.046637 0.624524
0.0300909 0.0453699 0.626082
0.0300096 0.0440968 0.627612
0.02992 0.0428043 0.628863
0.0298314 0.0415111 0.630165
0.0297622 0.0402516 0.632205
0.0297135 0.039026 0.635061
0.0296758 0.037813 0.638372
0.029636 0.0365868 0.641614
0.0362483 0.10049 0.617945
0.0361068 0.099055 0.617441
0.0359575 0.0975957 0.616719
0.0358 0.0961098 0.615749
0.0356367 0.0946058 0.614595
0.0354753 0.0931107 0.613478
0.0353193 0.0916377 0.612513
0.0351642 0.0901693 0.611554
0.0350058 0.0886941 0.610501
0.0348506 0.0872311 0.60952
0.0347035 0.0857987 0.608783
0.0345558 0.0843652 0.608008
0.0344137 0.0829532 0.607404
0.0342792 0.0815662 0.607018
0.0341518 0.0802046 0.60686
0.0340238 0.0788408 0.606668
0.0339042 0.0775022 0.606721
0.0337883 0.0761774 0.606908
0.0336757 0.0748602 0.607177
0.0335628 0.0735448 0.607466
0.033456 0.072245 0.607929
0.0333494 0.070944 0.608389
0.0332421 0.0696412 0.608837
0.033131 0.0683296 0.609194
0.0330181 0.0670103 0.609466
0.0329027 0.0656847 0.609666
0.0327898 0.064365 0.609939
0.0326844 0.0630643 0.610451
0.0325785 0.0617646 0.610988
0.0324836 0.0604884 0.611847
0.0323923 0.0592222 0.612866
0.0323069 0.0579668 0.61407
0.0322193 0.056704 0.615217
0.0321308 0.0554369 0.616347
0.0320441 0.0541714 0.617546
0.0319526 0.0528919 0.618586
0.0318549 0.051595 0.619402
0.0317531 0.0502892 0.62011
0.0316661 0.049014 0.621337
0.0315852 0.047749 0.62279
0.0315075 0.0464854 0.624337
0.0314284 0.0452177 0.625889
0.0313493 0.0439445 0.627426
0.0312637 0.0426568 0.628768
0.0311799 0.0413679 0.630166
0.0311141 0.0401077 0.632209
0.0310667 0.0388766 0.634973
0.0310288 0.0376543 0.638098
0.0309912 0.0364229 0.64124
0.0295721 0.0353124 0.643989
0.0309293 0.0351449 0.643535
0.0375494 0.100214 0.616724
0.0374071 0.0987818 0.616228
0.0372566 0.0973233 0.6155
0.0371017 0.0958529 0.614645
0.0369368 0.0943533 0.613513
0.0367767 0.0928689 0.612474
0.0366179 0.0913957 0.611495
0.0364572 0.0899178 0.610441
0.0362945 0.0884361 0.609314
0.0361403 0.0869834 0.608411
0.0359944 0.0855616 0.607757
0.0358487 0.0841406 0.607086
0.0357112 0.0827466 0.606643
0.0355784 0.0813686 0.606333
0.0354505 0.0800075 0.606173
0.0353223 0.0786442 0.60598
0.0351996 0.0772985 0.605952
0.0350842 0.0759746 0.606141
0.0349714 0.0746582 0.606408
0.0348589 0.0733437 0.606699
0.0347553 0.0720517 0.607238
0.0346545 0.0707666 0.607865
0.0345502 0.0694724 0.608406
0.0344432 0.0681687 0.608852
0.0343327 0.0668561 0.609203
0.0342198 0.0655367 0.609475
0.0341088 0.0642238 0.609833
0.0340041 0.0629234 0.610353
0.0338997 0.0616234 0.610892
0.0338043 0.0603458 0.611736
0.0337128 0.0590741 0.612688
0.0336241 0.0578065 0.61373
0.0335378 0.0565431 0.61487
0.0334513 0.055276 0.616001
0.0333631 0.0540052 0.617122
0.0332736 0.0527259 0.618162
0.0331786 0.0514341 0.619053
0.0330802 0.0501337 0.619845
0.0329959 0.0488595 0.621093
0.0329197 0.0475995 0.622631
0.0328436 0.0463357 0.624182
0.0327671 0.0450664 0.625716
0.0326893 0.0437929 0.62725
0.0326087 0.0425092 0.628679
0.0325293 0.0412253 0.630179
0.032464 0.0399606 0.632149
0.0324183 0.0387233 0.634801
0.0323772 0.037487 0.637645
0.0323359 0.0362433 0.640517
0.0322719 0.0349582 0.642644
0.0390026 0.10141 0.616306
0.0388536 0.0999585 0.615664
0.0387136 0.0985389 0.61526
0.0385643 0.0970892 0.614592
0.0384027 0.0956054 0.613615
0.0382341 0.0941009 0.61243
0.0380738 0.092624 0.611442
0.0379079 0.0911344 0.610308
0.0377422 0.0896502 0.609181
0.03758 0.0881786 0.608129
0.0374277 0.0867381 0.607321
0.0372851 0.0853292 0.606773
0.0371437 0.0839265 0.60626
0.0370081 0.0825422 0.605899
0.0368739 0.0811654 0.605592
0.0367487 0.0798129 0.605509
0.03662 0.0784505 0.605318
0.0364944 0.0770985 0.605218
0.0363787 0.0757749 0.605401
0.0362653 0.0744585 0.605661
0.0361535 0.0731447 0.60595
0.0360525 0.0718602 0.606563
0.0359581 0.0705889 0.607338
0.0358578 0.0693034 0.607973
0.0357537 0.0680076 0.608507
0.0356465 0.0667021 0.608939
0.0355362 0.0653891 0.60929
0.0354292 0.0640833 0.609737
0.0353255 0.0627841 0.610275
0.0352225 0.061485 0.61083
0.0351282 0.0602066 0.611671
0.0350345 0.0589277 0.612533
0.0349415 0.0576487 0.613423
0.0348562 0.0563837 0.61454
0.0347707 0.0551149 0.61565
0.0346819 0.0538388 0.616692
0.0345931 0.0525595 0.617731
0.0345019 0.0512725 0.618694
0.0344068 0.0499776 0.619572
0.0343276 0.0487095 0.620921
0.0342575 0.0474551 0.62256
0.0341826 0.0461904 0.624104
0.0341081 0.0449196 0.62562
0.034032 0.043645 0.627145
0.0339542 0.0423613 0.628584
0.0338773 0.0410775 0.630096
0.0338146 0.0398122 0.632065
0.0337694 0.0385693 0.634616
0.0337243 0.0373196 0.637186
0.0336784 0.0360627 0.63977
0.0336145 0.034773 0.64178
0.0401539 0.0996986 0.614568
0.0400134 0.0982823 0.614178
0.0398612 0.0968309 0.613483
0.0396964 0.0953415 0.612447
0.0395272 0.093845 0.611315
0.0393592 0.0923529 0.610182
0.0391913 0.0908644 0.609041
0.039027 0.0893904 0.60799
0.0388694 0.0879404 0.607114
0.0387195 0.0865125 0.606407
0.0385841 0.0851305 0.606097
0.0384454 0.0837376 0.60567
0.0383112 0.0823625 0.60539
0.0381804 0.0809938 0.605159
0.0380522 0.0796355 0.605014
0.0379222 0.0782734 0.60482
0.0377962 0.0769212 0.604715
0.03768 0.0755973 0.604891
0.0375642 0.0742745 0.605077
0.037455 0.072968 0.60544
0.0373524 0.071677 0.605979
0.0372614 0.0704129 0.606827
0.0371625 0.0691281 0.607469
0.0370623 0.06784 0.608087
0.0369611 0.0665479 0.608675
0.0368567 0.0652481 0.609187
0.0367557 0.0639556 0.609799
0.0366559 0.062664 0.61044
0.0365581 0.0613755 0.611139
0.0364655 0.0600963 0.611984
0.0363703 0.0588099 0.61276
0.0362719 0.0575176 0.613482
0.0361853 0.0562449 0.614501
0.0360947 0.0549648 0.615453
0.036002 0.0536773 0.616335
0.0359142 0.0523975 0.617365
0.0358243 0.0511101 0.618321
0.0357338 0.0498212 0.619293
0.0356569 0.0485542 0.620661
0.0355916 0.0473046 0.622387
0.0355193 0.0460392 0.623925
0.0354458 0.0447675 0.625433
0.0353732 0.0434922 0.626953
0.0352993 0.0422126 0.628473
0.035225 0.0409288 0.629994
0.0351649 0.0396628 0.631962
0.0351207 0.0384147 0.63442
0.0350707 0.0371525 0.636733
0.0350223 0.0358866 0.63912
0.0349575 0.0345919 0.641008
0.0414588 0.0994611 0.613649
0.041313 0.0980333 0.613156
0.0411503 0.0965562 0.612239
0.0409795 0.095058 0.611114
0.040805 0.0935534 0.609895
0.0406347 0.0920619 0.608749
0.0404678 0.090585 0.607691
0.0403057 0.0891249 0.606744
0.0401542 0.0876951 0.606034
0.0400089 0.0862872 0.605496
0.039877 0.0849165 0.60528
0.0397401 0.083533 0.60493
0.0396119 0.0821747 0.604804
0.0394801 0.0808081 0.604585
0.0393511 0.0794507 0.604444
0.039221 0.0780887 0.604246
0.0390932 0.0767359 0.604127
0.038978 0.0754124 0.604303
0.0388647 0.0740974 0.604567
0.0387571 0.0727928 0.604946
0.0386549 0.071502 0.605482
0.0385667 0.0702439 0.606396
0.0384685 0.0689594 0.607036
0.0383693 0.0676721 0.607664
0.0382751 0.0663939 0.608412
0.03818 0.0651139 0.609162
0.0380862 0.0638348 0.609945
0.037994 0.0625556 0.610755
0.0378998 0.0612726 0.611539
0.0378078 0.0599916 0.612374
0.0377069 0.0586919 0.612986
0.0376036 0.0573863 0.613539
0.0375114 0.0561013 0.614394
0.0374196 0.0548148 0.615261
0.0373227 0.0535167 0.615989
0.0372357 0.0522363 0.617011
0.0371467 0.0509485 0.617961
0.0370607 0.0496647 0.619013
0.0369836 0.0483933 0.620314
0.0369206 0.0471434 0.622037
0.0368502 0.0458772 0.623562
0.0367786 0.0446053 0.625066
0.0367048 0.0433265 0.626522
0.0366368 0.0420515 0.628128
0.0365669 0.0407714 0.629724
0.0365103 0.0395051 0.631692
0.0364665 0.0382528 0.634071
0.0364145 0.0369825 0.636217
0.0363668 0.0357122 0.638504
0.0363017 0.034414 0.640305
0.0427664 0.0992375 0.612841
0.0426073 0.0977756 0.612062
0.0424427 0.0962989 0.611135
0.0422621 0.0947807 0.609829
0.0420825 0.0932684 0.60853
0.041912 0.0917879 0.60746
0.0417451 0.0903163 0.606431
0.041588 0.0888761 0.605644
0.0414419 0.0874671 0.605107
0.0412992 0.0860702 0.604658
0.0411699 0.0847092 0.604523
0.0410384 0.0833427 0.604325
0.0409107 0.0819865 0.604213
0.0407785 0.0806212 0.604001
0.0406489 0.0792642 0.603857
0.0405172 0.0779015 0.603646
0.0403859 0.0765413 0.603445
0.0402733 0.0752264 0.603703
0.0401654 0.0739205 0.604058
0.0400612 0.0726247 0.604527
0.0399596 0.0713342 0.605066
0.0398751 0.0700819 0.606041
0.0397771 0.0687962 0.606669
0.0396795 0.0675102 0.607309
0.0395888 0.0662398 0.608148
0.0395017 0.0649737 0.609068
0.0394135 0.0637024 0.609953
0.0393242 0.0624297 0.610848
0.0392348 0.0611529 0.611721
0.0391408 0.0598649 0.612477
0.0390369 0.0585578 0.612999
0.0389339 0.0572499 0.613528
0.0388398 0.0559583 0.614298
0.0387457 0.0546661 0.615088
0.0386463 0.0533624 0.615738
0.0385609 0.0520809 0.616745
0.0384722 0.0507926 0.617688
0.0383903 0.0495138 0.618822
0.0383152 0.0482423 0.620128
0.038257 0.046996 0.621915
0.0381886 0.0457279 0.623418
0.0381192 0.0444557 0.624924
0.0380484 0.0431772 0.626394
0.0379824 0.0419028 0.62802
0.0379153 0.0406223 0.629621
0.0378608 0.0393553 0.631581
0.0378184 0.0380983 0.633878
0.0377633 0.0368203 0.635865
0.0377159 0.0355462 0.638072
0.037654 0.0342478 0.639871
0.0442626 0.100565 0.613498
0.0440677 0.0990037 0.611948
0.0438988 0.0975181 0.610968
0.0437237 0.0960208 0.609857
0.0435337 0.0944848 0.608385
0.043352 0.0929749 0.607088
0.0431846 0.0915082 0.606118
0.043019 0.090049 0.60518
0.0428679 0.0886299 0.604564
0.0427241 0.0872316 0.60411
0.042581 0.0858362 0.603663
0.0424517 0.0844764 0.603527
0.0423223 0.0831201 0.603411
0.0421944 0.0817653 0.603303
0.0420653 0.0804102 0.603179
0.0419386 0.0790611 0.603105
0.041809 0.0777055 0.602956
0.0416803 0.0763535 0.602832
0.041572 0.075047 0.603171
0.0414678 0.073751 0.603626
0.0413675 0.0724636 0.604184
0.0412664 0.0711736 0.604725
0.0411805 0.0699139 0.605619
0.0410822 0.0686276 0.606237
0.0409851 0.067342 0.606878
0.0409001 0.0660791 0.607807
0.0408214 0.0648269 0.608894
0.0407399 0.0635687 0.609944
0.0406562 0.0623027 0.610932
0.0405709 0.0610309 0.611878
0.040477 0.0597418 0.61263
0.0403738 0.0584336 0.613148
0.0402711 0.0571249 0.613673
0.0401747 0.055827 0.614367
0.0400787 0.0545289 0.615081
0.0399793 0.0532236 0.615714
0.0398921 0.0519362 0.616641
0.0398044 0.0506476 0.617585
0.0397275 0.0493737 0.618805
0.039654 0.0481023 0.620119
0.0395955 0.0468506 0.621829
0.0395309 0.0455854 0.623392
0.0394641 0.0443121 0.624888
0.0393955 0.0430341 0.626378
0.0393331 0.0417596 0.628017
0.039271 0.0404823 0.629692
0.0392155 0.0392102 0.631567
0.0391733 0.0379483 0.633775
0.0391209 0.0366689 0.635749
0.0390766 0.0353943 0.637959
0.0390177 0.0340959 0.639768
0.045757 0.101878 0.614011
0.045563 0.100323 0.612549
0.0453545 0.0987364 0.610785
0.0451735 0.0972255 0.609583
0.0449914 0.0957141 0.60834
0.0447947 0.0941726 0.606802
0.0446149 0.092675 0.605589
0.0444502 0.091222 0.604717
0.0442941 0.0897925 0.604022
0.044146 0.0883852 0.603496
0.0440044 0.0869956 0.603109
0.0438638 0.08561 0.602738
0.0437327 0.084251 0.602597
0.0436042 0.082896 0.602485
0.0434752 0.0815429 0.602379
0.0433467 0.080189 0.602258
0.043219 0.0788411 0.602183
0.0430926 0.0774954 0.602122
0.0429683 0.0761532 0.602088
0.0428668 0.074863 0.602591
0.0427697 0.0735827 0.603206
0.0426735 0.072303 0.603844
0.0425742 0.0710132 0.604389
0.0424853 0.069746 0.605199
0.0423875 0.068459 0.605806
0.0422911 0.0671735 0.606446
0.0422105 0.0659177 0.607457
0.0421402 0.064679 0.608708
0.0420672 0.0634334 0.609917
0.0419877 0.0621727 0.610978
0.0419094 0.0609122 0.612077
0.0418168 0.0596231 0.61284
0.0417152 0.0583146 0.613366
0.0416125 0.0570057 0.613901
0.041514 0.0557015 0.614519
0.0414156 0.0543968 0.615151
0.0413164 0.0530905 0.615776
0.0412269 0.0517974 0.616626
0.0411412 0.0505085 0.617575
0.0410697 0.0492393 0.618879
0.0409956 0.047964 0.620142
0.0409366 0.0467072 0.621779
0.0408736 0.0454412 0.623336
0.0408084 0.0441667 0.624823
0.0407419 0.0428883 0.626314
0.0406816 0.0416138 0.627964
0.0406253 0.0403398 0.629716
0.0405756 0.0390694 0.631647
0.0405324 0.0378026 0.63377
0.0404799 0.0365188 0.635662
0.0404389 0.0352428 0.637856
0.0403813 0.0339435 0.639654
0.0466396 0.098471 0.609635
0.0464508 0.0969472 0.608315
0.0462642 0.0954347 0.607045
0.0460658 0.093896 0.605515
0.0458848 0.0924033 0.604326
0.0457271 0.0909716 0.603624
0.0455731 0.0895542 0.60302
0.0454245 0.0881484 0.602496
0.0452791 0.0867534 0.602046
0.045137 0.0853677 0.601663
0.0449988 0.0839933 0.601366
0.0448688 0.0826394 0.601247
0.0447399 0.0812877 0.60114
0.0446139 0.0799435 0.601095
0.0444912 0.0786063 0.601113
0.0443689 0.0772712 0.601145
0.0442504 0.0759461 0.601273
0.0441574 0.0746727 0.601942
0.0440682 0.0734079 0.602717
0.0439773 0.0721359 0.603437
0.0438845 0.0708595 0.604126
0.0437925 0.0695852 0.604856
0.0436951 0.0682972 0.605451
0.0435987 0.0670107 0.606078
0.0435207 0.065756 0.607102
0.0434555 0.0645242 0.608438
0.0433882 0.0632857 0.609737
0.0433107 0.0620254 0.610807
0.0432368 0.0607699 0.611976
0.0431492 0.0594866 0.612821
0.0430482 0.0581792 0.613368
0.0429536 0.056882 0.61407
0.0428581 0.0555825 0.614764
0.0427599 0.0542762 0.615385
0.0426615 0.0529685 0.616005
0.0425726 0.0516741 0.616849
0.0424888 0.0503851 0.617813
0.0424187 0.0491152 0.61912
0.042347 0.047839 0.620386
0.0422869 0.0465767 0.621946
0.042223 0.0453048 0.62342
0.0421562 0.0440248 0.624823
0.0420927 0.042746 0.62632
0.0420339 0.0414709 0.627969
0.0419834 0.0402003 0.629803
0.0419403 0.0389331 0.631816
0.041897 0.0376618 0.633867
0.0418468 0.0363766 0.635748
0.0418016 0.0350923 0.637774
0.0417429 0.0337883 0.639477
0.0478866 0.0981187 0.607783
0.0476995 0.0966082 0.606546
0.0475291 0.0951411 0.605631
0.0473357 0.0936237 0.604261
0.0471602 0.0921526 0.603239
0.0470082 0.0907394 0.602685
0.0468544 0.0893252 0.602098
0.0467084 0.0879297 0.601655
0.0465613 0.0865353 0.601201
0.0464143 0.0851411 0.600729
0.046272 0.0837597 0.600356
0.0461411 0.082406 0.600227
0.0460079 0.0810482 0.600047
0.0458823 0.0797059 0.600008
0.045759 0.0783701 0.600026
0.0456403 0.0770446 0.60014
0.0455268 0.0757301 0.600366
0.0454388 0.0744667 0.601127
0.0453554 0.0732109 0.60199
0.0452716 0.0719537 0.602861
0.0451833 0.0706852 0.603634
0.0450935 0.0694111 0.604365
0.0449965 0.0681233 0.604957
0.0449039 0.0668423 0.605646
0.0448229 0.0655818 0.606598
0.0447567 0.0643453 0.607873
0.0446954 0.0631131 0.609248
0.0446226 0.0618591 0.610394
0.0445547 0.0606103 0.611649
0.0444751 0.0593395 0.612659
0.0443852 0.05805 0.61345
0.0442953 0.0567581 0.614237
0.0442054 0.0554633 0.615012
0.0441076 0.054156 0.615631
0.0440093 0.0528472 0.616247
0.0439188 0.0515475 0.617027
0.0438388 0.0502621 0.618058
0.0437701 0.0489911 0.619364
0.0437029 0.0477178 0.620696
0.043645 0.0464539 0.62225
0.0435827 0.04518 0.623709
0.0435133 0.0438944 0.625029
0.0434545 0.0426181 0.62659
0.0433962 0.0413388 0.628183
0.0433498 0.0400679 0.630034
0.0433087 0.0388004 0.632061
0.043266 0.0375242 0.634035
0.0432152 0.0362348 0.635847
0.0431724 0.0349485 0.637849
0.0431156 0.0336433 0.639543
0.0491075 0.0977167 0.605525
0.0489455 0.0962732 0.604809
0.0487899 0.0948492 0.604228
0.0486031 0.093355 0.603034
0.0484335 0.0919039 0.602169
0.0482854 0.0905027 0.601705
0.0481379 0.0891074 0.601273
0.0479948 0.0877218 0.600908
0.0478464 0.0863271 0.600443
0.0476944 0.0849254 0.599895
0.0475461 0.0835352 0.599428
0.0474111 0.0821741 0.599218
0.0472782 0.0808176 0.59904
0.0471519 0.079477 0.599004
0.047029 0.0781432 0.599028
0.046913 0.0768252 0.599206
0.0468031 0.0755181 0.599496
0.0467128 0.07425 0.600198
0.0466352 0.0730034 0.60115
0.0465572 0.0717548 0.602105
0.0464707 0.0704882 0.602889
0.0463781 0.0692097 0.603563
0.0462853 0.0679286 0.604224
0.0461937 0.0666483 0.604912
0.0461135 0.065388 0.605859
0.0460528 0.0641578 0.607204
0.0459997 0.0629382 0.608727
0.045936 0.0616967 0.610031
0.0458777 0.0604611 0.611456
0.0458078 0.0592025 0.612633
0.0457268 0.0579246 0.61359
0.0456424 0.0566384 0.614466
0.0455527 0.0553438 0.615256
0.0454563 0.0540364 0.615886
0.0453622 0.0527312 0.616572
0.045269 0.0514253 0.617272
0.04519 0.0501391 0.618305
0.0451236 0.048867 0.619613
0.0450582 0.0475925 0.620941
0.0449952 0.046318 0.622333
0.0449335 0.0450426 0.623777
0.0448659 0.0437554 0.625084
0.0448092 0.0424786 0.626651
0.0447574 0.0412033 0.628334
0.0447204 0.0399399 0.630352
0.0446839 0.0386721 0.632403
0.0446431 0.0373943 0.634368
0.0445942 0.0361028 0.636163
0.0445505 0.0348117 0.638085
0.0444939 0.0335026 0.639713
0.0433925 0.0326571 0.649211
0.0444544 0.0322057 0.641761
0.0503717 0.0974313 0.604204
0.0502096 0.0959944 0.603525
0.0500586 0.0945855 0.603056
0.0498798 0.0931142 0.602041
0.0497125 0.0916733 0.60125
0.0495635 0.0902753 0.600803
0.0494203 0.0888902 0.600451
0.0492731 0.0874995 0.600031
0.0491268 0.0861136 0.599637
0.0489736 0.0847124 0.599082
0.0488208 0.0833143 0.598533
0.0486811 0.0819464 0.598248
0.0485472 0.0805906 0.598064
0.0484172 0.0792442 0.597959
0.0482936 0.0779108 0.597974
0.0481772 0.0765926 0.598137
0.0480701 0.0752932 0.598491
0.0479818 0.0740261 0.599194
0.0479079 0.0727868 0.60021
0.0478352 0.0715462 0.601242
0.0477531 0.0702875 0.602104
0.0476631 0.0690118 0.602798
0.047575 0.0677382 0.603538
0.0474874 0.0664647 0.604298
0.0474121 0.0652104 0.605312
0.0473577 0.0639872 0.606739
0.0473102 0.0627738 0.608338
0.0472567 0.0615451 0.609805
0.0472057 0.0603169 0.611331
0.0471379 0.0590598 0.612531
0.0470622 0.0577879 0.613576
0.0469823 0.0565068 0.614531
0.046895 0.0552127 0.615338
0.0467996 0.0539047 0.615968
0.046709 0.0526039 0.616729
0.0466202 0.0513018 0.6175
0.0465467 0.0500199 0.618618
0.0464827 0.0487476 0.619938
0.0464191 0.0474725 0.621276
0.0463575 0.046196 0.622657
0.0462906 0.044911 0.623952
0.0462206 0.0436181 0.625171
0.0461665 0.0423409 0.626747
0.0461212 0.0410689 0.628512
0.046088 0.0398059 0.630557
0.0460577 0.0385403 0.632674
0.0460194 0.0372608 0.63463
0.0459689 0.0359637 0.636328
0.0459282 0.0346717 0.638252
0.0458738 0.0333622 0.639896
0.0458351 0.0320622 0.641894
0.0514755 0.0957255 0.602323
0.0513262 0.0943245 0.601904
0.0511572 0.0928812 0.601111
0.0509896 0.0914432 0.600336
0.0508394 0.0900457 0.599882
0.0506915 0.0886554 0.599473
0.0505478 0.087274 0.599125
0.0503981 0.0858832 0.598675
0.0502431 0.0844838 0.598125
0.0500892 0.0830867 0.597574
0.0499479 0.0817189 0.597276
0.0498137 0.080364 0.59709
0.0496869 0.0790261 0.597055
0.0495633 0.0776947 0.597079
0.049447 0.0763775 0.597241
0.0493411 0.0750782 0.597588
0.0492476 0.0738041 0.598204
0.0491722 0.0725586 0.599143
0.0491037 0.0713246 0.600234
0.0490275 0.0700742 0.601176
0.0489417 0.0688058 0.601942
0.0488589 0.0675402 0.602763
0.0487796 0.0662802 0.603673
0.0487107 0.0650344 0.604782
0.0486627 0.0638186 0.606297
0.048623 0.0626126 0.607991
0.0485794 0.0613967 0.60962
0.0485302 0.0601692 0.611158
0.0484692 0.0589181 0.612445
0.0483985 0.0576512 0.613562
0.0483239 0.0563748 0.614592
0.048241 0.0550854 0.615473
0.0481497 0.0537818 0.616182
0.0480642 0.0524857 0.617026
0.0479799 0.0511881 0.617881
0.0479127 0.0499112 0.619096
0.0478479 0.0486332 0.620351
0.0477898 0.0473613 0.621765
0.0477264 0.0460795 0.623076
0.0476576 0.0447883 0.624286
0.0475852 0.0434899 0.625428
0.047533 0.0422115 0.627
0.0474911 0.0409389 0.628777
0.0474605 0.039675 0.630827
0.04743 0.0384046 0.632872
0.0473901 0.03712 0.63474
0.0473369 0.0358171 0.63633
0.047299 0.0345245 0.638259
0.047251 0.033218 0.639988
0.0472171 0.0319179 0.642007
0.0527257 0.0954304 0.600902
0.0525802 0.0940411 0.600564
0.0524211 0.092624 0.599976
0.0522558 0.091196 0.599271
0.0521041 0.0897985 0.598805
0.0519543 0.0884081 0.598382
0.0518097 0.0870281 0.598034
0.0516636 0.0856481 0.597669
0.051513 0.0842587 0.597199
0.051362 0.0828727 0.596739
0.0512241 0.081513 0.59651
0.0510927 0.0801663 0.596393
0.0509662 0.0788296 0.596363
0.0508435 0.0775001 0.596399
0.0507278 0.0761853 0.596577
0.0506182 0.0748798 0.596854
0.050517 0.0735913 0.59731
0.0504382 0.0723387 0.598162
0.0503667 0.0710979 0.599168
0.0502915 0.0698492 0.600115
0.0502117 0.0685891 0.600961
0.0501379 0.0673383 0.601938
0.0500692 0.0660925 0.603008
0.0500109 0.0648612 0.604286
0.04997 0.0636545 0.60591
0.0499409 0.0624617 0.607769
0.0499083 0.0612574 0.609552
0.0498612 0.0600288 0.611084
0.0498054 0.0587824 0.612439
0.0497396 0.0575195 0.61362
0.0496655 0.0562428 0.614653
0.0495844 0.0549529 0.615538
0.0494975 0.0536541 0.616326
0.049418 0.052363 0.617257
0.0493398 0.0510707 0.618209
0.0492749 0.049794 0.619444
0.0492119 0.0485153 0.620709
0.0491588 0.0472462 0.622188
0.0490929 0.0459579 0.623411
0.049022 0.0446609 0.624541
0.0489508 0.0433616 0.625684
0.0489003 0.0420807 0.627234
0.0488564 0.0408033 0.628934
0.048826 0.0395342 0.630906
0.048794 0.0382593 0.632872
0.0487527 0.0369694 0.634648
0.048697 0.0356623 0.63615
0.048658 0.0343655 0.637993
0.04862 0.0330652 0.639879
0.048589 0.0317651 0.641912
0.0541414 0.0965732 0.600213
0.0539886 0.09517 0.599764
0.0538404 0.093778 0.599391
0.0536806 0.0923632 0.598807
0.0535097 0.0909302 0.598045
0.053353 0.0895251 0.597498
0.053201 0.0881337 0.597051
0.0530513 0.0867476 0.59663
0.0529094 0.0853779 0.59634
0.0527625 0.0840006 0.595965
0.0526154 0.0826251 0.595587
0.0524781 0.0812694 0.595381
0.0523508 0.0799324 0.595344
0.0522283 0.0786051 0.595394
0.0521098 0.0772853 0.595514
0.0519998 0.0759796 0.595775
0.0518939 0.0746822 0.596126
0.051793 0.0733937 0.596575
0.0517095 0.0721328 0.59733
0.051635 0.0708855 0.598255
0.0515613 0.0696372 0.599195
0.0514836 0.06838 0.600064
0.0514202 0.0671442 0.601204
0.0513624 0.0659134 0.602444
0.0513181 0.0647023 0.603961
0.0512891 0.063509 0.605751
0.0512716 0.0623286 0.607771
0.0512453 0.0611298 0.609634
0.0512001 0.0598996 0.611157
0.0511452 0.0586519 0.612504
0.0510776 0.0573825 0.613606
0.0510059 0.0561057 0.614646
0.0509258 0.0548156 0.615536
0.0508442 0.0535224 0.616412
0.0507711 0.0522366 0.617436
0.050702 0.0509545 0.618557
0.05064 0.049677 0.619803
0.0505812 0.0484011 0.621128
0.0505299 0.04713 0.622599
0.0504614 0.0458355 0.623739
0.0503881 0.044533 0.62479
0.0503174 0.0432316 0.625914
0.0502608 0.0419413 0.627305
0.050218 0.0406623 0.628989
0.0501856 0.0393879 0.63087
0.0501528 0.038108 0.632752
0.0501088 0.0368138 0.634439
0.0500517 0.0355022 0.635854
0.0500019 0.0341941 0.637437
0.0499715 0.0328972 0.639405
0.0499477 0.0316007 0.641527
0.0552501 0.0949133 0.598653
0.0550995 0.0935203 0.598259
0.0549345 0.0921001 0.597616
0.054765 0.0906718 0.596881
0.0546017 0.0892589 0.596251
0.0544449 0.0878608 0.595728
0.0542899 0.0864678 0.595229
0.054146 0.0850995 0.594933
0.0540032 0.0837332 0.594641
0.0538614 0.0823699 0.594362
0.0537291 0.0810256 0.594248
0.0536064 0.0796985 0.594292
0.0534882 0.0783802 0.594418
0.0533741 0.0770693 0.594616
0.0532643 0.075766 0.59489
0.053163 0.0744767 0.595314
0.0530673 0.0731955 0.595831
0.0529801 0.0719279 0.596507
0.0529059 0.07068 0.597415
0.0528379 0.0694387 0.598425
0.0527657 0.0681893 0.599373
0.0527096 0.0669629 0.600618
0.052666 0.0657528 0.602096
0.052638 0.064561 0.603849
0.05262 0.06338 0.605798
0.0526108 0.0622059 0.607907
0.0525878 0.0610064 0.609772
0.0525443 0.0597754 0.611295
0.0524868 0.058521 0.612564
0.0524158 0.0572456 0.613593
0.0523455 0.0559683 0.614635
0.0522754 0.0546885 0.615681
0.0522005 0.0534011 0.616655
0.0521294 0.052115 0.61769
0.0520706 0.050842 0.618967
0.0520096 0.0495627 0.620205
0.0519485 0.0482809 0.621457
0.0518948 0.0470035 0.622842
0.0518269 0.0457075 0.623972
0.0517504 0.0443997 0.624946
0.0516775 0.0430932 0.625992
0.0516173 0.0417975 0.627295
0.0515727 0.0405129 0.628886
0.0515339 0.0392296 0.630596
0.0514992 0.037945 0.632384
0.0514527 0.036646 0.633974
0.051397 0.0353346 0.635386
0.0513446 0.0340223 0.636875
0.0513251 0.0327322 0.639
0.0513046 0.0314356 0.641124
0.049953 0.0303204 0.644241
0.0513166 0.0301565 0.643875
0.0499705 0.0290412 0.647209
0.0513383 0.0288773 0.646851
0.0563495 0.0932491 0.597012
0.0561819 0.0918284 0.596351
0.056013 0.0904059 0.595649
0.0558481 0.0889942 0.595015
0.0556855 0.0875893 0.594415
0.0555284 0.0861975 0.59391
0.0553857 0.0848325 0.593628
0.0552505 0.0834835 0.593479
0.0551172 0.0821384 0.593356
0.0549942 0.0808117 0.593399
0.0548761 0.0794939 0.593524
0.054762 0.0781838 0.593722
0.054648 0.0768736 0.593919
0.0545387 0.0755712 0.594195
0.0544346 0.0742767 0.594558
0.0543389 0.072997 0.595083
0.054249 0.0717236 0.595688
0.0541762 0.0704759 0.59659
0.0541126 0.0692413 0.597665
0.0540505 0.0680063 0.598769
0.0540023 0.0667884 0.600109
0.0539746 0.0655981 0.601821
0.053958 0.0644199 0.603738
0.0539441 0.0632396 0.605703
0.0539425 0.0620712 0.607892
0.0539217 0.0608708 0.609755
0.0538815 0.0596394 0.611281
0.0538256 0.0583843 0.612548
0.0537601 0.0571138 0.613653
0.0536915 0.0558362 0.6147
0.0536306 0.0545665 0.6159
0.0535625 0.0532839 0.616961
0.0534928 0.0519975 0.618007
0.0534362 0.0507234 0.619287
0.0533711 0.0494374 0.620435
0.0533036 0.0481449 0.621528
0.053247 0.0468617 0.622827
0.0531761 0.0455613 0.623889
0.0531013 0.0442526 0.624858
0.05303 0.0429459 0.625908
0.0529713 0.0416496 0.62721
0.0529241 0.0403599 0.628711
0.052883 0.0390715 0.630326
0.0528448 0.0377822 0.632021
0.0527969 0.0364792 0.633527
0.0527423 0.0351678 0.634935
0.052684 0.0338489 0.636266
0.0526749 0.0325647 0.638532
0.0526592 0.0312686 0.64067
0.052671 0.0299866 0.643348
0.0526886 0.0287011 0.646163
