ply
format ascii 1.0
element vertex 1615
property float x
property float y
property float z
end_header
0.04148 -0.0288664 0.189968
0.0417213 -0.0285544 0.190266
0.0424734 -0.0285514 0.192945
0.0419603 -0.0282404 0.190528
0.0158316 -0.0667673 0.195169
0.0160839 -0.0663183 0.194639
0.0163372 -0.0658571 0.194035
0.0165896 -0.0653938 0.193411
0.0168402 -0.0649374 0.192813
0.0170878 -0.0644933 0.192272
0.0173292 -0.0640883 0.191934
0.0175689 -0.063689 0.191622
0.0178035 -0.0633262 0.191505
0.0180359 -0.0629767 0.191459
0.0182669 -0.0626365 0.191466
0.0184978 -0.0622976 0.191478
0.0187271 -0.0619711 0.191561
0.0189565 -0.0616455 0.191649
0.019185 -0.0613277 0.191783
0.019412 -0.0610273 0.19202
0.019639 -0.060728 0.192267
0.0198659 -0.0604337 0.192547
0.0200961 -0.0601059 0.192629
0.0203274 -0.0597652 0.192634
0.0205602 -0.0594055 0.19252
0.0207938 -0.0590275 0.192291
0.0210282 -0.0586287 0.191928
0.0212612 -0.0582433 0.19164
0.0214938 -0.0578505 0.191301
0.0217265 -0.0574453 0.190874
0.0219583 -0.0570394 0.190433
0.0221885 -0.0566556 0.190127
0.0224177 -0.0562739 0.189829
0.0226463 -0.0558951 0.189543
0.022874 -0.0555315 0.189353
0.023101 -0.0551826 0.189257
0.0233277 -0.0548251 0.1891
0.0235542 -0.0544782 0.18901
0.0237802 -0.0541341 0.188939
0.024006 -0.0537811 0.188802
0.0242312 -0.053425 0.188639
0.0244559 -0.0530593 0.188402
0.0246794 -0.0526809 0.188068
0.024902 -0.0523025 0.187725
0.025124 -0.0519227 0.187363
0.0253449 -0.0515419 0.186986
0.0255666 -0.0511864 0.186789
0.0257888 -0.050845 0.186696
0.0260112 -0.050512 0.186665
0.0262357 -0.0502032 0.186821
0.0264611 -0.0499005 0.187026
0.0266862 -0.0495923 0.187191
0.0269109 -0.0492798 0.187324
0.0271343 -0.0489547 0.187356
0.0273556 -0.0486149 0.187265
0.0275768 -0.0482746 0.187166
0.0277958 -0.0479246 0.186982
0.0280144 -0.0475754 0.1868
0.028234 -0.0472343 0.186681
0.0284524 -0.0468892 0.186523
0.0286713 -0.0465497 0.18641
0.0288924 -0.0462232 0.186409
0.0291147 -0.0459031 0.186465
0.029337 -0.0455819 0.18651
0.0295601 -0.0452649 0.186595
0.0297818 -0.044942 0.186624
0.0300008 -0.044609 0.186557
0.0302207 -0.0442808 0.186532
0.0304394 -0.0439488 0.186468
0.0306586 -0.0436201 0.186433
0.0308784 -0.0432932 0.186413
0.0311 -0.0429731 0.186462
0.0313235 -0.0426582 0.186564
0.031553 -0.0423594 0.186839
0.0317866 -0.04207 0.18722
0.032021 -0.0417803 0.187608
0.0322557 -0.0414887 0.187986
0.0324861 -0.0411849 0.188236
0.0327132 -0.040872 0.188387
0.0329374 -0.0405525 0.188466
0.0331608 -0.0402311 0.188524
0.0333871 -0.0399156 0.18865
0.0336158 -0.039604 0.18883
0.0338471 -0.0392967 0.189065
0.034085 -0.0389999 0.189438
0.0343268 -0.038708 0.189886
0.034573 -0.0384212 0.190415
0.0348241 -0.038139 0.191022
0.0350776 -0.0378579 0.191664
0.0353231 -0.0375615 0.192116
0.0355657 -0.037259 0.1925
0.0358098 -0.0369569 0.1929
0.0374191 -0.0341384 0.189842
0.0376366 -0.0338107 0.189794
0.0378542 -0.0334835 0.189754
0.038073 -0.0331582 0.189738
0.0382951 -0.0328356 0.189773
0.0385139 -0.0325107 0.189759
0.0387295 -0.0321835 0.189696
0.0389455 -0.0318571 0.189645
0.0391618 -0.0315312 0.189597
0.0393783 -0.0312061 0.189557
0.0395934 -0.0308802 0.1895
0.0398124 -0.0305574 0.189503
0.0400344 -0.0302366 0.189548
0.0402506 -0.0299126 0.189513
0.0404734 -0.0295923 0.189573
0.0407008 -0.0292748 0.189698
0.0409328 -0.0289589 0.189879
0.0411652 -0.0286431 0.190069
0.041407 -0.0283311 0.190376
0.0416472 -0.0280172 0.190657
0.0423995 -0.0280083 0.193339
0.0418878 -0.027703 0.19094
0.0155809 -0.0672021 0.195616
0.0152166 -0.0670983 0.196305
0.0154691 -0.0666604 0.195844
0.0157244 -0.0662022 0.195268
0.0159812 -0.0657281 0.194598
0.0162381 -0.0652468 0.193878
0.0164933 -0.0647698 0.193169
0.0167445 -0.0643106 0.192545
0.0169867 -0.0639052 0.192204
0.0172274 -0.0635059 0.191892
0.0174616 -0.0631476 0.191803
0.0176939 -0.062802 0.191782
0.0179248 -0.0624655 0.191811
0.0181551 -0.0621347 0.191872
0.0183831 -0.0618212 0.192033
0.0186118 -0.0615046 0.192177
0.018839 -0.0611995 0.192391
0.0190646 -0.060915 0.192728
0.0192914 -0.0606201 0.193009
0.0195184 -0.0603295 0.193318
0.0197493 -0.0600001 0.193397
0.0199821 -0.0596494 0.193348
0.0202172 -0.0592724 0.193133
0.0204529 -0.0588809 0.192824
0.0206894 -0.0584691 0.192381
0.0209241 -0.0580716 0.192019
0.0211588 -0.057663 0.191579
0.0213928 -0.0572485 0.191093
0.0216263 -0.0568261 0.190545
0.0218578 -0.0564272 0.190139
0.022088 -0.0560384 0.189791
0.0223171 -0.0556563 0.189481
0.0225452 -0.0552896 0.189267
0.0227724 -0.0549444 0.189194
0.0229995 -0.0545871 0.189037
0.0232259 -0.0542367 0.188923
0.0234521 -0.0538925 0.188848
0.0236781 -0.0535362 0.188685
0.0239035 -0.053174 0.188476
0.0241283 -0.052805 0.188212
0.0243522 -0.0524235 0.18785
0.0245751 -0.0520417 0.187477
0.0247971 -0.0516596 0.187093
0.0250184 -0.0512793 0.186713
0.02524 -0.0509242 0.186517
0.0254623 -0.0505836 0.186425
0.0256851 -0.0502543 0.186418
0.0259096 -0.0499522 0.186625
0.0261352 -0.0496558 0.18688
0.0263609 -0.0493568 0.187118
0.0265864 -0.0490533 0.187325
0.0268103 -0.0487319 0.187386
0.0270317 -0.0483897 0.187275
0.0272524 -0.048046 0.187147
0.0274709 -0.04769 0.18691
0.0276889 -0.0473353 0.186677
0.0279082 -0.0469921 0.186537
0.0281268 -0.0466472 0.186378
0.0283457 -0.0463081 0.186266
0.0285664 -0.0459798 0.186246
0.0287886 -0.0456598 0.186301
0.0290112 -0.045341 0.186367
0.0292347 -0.0450265 0.186474
0.0294571 -0.0447067 0.186531
0.0296773 -0.044379 0.186512
0.0298981 -0.0440534 0.186512
0.0301169 -0.0437216 0.186449
0.0303365 -0.043393 0.186413
0.0305555 -0.043064 0.18637
0.0307771 -0.0427437 0.186417
0.0309998 -0.0424265 0.186495
0.0312281 -0.0421255 0.186747
0.0314611 -0.0418357 0.187128
0.0316959 -0.041548 0.187539
0.0319302 -0.0412565 0.187921
0.0321612 -0.0409548 0.188197
0.0323888 -0.0406437 0.188371
0.0326132 -0.0403244 0.188451
0.0328366 -0.040003 0.188509
0.0330637 -0.0396893 0.188659
0.0332924 -0.0393779 0.188841
0.0335227 -0.0390686 0.189053
0.0337579 -0.0387676 0.189377
0.0339948 -0.0384676 0.189724
0.0342355 -0.0381728 0.19015
0.0344819 -0.0378848 0.190681
0.0347332 -0.0376014 0.191295
0.0349796 -0.037308 0.191787
0.0352264 -0.0370126 0.19227
0.035477 -0.0367201 0.192812
0.0373092 -0.0335798 0.18973
0.0375301 -0.0332555 0.189741
0.0377518 -0.0329326 0.18977
0.0379752 -0.0326113 0.189827
0.038196 -0.0322876 0.189839
0.0384132 -0.0319615 0.189799
0.0386282 -0.0316343 0.18973
0.038843 -0.0313071 0.189656
0.039058 -0.0309806 0.18959
0.03927 -0.0306527 0.189483
0.0394862 -0.0303282 0.189442
0.039708 -0.0300074 0.189486
0.0399247 -0.0296836 0.189457
0.0401458 -0.0293627 0.189496
0.0403749 -0.0290458 0.189643
0.0406079 -0.0287307 0.189844
0.0408404 -0.0284148 0.190035
0.0410818 -0.0281024 0.190341
0.0413215 -0.0277884 0.19062
0.0415598 -0.0274732 0.190874
0.014613 -0.0673401 0.196973
0.0148585 -0.0669483 0.19676
0.0151101 -0.0665231 0.196366
0.0153659 -0.0660682 0.195809
0.0156248 -0.0655916 0.195126
0.0158857 -0.0650967 0.194332
0.016144 -0.0646095 0.193568
0.0163988 -0.064137 0.19287
0.0166426 -0.0637272 0.192507
0.0168829 -0.0633359 0.192239
0.0171163 -0.062986 0.192199
0.0173484 -0.0626447 0.192205
0.017578 -0.0623206 0.192309
0.0178075 -0.0619978 0.19242
0.0180354 -0.0616888 0.192612
0.0182636 -0.061376 0.192785
0.0184904 -0.0610787 0.193049
0.0187156 -0.0607974 0.193413
0.0189432 -0.0604979 0.193673
0.0191706 -0.0602048 0.193975
0.0194028 -0.0598686 0.194019
0.0196374 -0.0595076 0.19391
0.0198742 -0.0591206 0.193637
0.0201111 -0.0587246 0.193303
0.0203497 -0.0583049 0.192811
0.0205862 -0.0578969 0.192384
0.0208229 -0.057473 0.191847
0.0210589 -0.0570475 0.191287
0.0212939 -0.0566177 0.190688
0.0215268 -0.0562082 0.190211
0.0217581 -0.0558119 0.189812
0.0219877 -0.055429 0.189495
0.0222165 -0.055059 0.189257
0.0224438 -0.054707 0.189137
0.0226712 -0.0543466 0.188956
0.022898 -0.0539927 0.188816
0.0231245 -0.0536421 0.188694
0.0233506 -0.0532767 0.188463
0.0235762 -0.0529083 0.188205
0.023801 -0.0525331 0.187892
0.0240251 -0.0521486 0.187501
0.0242484 -0.0517676 0.187128
0.0244707 -0.0513892 0.186765
0.0246925 -0.0510161 0.186434
0.0249145 -0.0506623 0.186242
0.0251369 -0.0503274 0.18619
0.0253596 -0.0500015 0.186207
0.0255842 -0.0497024 0.186436
0.0258095 -0.0494095 0.186719
0.0260354 -0.0491189 0.187026
0.0262614 -0.0488214 0.187281
0.0264854 -0.0485033 0.187371
0.026707 -0.0481613 0.18726
0.0269277 -0.0478148 0.187106
0.0271466 -0.0474583 0.186861
0.0273642 -0.0470986 0.186583
0.0275832 -0.0467529 0.186418
0.0278018 -0.0464084 0.186259
0.0280207 -0.0460672 0.186124
0.0282408 -0.0457364 0.18608
0.028463 -0.0454169 0.186137
0.0286853 -0.0450983 0.186203
0.0289092 -0.0447866 0.186336
0.0291327 -0.0444719 0.18644
0.0293537 -0.0441473 0.18645
0.0295751 -0.0438245 0.186476
0.0297949 -0.0434955 0.186438
0.030015 -0.043169 0.186425
0.0302344 -0.0428403 0.186386
0.0304559 -0.04252 0.186433
0.030678 -0.0422007 0.186488
0.0309058 -0.041899 0.186735
0.0311368 -0.0416046 0.187069
0.0313711 -0.0413164 0.187477
0.0316048 -0.0410244 0.187857
0.0318365 -0.0407248 0.188157
0.032064 -0.0404138 0.188333
0.0322889 -0.0400963 0.188436
0.0325124 -0.0397749 0.188493
0.0327404 -0.039463 0.188665
0.0329688 -0.0391514 0.188849
0.0331981 -0.0388404 0.18904
0.0334319 -0.0385371 0.189339
0.0336661 -0.0382332 0.189638
0.0339043 -0.0379345 0.190015
0.0341477 -0.0376426 0.190496
0.0343968 -0.0373567 0.19108
0.0346438 -0.0370655 0.191603
0.0348934 -0.0367748 0.192159
0.0351456 -0.0364855 0.192753
0.0353963 -0.0361914 0.193296
0.0372065 -0.0330279 0.189733
0.0374311 -0.0327078 0.189814
0.0376541 -0.032386 0.189865
0.037876 -0.0320632 0.189896
0.038095 -0.0317381 0.189879
0.0383106 -0.0314111 0.189812
0.0385242 -0.031083 0.189717
0.0387394 -0.0307563 0.189648
0.0389484 -0.0304265 0.189494
0.0391643 -0.0301018 0.189447
0.0393833 -0.0297791 0.189449
0.0396002 -0.0294556 0.189419
0.03982 -0.0291339 0.189436
0.0400486 -0.0288168 0.189582
0.0402794 -0.0285007 0.189756
0.0405116 -0.0281848 0.189946
0.0407527 -0.0278722 0.190251
0.040992 -0.0275582 0.190531
0.0412296 -0.0272428 0.190781
0.0140021 -0.0676007 0.197735
0.0142491 -0.0672086 0.197526
0.0144967 -0.0668103 0.197282
0.0147494 -0.0663841 0.196885
0.0150057 -0.0659351 0.19636
0.0152685 -0.065445 0.195605
0.015533 -0.0649401 0.194757
0.015794 -0.0644472 0.19396
0.0160511 -0.0639699 0.193235
0.016297 -0.063552 0.192828
0.016536 -0.0631739 0.192635
0.0167686 -0.0628326 0.192645
0.0170003 -0.0624959 0.192681
0.0172289 -0.0621804 0.192839
0.0174587 -0.0618578 0.192956
0.0176861 -0.0615522 0.193173
0.0179151 -0.0612388 0.193346
0.018142 -0.06094 0.193609
0.0183679 -0.0606532 0.193947
0.0185969 -0.0603441 0.194155
0.0188264 -0.0600332 0.194355
0.0190606 -0.0596823 0.194312
0.0192971 -0.0593077 0.194121
0.0195359 -0.0589088 0.193774
0.0197731 -0.0585166 0.193463
0.0200119 -0.0581051 0.193021
0.0202491 -0.0576981 0.1926
0.0204875 -0.0572678 0.192019
0.0207246 -0.0568412 0.19145
0.0209612 -0.0564069 0.190819
0.0211937 -0.0560152 0.190458
0.0214279 -0.0555827 0.189816
0.02166 -0.055166 0.189267
0.0218906 -0.0547623 0.188795
0.0221185 -0.0543939 0.188556
0.0223466 -0.0540076 0.188188
0.0225723 -0.0536787 0.188215
0.022798 -0.0533505 0.188245
0.0230239 -0.0529996 0.188112
0.0232496 -0.0526281 0.187826
0.0234747 -0.052248 0.18747
0.0236991 -0.0518705 0.187124
0.0239227 -0.0514971 0.1868
0.0241454 -0.0511261 0.186488
0.0243677 -0.0507607 0.186209
0.0245899 -0.0504136 0.186065
0.0248126 -0.0500851 0.186061
0.0250356 -0.0497647 0.18612
0.02526 -0.0494684 0.186372
0.0254851 -0.0491786 0.186681
0.0257107 -0.0488881 0.18699
0.0259362 -0.0485879 0.187224
0.0261602 -0.0482693 0.187308
0.0263818 -0.0479251 0.187176
0.0266022 -0.0475762 0.187001
0.0268213 -0.0472199 0.186756
0.0270394 -0.0468607 0.186476
0.0272583 -0.0465129 0.18629
0.0274771 -0.0461686 0.18613
0.0276964 -0.0458297 0.186013
0.027917 -0.0455014 0.185989
0.0281392 -0.0451819 0.186045
0.0283615 -0.0448636 0.186113
0.0285862 -0.0445568 0.186292
0.02881 -0.0442446 0.186422
0.0290325 -0.0439253 0.186482
0.0292551 -0.0436074 0.186558
0.0294768 -0.0432852 0.18659
0.0296978 -0.0429608 0.186601
0.0299177 -0.0426325 0.186566
0.0301395 -0.0423121 0.186614
0.0303615 -0.0419921 0.186667
0.030588 -0.0416858 0.186868
0.0308172 -0.0413863 0.18715
0.0310499 -0.0410949 0.18753
0.0312819 -0.0407987 0.187863
0.0315123 -0.0404967 0.188141
0.0317398 -0.0401857 0.188317
0.0319649 -0.0398683 0.188421
0.0321883 -0.0395469 0.188478
0.0324159 -0.0392347 0.18865
0.0326444 -0.0389232 0.188834
0.0328735 -0.038612 0.189025
0.0331068 -0.0383084 0.189324
0.0333408 -0.0380044 0.189623
0.0335786 -0.0377053 0.19
0.0338213 -0.0374127 0.190479
0.0340686 -0.037125 0.191039
0.0343147 -0.0368328 0.191558
0.0345658 -0.0365452 0.192163
0.0348191 -0.0362578 0.192795
0.0350715 -0.0359662 0.193386
0.035654 -0.0359039 0.193959
0.03533 -0.0356797 0.194079
0.0355914 -0.0353939 0.194811
0.0371102 -0.0324827 0.189858
0.0373327 -0.0321602 0.189897
0.0375554 -0.0318381 0.189941
0.0377753 -0.0315137 0.18994
0.0379926 -0.0311876 0.189895
0.0382056 -0.0308587 0.189783
0.0384206 -0.0305322 0.18971
0.0386284 -0.0302012 0.189528
0.0388443 -0.0298761 0.189476
0.0390601 -0.0295518 0.189432
0.0392768 -0.029228 0.189398
0.039495 -0.0289056 0.18939
0.0397217 -0.0285875 0.189508
0.039949 -0.0282699 0.189635
0.040181 -0.0279538 0.189824
0.0404197 -0.0276407 0.190106
0.040659 -0.0273265 0.190391
0.0408965 -0.0270112 0.190642
0.0136479 -0.0674105 0.197986
0.0138927 -0.0670311 0.197845
0.0141407 -0.0666354 0.197615
0.0143925 -0.0662182 0.197267
0.014649 -0.0657743 0.196768
0.0149102 -0.065301 0.196104
0.0151785 -0.0647855 0.195197
0.0154433 -0.06428 0.19433
0.0157031 -0.063797 0.193573
0.0159469 -0.0633963 0.193262
0.0161885 -0.0630072 0.193009
0.0164199 -0.0626749 0.193074
0.0166506 -0.062347 0.193163
0.0168794 -0.0620314 0.193324
0.0171096 -0.0617082 0.193442
0.0173381 -0.0613977 0.193636
0.0175684 -0.0610742 0.193756
0.0177974 -0.0607617 0.193941
0.0180251 -0.0604612 0.1942
0.0182558 -0.0601383 0.194329
0.0184869 -0.0598137 0.194447
0.0187224 -0.0594537 0.194349
0.01896 -0.0590749 0.19413
0.0191994 -0.0586765 0.193784
0.0194364 -0.0582926 0.193523
0.0196749 -0.0578904 0.193138
0.0199119 -0.0574947 0.192788
0.0201508 -0.0570713 0.19225
0.0203885 -0.0566505 0.191718
0.0206246 -0.0562372 0.191224
0.0208563 -0.0558692 0.191023
0.0210952 -0.0553927 0.190084
0.0213315 -0.0549283 0.189209
0.0215654 -0.0544777 0.18841
0.0217964 -0.0540526 0.187772
0.0220264 -0.0536207 0.187073
0.0222503 -0.0533125 0.187236
0.0224746 -0.0530033 0.187392
0.0226996 -0.0526663 0.18735
0.0229249 -0.0523078 0.187149
0.0231498 -0.0519445 0.186906
0.0233741 -0.051582 0.186663
0.0235978 -0.0512257 0.186462
0.023821 -0.0508687 0.186249
0.0240437 -0.0505199 0.186093
0.0242664 -0.0501829 0.186025
0.0244895 -0.0498639 0.186095
0.0247125 -0.049549 0.1862
0.0249369 -0.049253 0.186455
0.0251617 -0.0489601 0.186742
0.0253867 -0.0486633 0.187003
0.0256115 -0.0483569 0.187187
0.0258349 -0.0480325 0.187222
0.0260565 -0.047688 0.187086
0.0262774 -0.0473398 0.186913
0.0264968 -0.0469845 0.186673
0.0267154 -0.046626 0.186396
0.0269345 -0.0462785 0.18621
0.0271533 -0.0459318 0.186025
0.0273725 -0.0455931 0.185908
0.0275936 -0.0452675 0.185907
0.0278165 -0.044953 0.186009
0.0280392 -0.0446374 0.186104
0.0282646 -0.0443349 0.186325
0.028489 -0.0440251 0.18648
0.0287124 -0.0437104 0.186587
0.0289354 -0.043393 0.18667
0.0291584 -0.0430752 0.18675
0.0293804 -0.0427532 0.186785
0.0296011 -0.0424268 0.186773
0.0298232 -0.0421063 0.186824
0.0300456 -0.0417862 0.186878
0.0302705 -0.0414749 0.187029
0.030498 -0.0411703 0.187259
0.030729 -0.040874 0.187588
0.0309591 -0.040573 0.187871
0.0311885 -0.0402689 0.188127
0.0314157 -0.0399578 0.188303
0.0316407 -0.0396402 0.188406
0.0318641 -0.0393188 0.188463
0.0320917 -0.0390066 0.188635
0.0323199 -0.0386949 0.188818
0.0325486 -0.0383834 0.18901
0.0327819 -0.0380799 0.189309
0.0330155 -0.0377755 0.189608
0.033253 -0.0374763 0.189987
0.0334943 -0.0371819 0.190447
0.0337409 -0.0368937 0.19101
0.0339852 -0.0365993 0.191503
0.0342366 -0.0363127 0.192129
0.0344902 -0.0360265 0.192785
0.0347435 -0.0357369 0.193415
0.0350005 -0.0354488 0.194093
0.0352604 -0.0351614 0.194809
0.0358532 -0.0351049 0.195523
0.0355228 -0.0348737 0.19555
0.0357732 -0.0345686 0.196028
0.0370142 -0.0319371 0.189985
0.0372373 -0.0316151 0.190032
0.037459 -0.0312919 0.190057
0.0376771 -0.0309663 0.190026
0.0378892 -0.0306365 0.189892
0.0381031 -0.0303088 0.189797
0.0383109 -0.0299777 0.189608
0.0385226 -0.0296498 0.189488
0.0387358 -0.0293236 0.189395
0.0389522 -0.0289998 0.189357
0.0391683 -0.0286762 0.189318
0.0393918 -0.0283569 0.189391
0.0396175 -0.0280383 0.189494
0.0398471 -0.0277217 0.189655
0.0400839 -0.0274076 0.189916
0.0403227 -0.0270936 0.1902
0.0413136 -0.0267609 0.193325
0.0407412 -0.026848 0.192984
0.0130534 -0.0675704 0.198226
0.0132972 -0.0671997 0.198133
0.0135407 -0.0668287 0.198036
0.0137869 -0.0664446 0.197868
0.0140364 -0.0660425 0.1976
0.0142906 -0.0656148 0.197189
0.0145515 -0.0651511 0.196575
0.0148179 -0.0646546 0.195771
0.0150879 -0.0641328 0.194814
0.015352 -0.063634 0.193969
0.0155952 -0.0632423 0.193709
0.0158358 -0.0628623 0.19351
0.0160722 -0.0625046 0.193434
0.0163032 -0.0621765 0.193526
0.0165319 -0.0618632 0.193704
0.016763 -0.0615349 0.193796
0.0169923 -0.0612182 0.193957
0.0172246 -0.0608851 0.194022
0.0174555 -0.0605584 0.194127
0.0176857 -0.06024 0.194281
0.0179189 -0.0598995 0.194303
0.0181522 -0.0595585 0.194321
0.0183889 -0.059191 0.194174
0.0186275 -0.0588055 0.193911
0.0188667 -0.0584122 0.193593
0.0191027 -0.0580411 0.193409
0.0193398 -0.0576556 0.193128
0.0195756 -0.0572768 0.192885
0.019819 -0.056819 0.19212
0.0200615 -0.0563556 0.191301
0.0203017 -0.0559038 0.190543
0.0205366 -0.0554957 0.190064
0.0207795 -0.0549757 0.188814
0.0210156 -0.0545199 0.187979
0.0212497 -0.0540667 0.187145
0.0214806 -0.0536431 0.186501
0.0217099 -0.0532249 0.18588
0.0219316 -0.0529399 0.186196
0.0221539 -0.0526473 0.186464
0.0223779 -0.0523253 0.18652
0.0226021 -0.0519821 0.186422
0.0228265 -0.0516343 0.186285
0.0230503 -0.0512901 0.186172
0.0232738 -0.0509546 0.186121
0.0234969 -0.0506177 0.186057
0.02372 -0.0502878 0.186045
0.0239431 -0.0499669 0.186101
0.0241663 -0.0496575 0.186249
0.0243899 -0.0493518 0.186429
0.024614 -0.0490554 0.186687
0.0248387 -0.0487587 0.186947
0.0250631 -0.0484527 0.187134
0.0252871 -0.0481361 0.187236
0.02551 -0.0477999 0.187172
0.0257313 -0.0474501 0.186988
0.0259521 -0.0470977 0.186775
0.0261719 -0.0467434 0.18654
0.0263907 -0.0463855 0.186264
0.0266102 -0.0460381 0.186075
0.0268294 -0.0456943 0.185912
0.027049 -0.0453565 0.1858
0.0272703 -0.0450338 0.185826
0.0274937 -0.0447225 0.185958
0.0277168 -0.0444093 0.186075
0.0279424 -0.0441091 0.186321
0.0281675 -0.0438036 0.186519
0.0283919 -0.0434937 0.186677
0.0286156 -0.0431788 0.186786
0.0288398 -0.0428654 0.186912
0.0290629 -0.0425471 0.18699
0.0292844 -0.0422228 0.187004
0.0295068 -0.0419022 0.187057
0.0297293 -0.0415816 0.187109
0.0299538 -0.0412676 0.187235
0.0301799 -0.0409583 0.187417
0.0304091 -0.040657 0.187694
0.0306375 -0.0403516 0.187931
0.0308659 -0.0400449 0.188158
0.0310923 -0.0397315 0.18831
0.0313164 -0.0394121 0.188391
0.0315399 -0.0390907 0.188448
0.0317672 -0.0387783 0.18862
0.0319955 -0.0384666 0.188803
0.0322239 -0.038155 0.188995
0.0324568 -0.0378512 0.189294
0.0326902 -0.0375466 0.189593
0.0329271 -0.0372472 0.189973
0.0331682 -0.0369527 0.190435
0.033413 -0.0366625 0.190977
0.0336561 -0.0363663 0.191448
0.033906 -0.0360787 0.192067
0.0341578 -0.0357903 0.192698
0.0344123 -0.0355031 0.193373
0.034672 -0.0352193 0.194129
0.0349327 -0.0349333 0.194882
0.0351935 -0.0346439 0.195608
0.0354442 -0.034339 0.196101
0.0360213 -0.0342588 0.196446
0.0356916 -0.0340287 0.196514
0.0369181 -0.031391 0.190108
0.0371412 -0.031069 0.19016
0.0373599 -0.0307434 0.19013
0.0375726 -0.030414 0.190005
0.0377868 -0.0300862 0.189906
0.0379946 -0.0297548 0.189712
0.0382039 -0.0294253 0.189546
0.0384157 -0.0290981 0.189427
0.0386307 -0.0287735 0.189365
0.0388456 -0.0284492 0.189301
0.0390658 -0.0281282 0.189327
0.039288 -0.0278082 0.189382
0.0395141 -0.0274898 0.189493
0.0399255 -0.0272507 0.192309
0.0126985 -0.0673744 0.19845
0.0129417 -0.0670069 0.198376
0.0131843 -0.0666429 0.198317
0.0134283 -0.0662715 0.198218
0.0136743 -0.065889 0.198057
0.0139253 -0.0654822 0.197759
0.0141828 -0.0650406 0.197268
0.0147282 -0.0639977 0.195371
0.0150039 -0.0634503 0.194254
0.0152473 -0.0630609 0.194008
0.0154869 -0.0626894 0.193859
0.0157228 -0.0623361 0.19381
0.0159533 -0.0620127 0.193932
0.0161828 -0.0616953 0.19409
0.0164159 -0.0613573 0.194129
0.0166483 -0.0610233 0.194191
0.0168828 -0.0606761 0.194174
0.0171169 -0.0603317 0.194173
0.0173506 -0.059988 0.194176
0.0175861 -0.0596343 0.194115
0.0178204 -0.0592843 0.194077
0.0180583 -0.05891 0.193883
0.0182981 -0.0585187 0.193579
0.0185363 -0.058134 0.193312
0.0187713 -0.0577716 0.19318
0.0190073 -0.0573999 0.192983
0.0192475 -0.0569851 0.192503
0.0194955 -0.0564953 0.191517
0.019743 -0.0559936 0.190432
0.0199875 -0.055503 0.189401
0.0202258 -0.0550582 0.188659
0.0204685 -0.0545503 0.18747
0.0207036 -0.0541052 0.18669
0.0209374 -0.0536615 0.185904
0.0211676 -0.0532469 0.185305
0.0213961 -0.0528411 0.184756
0.0216156 -0.0525689 0.185156
0.0218361 -0.0522885 0.185501
0.0220583 -0.0519832 0.185672
0.0222816 -0.0516562 0.185683
0.0225049 -0.0513241 0.185656
0.022728 -0.0509977 0.185669
0.0229507 -0.0506824 0.185767
0.0231735 -0.0503682 0.185873
0.0233964 -0.0500577 0.18601
0.0236195 -0.0497582 0.186236
0.023843 -0.0494667 0.18653
0.0240668 -0.04917 0.186786
0.024291 -0.0488706 0.187026
0.0245155 -0.0485693 0.187253
0.0247395 -0.04825 0.187335
0.0249631 -0.0479187 0.187314
0.0251854 -0.0475708 0.18715
0.0254067 -0.0472153 0.186915
0.0256272 -0.0468577 0.186654
0.0258472 -0.0465016 0.186397
0.0260664 -0.0461441 0.186121
0.026286 -0.045797 0.185931
0.0265057 -0.0454557 0.185788
0.0267257 -0.0451211 0.185703
0.026948 -0.0448042 0.185782
0.0271715 -0.0444958 0.185943
0.0273953 -0.0441874 0.186106
0.0276212 -0.0438896 0.186378
0.0278465 -0.0435862 0.1866
0.0280715 -0.0432785 0.186783
0.0282961 -0.0429679 0.186939
0.0285208 -0.0426566 0.18709
0.0287447 -0.0423405 0.187194
0.0289675 -0.04202 0.187252
0.0291903 -0.0416994 0.187308
0.0294131 -0.0413786 0.187362
0.0296371 -0.0410619 0.187463
0.0298614 -0.040746 0.187574
0.0300884 -0.040438 0.187779
0.0303152 -0.0401281 0.187965
0.0305421 -0.0398172 0.188145
0.0307676 -0.0395019 0.188275
0.0309923 -0.0391841 0.188375
0.0312157 -0.0388627 0.188433
0.031443 -0.0385502 0.188605
0.0316709 -0.0382383 0.188788
0.0318993 -0.0379266 0.188979
0.0321318 -0.0376224 0.189278
0.0323647 -0.0373176 0.189577
0.0326023 -0.0370195 0.189978
0.0328425 -0.0367243 0.19044
0.0330868 -0.0364337 0.19098
0.033329 -0.0361367 0.191447
0.0335774 -0.0358469 0.192041
0.0338261 -0.0355549 0.192624
0.0340798 -0.0352672 0.193298
0.0343398 -0.0349846 0.194084
0.0346031 -0.0347027 0.194915
0.0348656 -0.0344159 0.195696
0.0351176 -0.0341126 0.196227
0.0353636 -0.0338006 0.196621
0.0356051 -0.0334818 0.196908
0.0366002 -0.0311682 0.190215
0.0368231 -0.0308457 0.190258
0.037041 -0.0305194 0.190212
0.037254 -0.0301898 0.190083
0.0374687 -0.0298623 0.189991
0.0376783 -0.029532 0.189819
0.0378879 -0.0292023 0.189651
0.0380975 -0.0288737 0.189492
0.0383111 -0.028548 0.189401
0.0385231 -0.0282224 0.189292
0.038739 -0.0278992 0.189249
0.0389567 -0.027577 0.189233
0.0123404 -0.0671884 0.19873
0.0125814 -0.0668325 0.198718
0.0128224 -0.0664768 0.198706
0.0130585 -0.0661408 0.198799
0.0132975 -0.0657932 0.19883
0.0135417 -0.065423 0.198736
0.0137927 -0.0650184 0.198452
0.0146513 -0.0632829 0.194634
0.0148975 -0.0628836 0.194333
0.0153762 -0.0621485 0.194079
0.0156066 -0.0618253 0.194206
0.0158378 -0.0614982 0.19431
0.0160727 -0.0611512 0.194298
0.0163079 -0.0608036 0.19428
0.016545 -0.0604427 0.194182
0.016782 -0.0600814 0.194078
0.0170186 -0.0597207 0.193976
0.0172554 -0.059358 0.193858
0.0174905 -0.0590032 0.193786
0.0177291 -0.0586255 0.193568
0.0179695 -0.0582312 0.19324
0.0182067 -0.0578564 0.19303
0.0184418 -0.0574941 0.192895
0.0186833 -0.057081 0.192426
0.0189292 -0.0566255 0.191669
0.0191828 -0.0560971 0.190413
0.0194338 -0.0555729 0.18916
0.0196828 -0.0550462 0.187866
0.0199202 -0.05461 0.187162
0.0201621 -0.0541155 0.186043
0.020396 -0.0536865 0.185356
0.0206279 -0.053265 0.184706
0.0208562 -0.0528724 0.184247
0.0210836 -0.0524811 0.183788
0.0213012 -0.0522174 0.184241
0.0215197 -0.0519492 0.18467
0.0217401 -0.0516608 0.184956
0.0219622 -0.0513455 0.185047
0.0221844 -0.05103 0.185138
0.0224064 -0.0507223 0.185288
0.0226279 -0.0504347 0.185596
0.02285 -0.0501436 0.185881
0.0230725 -0.0498526 0.186173
0.0232954 -0.0495681 0.186522
0.0235188 -0.0492873 0.186906
0.0237427 -0.048983 0.187107
0.0239668 -0.0486745 0.187277
0.0241912 -0.048369 0.187474
0.0244152 -0.0480398 0.187475
0.0246384 -0.0476946 0.187337
0.0248607 -0.0473407 0.187119
0.0250823 -0.0469819 0.186852
0.0253028 -0.0466188 0.186539
0.0255227 -0.0462575 0.186232
0.0257421 -0.0459001 0.185952
0.0259619 -0.0455535 0.185763
0.0261821 -0.0452156 0.185647
0.0264028 -0.0448862 0.185609
0.0266256 -0.0445746 0.185737
0.0268496 -0.0442706 0.185942
0.027074 -0.0439671 0.186155
0.0273003 -0.0436734 0.186471
0.0275261 -0.0433727 0.186722
0.0277518 -0.0430693 0.186953
0.027977 -0.0427608 0.187135
0.0282022 -0.0424513 0.187309
0.0284263 -0.0421351 0.187416
0.0286494 -0.0418147 0.187478
0.0288726 -0.041494 0.187537
0.0290955 -0.0411728 0.18759
0.0293191 -0.0408538 0.187669
0.0295423 -0.0405333 0.187731
0.029768 -0.0402206 0.187885
0.0299933 -0.039906 0.188019
0.0302187 -0.039591 0.188151
0.0304434 -0.0392737 0.188258
0.0306681 -0.038956 0.18836
0.0308923 -0.0386363 0.188439
0.0311194 -0.0383238 0.188613
0.0313472 -0.0380118 0.188797
0.0315754 -0.0376999 0.188988
0.0318075 -0.0373954 0.189285
0.0320395 -0.0370888 0.189562
0.0322763 -0.0367902 0.189962
0.032516 -0.0364947 0.190422
0.0327595 -0.0362031 0.190957
0.0330011 -0.0359056 0.191424
0.0332476 -0.0356137 0.191992
0.0334957 -0.0353213 0.192576
0.0337486 -0.0350331 0.193251
0.0340078 -0.0347502 0.194042
0.0342703 -0.0344681 0.194881
0.0345331 -0.0341821 0.195691
0.0347856 -0.0338799 0.196249
0.0350331 -0.0335695 0.196681
0.0352741 -0.0332501 0.196961
0.0367214 -0.0302946 0.190284
0.036937 -0.0299669 0.190198
0.0371535 -0.0296405 0.190133
0.0373674 -0.0293125 0.190023
0.0375788 -0.0289836 0.189878
0.0377916 -0.0286564 0.189763
0.0380069 -0.0283315 0.189694
0.01198 -0.0670073 0.199039
0.0122186 -0.0666626 0.199089
0.0124542 -0.0663315 0.19921
0.0126823 -0.0660311 0.199499
0.0129134 -0.0657194 0.19973
0.0131489 -0.0653894 0.199863
0.0133849 -0.0650578 0.199989
0.0150283 -0.061961 0.194353
0.0152592 -0.0616362 0.194473
0.0154922 -0.0613007 0.194531
0.0157283 -0.0609498 0.194496
0.0159667 -0.0605845 0.194375
0.016207 -0.0602098 0.194192
0.0164466 -0.0598353 0.194007
0.0166861 -0.0594588 0.193807
0.0169245 -0.0590882 0.193637
0.0171604 -0.0587289 0.193535
0.0174004 -0.0583442 0.193269
0.0176429 -0.0579395 0.192869
0.0178811 -0.0575588 0.192616
0.018116 -0.0571977 0.192484
0.0183584 -0.0567811 0.191985
0.0186121 -0.0562761 0.190892
0.018873 -0.0557021 0.189316
0.0191296 -0.0551417 0.187801
0.0193805 -0.0546085 0.186441
0.0196202 -0.0541524 0.185582
0.0198572 -0.053707 0.184779
0.0200863 -0.0533247 0.184402
0.0203144 -0.0529446 0.184031
0.0205407 -0.0525765 0.183737
0.0207652 -0.0522216 0.183531
0.0209835 -0.0519398 0.183852
0.0212023 -0.0516561 0.184166
0.0214223 -0.0513628 0.184413
0.0216431 -0.0510602 0.184594
0.0218628 -0.0507819 0.184962
0.0220832 -0.0505017 0.185323
0.0223032 -0.0502431 0.185859
0.0225244 -0.0499769 0.186345
0.0227464 -0.0497085 0.186823
0.0229696 -0.0494207 0.187155
0.0231932 -0.0491334 0.187497
0.0234176 -0.0488193 0.187625
0.023642 -0.0484956 0.187676
0.0238665 -0.0481798 0.187793
0.0240907 -0.0478416 0.18772
0.0243141 -0.0474883 0.187514
0.0245368 -0.047127 0.187232
0.0247588 -0.0467673 0.186956
0.0249795 -0.046396 0.186567
0.0251994 -0.0460269 0.186187
0.0254189 -0.0456648 0.185861
0.0256388 -0.0453162 0.185649
0.0258591 -0.0449789 0.185537
0.0260801 -0.0446525 0.185525
0.026303 -0.0443435 0.185678
0.0265271 -0.0440418 0.185906
0.0267519 -0.0437427 0.186164
0.0269783 -0.0434514 0.186506
0.0272043 -0.0431532 0.186787
0.0274303 -0.0428519 0.187041
0.0276558 -0.0425455 0.187247
0.027881 -0.0422359 0.187425
0.0281052 -0.0419196 0.187532
0.0283289 -0.0416009 0.187616
0.0285521 -0.04128 0.187674
0.0287748 -0.0409568 0.187709
0.0289985 -0.0406375 0.187785
0.0292206 -0.0403125 0.187797
0.0294449 -0.0399951 0.187898
0.0296692 -0.0396779 0.188001
0.0298945 -0.0393627 0.188132
0.0301186 -0.0390438 0.188219
0.030344 -0.0387279 0.188345
0.0305688 -0.03841 0.188447
0.0307958 -0.0380976 0.188624
0.0310235 -0.0377855 0.188809
0.0312515 -0.0374733 0.188998
0.0314833 -0.0371684 0.189293
0.0317149 -0.0368614 0.189569
0.0319514 -0.0365626 0.189971
0.0321898 -0.0362652 0.19041
0.0324326 -0.0359733 0.190946
0.0326735 -0.0356752 0.191409
0.0329176 -0.0353801 0.191935
0.0331649 -0.035087 0.192515
0.0334168 -0.0347983 0.193189
0.0336748 -0.0345146 0.193978
0.0339363 -0.0342319 0.194818
0.0341981 -0.0339453 0.195629
0.0344512 -0.0336442 0.196214
0.0347003 -0.0333363 0.196695
0.0349405 -0.0330159 0.196965
0.0366148 -0.0297404 0.190225
0.0368339 -0.0294155 0.190202
0.037052 -0.0290904 0.190164
0.0372672 -0.0287635 0.190076
0.0374846 -0.0284386 0.19003
0.0116192 -0.0668238 0.199338
0.0118532 -0.0664982 0.199492
0.0120829 -0.0661911 0.199746
0.0123022 -0.0659266 0.200235
0.0125252 -0.0656493 0.20066
0.0127564 -0.0653389 0.20091
0.0129825 -0.0650517 0.20129
0.0146776 -0.0617834 0.194688
0.0149106 -0.0614492 0.194755
0.0151456 -0.0611051 0.194765
0.0153839 -0.0607441 0.194671
0.0156256 -0.0603652 0.194469
0.015868 -0.0599807 0.194227
0.0161096 -0.0595975 0.193988
0.0163518 -0.0592099 0.193716
0.016591 -0.0588355 0.193521
0.0168279 -0.0584727 0.193394
0.0170701 -0.0580768 0.193054
0.017315 -0.0576612 0.19258
0.0175551 -0.0572706 0.192259
0.0177912 -0.0569022 0.192075
0.0183002 -0.055906 0.189968
0.0185714 -0.0552722 0.187972
0.0188325 -0.0546895 0.186282
0.019085 -0.0541514 0.184864
0.0193243 -0.0536999 0.184015
0.0195549 -0.0533084 0.183568
0.0197788 -0.0529681 0.183472
0.0200029 -0.0526237 0.183343
0.0202234 -0.0523119 0.183445
0.0204432 -0.0520076 0.183601
0.0206621 -0.0517156 0.183851
0.020881 -0.0514256 0.184119
0.0210989 -0.0511549 0.184537
0.0213182 -0.0508732 0.184879
0.0215364 -0.0506149 0.185407
0.0217555 -0.0503545 0.185928
0.0219744 -0.0501146 0.18662
0.0221959 -0.0498436 0.18708
0.0224183 -0.049567 0.187504
0.022642 -0.04927 0.187771
0.0228661 -0.0489713 0.18803
0.023091 -0.048646 0.188072
0.023316 -0.0483153 0.188069
0.0235407 -0.0479922 0.188129
0.0237654 -0.0476456 0.187987
0.0239894 -0.0472872 0.187738
0.0242126 -0.0469208 0.187412
0.024435 -0.0465514 0.187049
0.024656 -0.0461723 0.186588
0.0248763 -0.0457979 0.186156
0.0250961 -0.0454332 0.185802
0.0253161 -0.0450825 0.185568
0.0255368 -0.0447478 0.185478
0.0257582 -0.0444241 0.18549
0.0259812 -0.0441174 0.185667
0.0262048 -0.0438137 0.185877
0.0264295 -0.0435164 0.186154
0.0266559 -0.0432274 0.186523
0.026882 -0.0429313 0.186828
0.0271082 -0.0426326 0.187112
0.0273343 -0.04233 0.187362
0.0275594 -0.0420199 0.187537
0.0277836 -0.0417031 0.187641
0.0280073 -0.0413841 0.187723
0.0282302 -0.041061 0.18776
0.0284526 -0.0407356 0.18777
0.0286757 -0.0404139 0.187821
0.0288968 -0.0400849 0.187784
0.0291199 -0.0397635 0.187837
0.0293435 -0.0394441 0.187914
0.029568 -0.0391271 0.188022
0.0297921 -0.0388084 0.18811
0.0300179 -0.0384945 0.188261
0.0302439 -0.0381803 0.188411
0.0304716 -0.0378698 0.188614
0.0306998 -0.0375594 0.188825
0.0309276 -0.0372468 0.18901
0.031159 -0.0369414 0.189302
0.0313903 -0.0366342 0.189577
0.0316264 -0.0363352 0.189984
0.0318645 -0.0360376 0.190425
0.0321066 -0.0357453 0.190962
0.0323479 -0.0354481 0.191446
0.0325914 -0.0351526 0.191974
0.0328379 -0.0348591 0.192555
0.0330881 -0.0345681 0.193202
0.0333448 -0.0342829 0.193981
0.0336041 -0.0339978 0.194792
0.0338626 -0.0337077 0.195552
0.0341149 -0.0334063 0.196138
0.0343664 -0.0331013 0.196685
0.0346064 -0.0327809 0.196957
0.0348447 -0.0324577 0.197184
0.0362871 -0.0295098 0.190153
0.036511 -0.0291883 0.190215
0.0367338 -0.028866 0.190256
0.0369549 -0.0285428 0.19027
0.0112424 -0.0666971 0.199943
0.0114712 -0.0663925 0.200214
0.0116958 -0.0661053 0.200584
0.0119099 -0.0658601 0.201186
0.0121302 -0.0655938 0.201681
0.0123603 -0.0652891 0.201972
0.0125856 -0.0650065 0.202388
0.0145629 -0.061253 0.194987
0.0148 -0.0609007 0.194949
0.0150401 -0.0605331 0.194818
0.0152851 -0.0601408 0.194533
0.0155298 -0.0597473 0.194235
0.0157735 -0.0593563 0.193946
0.0160168 -0.0589655 0.193652
0.0162563 -0.0585914 0.193458
0.0164928 -0.058232 0.193351
0.0167363 -0.0578326 0.192986
0.0169832 -0.0574099 0.192462
0.0172255 -0.05701 0.192076
0.0174639 -0.0566286 0.191804
0.0177123 -0.0561829 0.191099
0.0185259 -0.0543331 0.185397
0.0187694 -0.0538695 0.184474
0.0189985 -0.0535004 0.184189
0.0192194 -0.0531906 0.184314
0.0194406 -0.0528789 0.184427
0.0196626 -0.0525611 0.184497
0.0198838 -0.0522503 0.184619
0.020105 -0.0519404 0.184748
0.0203257 -0.0516369 0.184925
0.0205466 -0.0513332 0.185104
0.0207658 -0.051051 0.185449
0.0209856 -0.0507671 0.185786
0.0212042 -0.0505053 0.186299
0.0214237 -0.0502409 0.186803
0.0216427 -0.0499968 0.187477
0.0218649 -0.0497168 0.187878
0.0220882 -0.049427 0.188208
0.0223127 -0.0491185 0.188392
0.0225374 -0.0488118 0.188592
0.0227631 -0.0484764 0.188558
0.0229887 -0.0481382 0.188497
0.023214 -0.0478087 0.188507
0.0234393 -0.0474585 0.188338
0.0236641 -0.0470947 0.188044
0.0238882 -0.0467303 0.187735
0.0241114 -0.0463603 0.187367
0.0243333 -0.0459738 0.186839
0.0245542 -0.0455917 0.186335
0.0247746 -0.0452234 0.185946
0.0249947 -0.0448652 0.185641
0.0252152 -0.0445238 0.185486
0.0254366 -0.0442003 0.1855
0.0256595 -0.0438933 0.185675
0.0258827 -0.0435873 0.185864
0.0261073 -0.0432917 0.186162
0.0263333 -0.0430024 0.18653
0.0265591 -0.0427065 0.186839
0.0267851 -0.0424076 0.187125
0.0270109 -0.0421048 0.187374
0.0272359 -0.0417944 0.187547
0.02746 -0.0414774 0.187651
0.0276837 -0.0411583 0.187732
0.0279066 -0.0408349 0.187766
0.028129 -0.0405092 0.187771
0.0283511 -0.0401834 0.187775
0.0285718 -0.0398523 0.187712
0.0287948 -0.0395309 0.187764
0.0290179 -0.0392099 0.187821
0.0292417 -0.0388914 0.187908
0.0294662 -0.0385744 0.188017
0.0296924 -0.0382623 0.188191
0.0299184 -0.0379487 0.188349
0.0301466 -0.03764 0.188578
0.0303753 -0.0373313 0.188813
0.0306029 -0.0370185 0.188998
0.0308339 -0.0367128 0.189288
0.0310656 -0.0364069 0.189586
0.0313022 -0.0361093 0.190019
0.0315399 -0.0358116 0.190465
0.0317821 -0.03552 0.191021
0.0320236 -0.0352238 0.191528
0.0322659 -0.0349263 0.192035
0.0325112 -0.034631 0.192598
0.0327594 -0.0343377 0.193215
0.033012 -0.0340474 0.193917
0.0332687 -0.0337596 0.194692
0.0335252 -0.0334676 0.195426
0.0337767 -0.0331658 0.196013
0.0340301 -0.0328638 0.196621
0.0342719 -0.0325457 0.196942
0.03451 -0.0322222 0.197169
0.0113058 -0.0660195 0.20143
0.0115198 -0.0657735 0.202038
0.0117412 -0.0655021 0.202514
0.0119693 -0.0652063 0.202861
0.0121955 -0.0649192 0.203261
0.0139784 -0.0614033 0.195222
0.0142149 -0.0610553 0.195213
0.0144542 -0.0606942 0.195123
0.014697 -0.0603162 0.19493
0.0149445 -0.059915 0.19459
0.0151916 -0.0595136 0.194242
0.0154374 -0.0591152 0.193906
0.0156811 -0.0587248 0.193612
0.015921 -0.058351 0.193417
0.0161577 -0.0579918 0.19331
0.0164017 -0.057593 0.192946
0.0166489 -0.0571738 0.192441
0.0168918 -0.0567742 0.192055
0.0171311 -0.0563909 0.191767
0.017381 -0.0559435 0.191046
0.0181768 -0.0542642 0.186475
0.0184222 -0.0538031 0.185573
0.0186517 -0.0534407 0.185344
0.0188765 -0.0531086 0.185323
0.019096 -0.0528144 0.185572
0.0193179 -0.0525044 0.18571
0.0195397 -0.0521956 0.185859
0.0197621 -0.0518837 0.185987
0.0199848 -0.0515691 0.186097
0.0202077 -0.051254 0.186203
0.0204288 -0.0509581 0.186457
0.0206497 -0.0506676 0.186757
0.0208688 -0.0504007 0.187245
0.021089 -0.050131 0.187722
0.0213088 -0.0498745 0.188311
0.0215322 -0.049581 0.188617
0.0217564 -0.0492786 0.188854
0.0219822 -0.0489546 0.18892
0.0222079 -0.048633 0.189004
0.0224345 -0.0482866 0.188881
0.0226608 -0.0479452 0.188796
0.0228865 -0.0476105 0.188765
0.0231124 -0.0472603 0.188597
0.0233379 -0.0468979 0.188315
0.0235628 -0.0465374 0.188043
0.0237869 -0.0461673 0.187674
0.0240099 -0.0457786 0.187124
0.0242317 -0.0453931 0.186588
0.0244528 -0.0450193 0.186146
0.0246732 -0.0446534 0.185767
0.0248937 -0.0443047 0.185542
0.0251151 -0.0439785 0.18553
0.0253375 -0.0436667 0.18566
0.0255603 -0.043358 0.185821
0.0257844 -0.04306 0.186096
0.0260096 -0.0427681 0.186441
0.0262347 -0.0424699 0.186728
0.0264602 -0.0421706 0.187009
0.0266854 -0.0418656 0.187236
0.0269101 -0.0415552 0.187409
0.0271344 -0.0412405 0.187536
0.027358 -0.0409218 0.187621
0.0275809 -0.0405986 0.187655
0.0278031 -0.0402728 0.187657
0.0280252 -0.0399466 0.187654
0.0282459 -0.0396159 0.187593
0.0284693 -0.0392966 0.187668
0.0286925 -0.0389761 0.18773
0.0289162 -0.0386574 0.187814
0.0291409 -0.038342 0.187943
0.0293669 -0.0380299 0.188117
0.0295929 -0.0377167 0.188281
0.0298215 -0.0374098 0.188536
0.0300506 -0.0371027 0.188794
0.030278 -0.0367898 0.18898
0.0305087 -0.0364839 0.189272
0.0307409 -0.0361795 0.189595
0.030977 -0.0358817 0.19003
0.0312143 -0.0355837 0.190477
0.0314559 -0.0352913 0.191032
0.0316974 -0.0349961 0.19156
0.0319392 -0.0346983 0.192069
0.032184 -0.0344026 0.192636
0.0324308 -0.0341072 0.193231
0.0326804 -0.0338132 0.193876
0.0329331 -0.0335205 0.194573
0.0331863 -0.0332251 0.195254
0.033437 -0.0329232 0.195842
0.0336922 -0.032624 0.196514
0.0339351 -0.0323075 0.196871
0.0341765 -0.0319882 0.197181
0.010913 -0.0659336 0.202284
0.011137 -0.0656495 0.202692
0.0113664 -0.0653472 0.203004
0.0115978 -0.0650382 0.203283
0.0118311 -0.0647233 0.203533
0.0136277 -0.0612121 0.195487
0.0138655 -0.0608598 0.195454
0.0141079 -0.0604869 0.195296
0.0143537 -0.0600987 0.19504
0.0146039 -0.0596886 0.194644
0.0148534 -0.0592797 0.194248
0.0151014 -0.0588742 0.193864
0.0153449 -0.0584875 0.193592
0.0155851 -0.0581139 0.193397
0.015822 -0.0577553 0.193293
0.0160657 -0.0573613 0.192957
0.0163128 -0.0569472 0.192483
0.0165575 -0.0565418 0.192055
0.0167954 -0.056169 0.191836
0.0170323 -0.0558 0.191636
0.0185192 -0.0531005 0.186873
0.0187434 -0.0527807 0.186955
0.0189658 -0.0524731 0.187126
0.0191891 -0.0521611 0.187267
0.0194134 -0.0518419 0.187356
0.0196387 -0.0515147 0.187386
0.0198641 -0.051187 0.187412
0.0200873 -0.0508777 0.187577
0.0203099 -0.0505768 0.18781
0.0205306 -0.0502965 0.188209
0.020752 -0.0500159 0.188613
0.020974 -0.0497345 0.189018
0.021199 -0.049423 0.189187
0.0214245 -0.0491068 0.18932
0.0216512 -0.048775 0.189326
0.0218777 -0.0484436 0.189334
0.0221046 -0.0481046 0.189276
0.0223312 -0.0477681 0.189237
0.0225577 -0.0474281 0.189165
0.0227843 -0.0470755 0.188979
0.0230106 -0.0467151 0.188717
0.0232364 -0.0463545 0.188445
0.0234615 -0.0459796 0.188035
0.0236856 -0.0455889 0.187465
0.0239085 -0.0451983 0.186881
0.0241305 -0.044818 0.186377
0.0243514 -0.0444421 0.185901
0.0245721 -0.0440863 0.185606
0.0247934 -0.0437547 0.185541
0.0250154 -0.0434376 0.185618
0.0252375 -0.0431217 0.185708
0.025461 -0.0428213 0.185959
0.0256853 -0.0425249 0.186257
0.0259096 -0.0422242 0.186517
0.0261343 -0.0419223 0.18677
0.026359 -0.041617 0.186991
0.0265833 -0.0413069 0.187166
0.0268077 -0.040995 0.187322
0.0270316 -0.040679 0.187436
0.0272547 -0.0403582 0.187494
0.0274772 -0.0400344 0.187517
0.0276993 -0.0397087 0.187516
0.0279205 -0.0393801 0.187478
0.0281443 -0.039063 0.18758
0.0283674 -0.038743 0.187645
0.0285915 -0.038426 0.187752
0.0288165 -0.0381121 0.187899
0.0290423 -0.0377999 0.188074
0.0292676 -0.037485 0.188216
0.0294964 -0.0371796 0.188492
0.0297252 -0.0368721 0.188748
0.0299525 -0.0365594 0.188938
0.0301829 -0.0362535 0.189232
0.0304161 -0.035952 0.189602
0.0306518 -0.0356539 0.190038
0.0308885 -0.0353556 0.190486
0.0311294 -0.0350626 0.19104
0.0313711 -0.034768 0.191589
0.0316123 -0.0344701 0.192102
0.0318565 -0.0341741 0.192671
0.0321016 -0.0338767 0.193241
0.0323496 -0.0335804 0.193859
0.0326003 -0.0332854 0.194525
0.0328508 -0.0329868 0.195156
0.0331007 -0.0326846 0.195747
0.033356 -0.0323863 0.196445
0.0336008 -0.0320723 0.196857
0.0338428 -0.0317539 0.197192
0.0105266 -0.0658147 0.202967
0.0107635 -0.0654845 0.203127
0.0110006 -0.0651538 0.203286
0.0112358 -0.0648307 0.203489
0.0114772 -0.0644852 0.203568
0.0117302 -0.0640966 0.203401
0.0126534 -0.063299 0.201529
0.0120166 -0.0635815 0.202501
0.0123276 -0.0629683 0.201015
0.0132811 -0.0610009 0.195637
0.0135213 -0.0606397 0.195551
0.0137652 -0.060263 0.195369
0.0140118 -0.0598735 0.195104
0.0142637 -0.0594596 0.194683
0.0145149 -0.0590466 0.194259
0.0147638 -0.0586408 0.193872
0.0150069 -0.0582577 0.19362
0.0152476 -0.0578842 0.193424
0.0154836 -0.0575306 0.193352
0.0157263 -0.0571448 0.193068
0.0159719 -0.0567427 0.192669
0.0162156 -0.056347 0.192305
0.0164529 -0.0559805 0.192129
0.0179171 -0.053499 0.188964
0.0181542 -0.0531102 0.188573
0.0183846 -0.0527582 0.188438
0.0186095 -0.0524409 0.188555
0.0188345 -0.0521235 0.188671
0.0190611 -0.0517958 0.188713
0.0192895 -0.0514539 0.188646
0.0195175 -0.0511137 0.188589
0.0197434 -0.0507898 0.188656
0.0199681 -0.0504752 0.188796
0.0201931 -0.0501596 0.18893
0.0204174 -0.0498518 0.189127
0.0206421 -0.0495418 0.18931
0.0208693 -0.0492074 0.189297
0.0210964 -0.0488733 0.189285
0.0213226 -0.0485476 0.18934
0.0215489 -0.0482222 0.189399
0.0217755 -0.0478915 0.189412
0.0220017 -0.0475654 0.189464
0.0222286 -0.0472258 0.189397
0.0224558 -0.0468737 0.189216
0.0226828 -0.046513 0.188952
0.0229092 -0.0461525 0.188682
0.0231353 -0.0457737 0.188235
0.0233605 -0.0453833 0.187666
0.0235845 -0.0449924 0.187075
0.0238074 -0.0446095 0.186544
0.0240291 -0.0442286 0.186016
0.0242503 -0.0438676 0.185668
0.0244716 -0.0435309 0.185552
0.0246934 -0.0432086 0.185577
0.0249151 -0.0428877 0.185616
0.0251379 -0.0425825 0.185817
0.0253612 -0.0422795 0.186047
0.0255846 -0.041974 0.186254
0.0258085 -0.0416696 0.186478
0.0260325 -0.0413624 0.186676
0.0262564 -0.0410531 0.186855
0.0264809 -0.0407456 0.187059
0.0267051 -0.040434 0.187219
0.0269285 -0.040116 0.187308
0.0271517 -0.0397966 0.187381
0.0273741 -0.0394733 0.187406
0.0275958 -0.0391469 0.187393
0.0278196 -0.0388302 0.187499
0.0280426 -0.0385102 0.187565
0.0282666 -0.0381935 0.187673
0.0284919 -0.0378812 0.187842
0.0287176 -0.0375691 0.188018
0.0289431 -0.0372556 0.18818
0.0291722 -0.0369513 0.188476
0.0294005 -0.0366435 0.18873
0.0296276 -0.0363308 0.18892
0.0298578 -0.0360247 0.189215
0.0300905 -0.035723 0.189586
0.0303257 -0.0354245 0.190023
0.0305619 -0.0351258 0.190471
0.0308022 -0.0348324 0.191025
0.0310432 -0.0345373 0.191574
0.0312846 -0.0342401 0.192109
0.0315282 -0.0339438 0.192681
0.0317727 -0.0336462 0.193254
0.0320188 -0.0333479 0.193844
0.0322677 -0.0330506 0.194481
0.0325164 -0.0327501 0.195085
0.0327656 -0.0324474 0.195674
0.0330201 -0.0321489 0.196378
0.0332665 -0.0318376 0.196849
0.0335102 -0.0315208 0.19723
0.0101564 -0.065633 0.203311
0.0103965 -0.0652919 0.203413
0.0106373 -0.0649485 0.203504
0.0108763 -0.0646117 0.203633
0.011123 -0.0642475 0.203606
0.0113978 -0.0637826 0.203
0.0117055 -0.0631948 0.20167
0.0126549 -0.0612956 0.196731
0.0129362 -0.0607813 0.195737
0.0131772 -0.0604182 0.195641
0.0134224 -0.0600381 0.195437
0.0136706 -0.0596445 0.195145
0.0139243 -0.0592267 0.194698
0.0141771 -0.0588102 0.194249
0.0144267 -0.0584046 0.193861
0.0146695 -0.0580253 0.193631
0.0149096 -0.0576561 0.193462
0.015144 -0.0573108 0.193444
0.0153855 -0.0569329 0.193209
0.0156294 -0.0565423 0.192887
0.0158718 -0.0561565 0.192588
0.0161094 -0.0557915 0.192423
0.0163472 -0.0554239 0.192235
0.0169269 -0.0552453 0.191747
0.0165772 -0.0550937 0.1923
0.0171636 -0.0548767 0.191542
0.0168058 -0.0547707 0.192416
0.0174135 -0.0544314 0.190797
0.0170492 -0.0543703 0.19199
0.0173004 -0.0539238 0.191227
0.017547 -0.0534963 0.190584
0.0177888 -0.0530908 0.190086
0.0180238 -0.0527205 0.189833
0.0182505 -0.0523977 0.189923
0.018478 -0.0520706 0.189983
0.018707 -0.0517336 0.189968
0.0189382 -0.0513803 0.189827
0.0191698 -0.0510226 0.189648
0.0194018 -0.0506599 0.189425
0.0196315 -0.0503108 0.189303
0.0198609 -0.0499615 0.189175
0.0200883 -0.0496272 0.189163
0.0203153 -0.0492955 0.189171
0.0205423 -0.0489639 0.189179
0.020769 -0.048633 0.189191
0.0209949 -0.0483105 0.189273
0.0212206 -0.047991 0.189381
0.021447 -0.0476638 0.189424
0.0216732 -0.0473383 0.189482
0.0219002 -0.0470016 0.18944
0.0221275 -0.0466542 0.1893
0.0223549 -0.0462963 0.18906
0.0225817 -0.0459411 0.188837
0.0228085 -0.0455695 0.188454
0.0230348 -0.0451797 0.187889
0.0232599 -0.0447888 0.187295
0.0234838 -0.0444037 0.18674
0.0237065 -0.0440204 0.186186
0.0239284 -0.0436528 0.185772
0.0241499 -0.0433113 0.185607
0.0243714 -0.042982 0.185561
0.024593 -0.0426563 0.185549
0.0248152 -0.0423442 0.185679
0.0250376 -0.0420344 0.185836
0.0252603 -0.0417245 0.185994
0.0254833 -0.0414159 0.18617
0.0257064 -0.041105 0.186323
0.0259298 -0.0407959 0.186501
0.0261541 -0.0404908 0.186728
0.0263782 -0.0401819 0.186916
0.0266019 -0.0398682 0.187052
0.0268255 -0.0395534 0.187176
0.0270486 -0.0392345 0.187252
0.027271 -0.0389123 0.187288
0.0274957 -0.0386008 0.187459
0.0277196 -0.0382843 0.18757
0.0279443 -0.0379711 0.187726
0.0281696 -0.0376588 0.187899
0.0283953 -0.0373466 0.188077
0.0286203 -0.0370312 0.188215
0.0288484 -0.0367251 0.188487
0.029076 -0.0364154 0.188718
0.0293029 -0.0361025 0.188907
0.0295333 -0.0357976 0.189224
0.0297657 -0.0354955 0.189595
0.0300004 -0.0351967 0.190032
0.030236 -0.0348975 0.190479
0.0304755 -0.0346036 0.191032
0.0307153 -0.0343066 0.191559
0.0309553 -0.0340079 0.192073
0.0311982 -0.033711 0.192644
0.0314421 -0.0334127 0.193217
0.0316867 -0.0331128 0.193784
0.0319337 -0.0328139 0.194397
0.0321814 -0.0325127 0.194995
0.032429 -0.0322083 0.195561
0.0326825 -0.0319092 0.196263
0.0329303 -0.0316001 0.196787
0.0331749 -0.0312847 0.197204
0.0102807 -0.064718 0.203583
0.0105216 -0.0643745 0.203674
0.0107719 -0.0639986 0.203581
0.0110741 -0.0634423 0.202442
0.0114026 -0.0627892 0.200719
0.0120404 -0.0615292 0.197456
0.012331 -0.0609912 0.196332
0.0125946 -0.0605477 0.195755
0.0128359 -0.0601849 0.195659
0.0130809 -0.0598069 0.195468
0.0133296 -0.0594139 0.195178
0.013584 -0.0589971 0.194734
0.0138374 -0.0585813 0.194288
0.0140877 -0.0581757 0.193897
0.014331 -0.0577968 0.193668
0.0145712 -0.0574288 0.193506
0.0148048 -0.0570877 0.193515
0.015045 -0.0567177 0.193332
0.0152871 -0.0563382 0.193082
0.0155283 -0.055961 0.19284
0.0157674 -0.0555913 0.192645
0.0160067 -0.0552192 0.192427
0.0162392 -0.0548774 0.192414
0.0164717 -0.0545356 0.1924
0.0167158 -0.0541355 0.191972
0.0169604 -0.0537293 0.191491
0.0172037 -0.0533263 0.191023
0.0174451 -0.052929 0.190585
0.0176818 -0.052554 0.1903
0.0179106 -0.052221 0.190321
0.018141 -0.0518789 0.190272
0.018372 -0.0515313 0.190179
0.0186053 -0.0511686 0.189967
0.0188384 -0.0508045 0.189738
0.0190713 -0.0504381 0.189485
0.0193027 -0.0500801 0.189292
0.0195329 -0.0497274 0.189135
0.0197604 -0.0493925 0.189118
0.0199879 -0.0490575 0.189098
0.0202151 -0.0487232 0.189082
0.020442 -0.0483917 0.189088
0.0206681 -0.0480665 0.189147
0.0208935 -0.0477477 0.18926
0.0211195 -0.047424 0.189332
0.0213452 -0.0471044 0.18944
0.0215721 -0.0467706 0.189423
0.0217995 -0.0464258 0.189306
0.0220271 -0.0460728 0.189108
0.0222542 -0.0457202 0.188907
0.0224817 -0.0453472 0.188508
0.0227088 -0.0449622 0.187983
0.0229348 -0.0445767 0.187436
0.0231598 -0.04419 0.186863
0.0233835 -0.0438076 0.186314
0.023606 -0.04344 0.185897
0.023828 -0.043094 0.185686
0.0240496 -0.042758 0.185571
0.0242711 -0.0424277 0.185511
0.0244929 -0.0421089 0.18557
0.0247149 -0.0417945 0.185676
0.024937 -0.04148 0.185783
0.0251594 -0.0411691 0.185932
0.025382 -0.0408563 0.186061
0.025605 -0.0405476 0.18624
0.0258288 -0.0402426 0.186467
0.0260527 -0.0399356 0.186675
0.0262764 -0.0396244 0.186837
0.0265001 -0.0393119 0.186989
