ply
format ascii 1.0
element vertex 1600
property float x
property float y
property float z
end_header
0.0525671 -0.0304693 0.522667
0.05349 -0.0305668 0.522192
0.0544228 -0.0306724 0.521893
0.0553533 -0.0307771 0.521572
0.0562747 -0.0308757 0.521132
0.0571787 -0.0309613 0.52046
0.0580917 -0.0310556 0.519946
0.0590039 -0.0311499 0.519442
0.0599045 -0.0312372 0.518805
0.0607897 -0.031314 0.51799
0.0616818 -0.0313973 0.517298
0.0625676 -0.0314774 0.516553
0.0634682 -0.0315696 0.516022
0.0643832 -0.0316711 0.515684
0.0653197 -0.0317881 0.515615
0.0662493 -0.0319008 0.515467
0.0671874 -0.032019 0.515421
0.0681128 -0.0321286 0.515231
0.0690529 -0.0322486 0.515212
0.0699933 -0.0323681 0.515194
0.070918 -0.0324781 0.515009
0.0718394 -0.0325869 0.514796
0.0727591 -0.0326945 0.514572
0.0736798 -0.0328034 0.514365
0.0745971 -0.0329102 0.51413
0.0755403 -0.0330316 0.514153
0.0764957 -0.0331606 0.514294
0.0774653 -0.0332965 0.514564
0.0784737 -0.0334534 0.515187
0.0795036 -0.0336212 0.515988
0.0805439 -0.033793 0.516859
0.0815845 -0.0339641 0.517705
0.0826138 -0.0341282 0.518429
0.0836146 -0.0342761 0.518882
0.084615 -0.034424 0.51932
0.0856111 -0.0345686 0.519708
0.0865952 -0.0347073 0.519987
0.0875867 -0.0348489 0.520317
0.0886057 -0.0350037 0.520861
0.0896303 -0.0351601 0.521434
0.0906797 -0.0353283 0.522187
0.0389837 -0.0284579 0.538329
0.0399422 -0.0285595 0.537834
0.0409071 -0.02867 0.537536
0.0418704 -0.0287797 0.537221
0.0428205 -0.0288759 0.536624
0.0437543 -0.0289555 0.535707
0.044678 -0.0290279 0.534638
0.0455911 -0.0290925 0.533419
0.0464836 -0.0291405 0.531871
0.0473661 -0.0291827 0.530222
0.0482461 -0.0292271 0.528629
0.0491301 -0.0292787 0.527198
0.0500079 -0.0293286 0.525742
0.050892 -0.0293877 0.524474
0.0517928 -0.029463 0.523552
0.0527084 -0.0295536 0.522921
0.0536246 -0.0296453 0.522329
0.0545495 -0.0297457 0.521902
0.055472 -0.0298441 0.521456
0.0563887 -0.0299401 0.520947
0.0572886 -0.0300239 0.520219
0.0581979 -0.0301161 0.519655
0.0591021 -0.0302056 0.519047
0.0600015 -0.0302927 0.518399
0.0608817 -0.0303681 0.517525
0.0617732 -0.0304527 0.516834
0.0626633 -0.0305376 0.516153
0.0635767 -0.0306382 0.515784
0.0645012 -0.0307477 0.515563
0.0654473 -0.0308704 0.515606
0.0663817 -0.0309861 0.515512
0.0673244 -0.0311065 0.515512
0.0682448 -0.0312135 0.515263
0.0691854 -0.0313334 0.515245
0.0701213 -0.0314502 0.515176
0.0710366 -0.0315547 0.514888
0.071953 -0.031661 0.514624
0.0728726 -0.0317692 0.514399
0.0737893 -0.0318758 0.51415
0.074707 -0.0319834 0.51392
0.0756555 -0.032108 0.513997
0.0766158 -0.0322388 0.514184
0.0775969 -0.0323809 0.51456
0.078618 -0.0325433 0.515298
0.079656 -0.0327131 0.516167
0.0807024 -0.0328865 0.517085
0.0817372 -0.0330527 0.517874
0.0827606 -0.0332122 0.518538
0.0837542 -0.0333564 0.518926
0.0847553 -0.033503 0.519365
0.0857512 -0.0336471 0.519748
0.0867366 -0.0337854 0.520032
0.0877215 -0.0339234 0.520305
0.0887334 -0.0340731 0.520787
0.0897492 -0.034225 0.521288
0.0907915 -0.034388 0.521984
0.0400621 -0.0275995 0.537708
0.041029 -0.0277131 0.537457
0.0419965 -0.0278282 0.537241
0.0429506 -0.0279293 0.536732
0.0438873 -0.0280133 0.535871
0.0448165 -0.0280925 0.534912
0.0457278 -0.0281572 0.533647
0.0466183 -0.0282053 0.532051
0.0475012 -0.0282505 0.530407
0.0483813 -0.0282968 0.528808
0.0492622 -0.0283482 0.527318
0.0501464 -0.0284054 0.52597
0.0510342 -0.0284693 0.524759
0.0519358 -0.0285471 0.523842
0.0528518 -0.0286378 0.523207
0.0537613 -0.0287252 0.522498
0.054679 -0.0288198 0.521951
0.0555904 -0.0289111 0.521337
0.0565027 -0.0290043 0.520763
0.0574027 -0.0290894 0.520039
0.0583089 -0.0291806 0.519434
0.0592058 -0.029266 0.518727
0.060111 -0.0293585 0.518163
0.0609943 -0.0294371 0.517334
0.0618861 -0.0295228 0.516646
0.0627892 -0.0296175 0.516132
0.0637201 -0.0297301 0.515975
0.0646503 -0.0298423 0.515816
0.0656025 -0.0299683 0.515922
0.0665433 -0.0300878 0.515891
0.067483 -0.0302062 0.515849
0.0683996 -0.0303111 0.515549
0.0693352 -0.0304274 0.515466
0.0702612 -0.0305387 0.515285
0.0711662 -0.0306376 0.514885
0.0720825 -0.0307436 0.514614
0.073003 -0.0308526 0.514396
0.0739215 -0.0309606 0.514165
0.0748459 -0.0310718 0.513998
0.0758003 -0.0311999 0.514129
0.0767605 -0.03133 0.514309
0.0777428 -0.0314717 0.514692
0.0787698 -0.0316351 0.515477
0.079809 -0.0318042 0.51635
0.0808561 -0.0319759 0.517267
0.0818851 -0.0321381 0.517997
0.0829077 -0.0322953 0.518648
0.0838951 -0.0324354 0.518977
0.0848963 -0.0325819 0.519413
0.0858863 -0.0327221 0.519743
0.0868776 -0.0328623 0.520074
0.0878619 -0.0329993 0.520338
0.0888671 -0.0331457 0.520763
0.0898763 -0.0332928 0.521208
0.0909317 -0.033461 0.522003
0.0411507 -0.0267557 0.537374
0.0421178 -0.0268706 0.537145
0.0430751 -0.0269752 0.536706
0.0440162 -0.0270655 0.535943
0.0449484 -0.0271491 0.535044
0.0458602 -0.0272157 0.533782
0.046756 -0.0272713 0.532286
0.0476384 -0.0273181 0.530627
0.0485181 -0.0273666 0.529016
0.0493965 -0.0274182 0.527474
0.0502841 -0.02748 0.526181
0.0511731 -0.0275465 0.524984
0.0520784 -0.027628 0.52412
0.0529952 -0.0277199 0.523486
0.0539044 -0.0278082 0.522766
0.0548154 -0.0278983 0.522106
0.055723 -0.0279875 0.521428
0.0566284 -0.0280762 0.520748
0.0575286 -0.0281631 0.520025
0.0584352 -0.0282548 0.519424
0.0593358 -0.028344 0.518766
0.0602454 -0.02844 0.518256
0.0611408 -0.0285282 0.517582
0.0620387 -0.0286182 0.516967
0.0629523 -0.0287195 0.516573
0.0638895 -0.0288358 0.516481
0.0648253 -0.0289518 0.516379
0.0657796 -0.0290782 0.516494
0.0667279 -0.029201 0.516535
0.0676695 -0.0293203 0.516499
0.0685827 -0.0294234 0.516148
0.0695131 -0.0295359 0.515994
0.0704283 -0.0296408 0.515683
0.0713179 -0.0297321 0.515112
0.0722232 -0.0298324 0.514722
0.0731434 -0.0299414 0.514497
0.0740577 -0.0300467 0.514218
0.0749834 -0.0301593 0.514061
0.0759442 -0.0302894 0.514249
0.0769002 -0.0304174 0.514385
0.0778821 -0.0305575 0.514759
0.0789044 -0.0307176 0.515495
0.0799441 -0.030885 0.516368
0.0809917 -0.031056 0.517285
0.0820264 -0.0312188 0.51806
0.0830492 -0.0313758 0.518709
0.0840372 -0.0315151 0.519039
0.0850391 -0.0316602 0.519476
0.0860356 -0.0318033 0.519858
0.0870338 -0.0319458 0.52024
0.0880195 -0.0320824 0.52051
0.0890317 -0.0322312 0.520986
0.0900484 -0.0323811 0.521484
0.0911061 -0.0325481 0.52229
0.0412729 -0.0257986 0.537303
0.0422403 -0.0259139 0.537076
0.0432004 -0.0260224 0.536702
0.0441458 -0.0261176 0.536027
0.0450785 -0.0262025 0.535131
0.0459903 -0.0262715 0.533871
0.0468918 -0.0263338 0.532483
0.0477735 -0.026383 0.530803
0.0486532 -0.0264334 0.529186
0.0495315 -0.0264871 0.52764
0.0504196 -0.0265517 0.52635
0.0513063 -0.0266175 0.525107
0.0522121 -0.0267008 0.524248
0.0531295 -0.0267944 0.523619
0.0540388 -0.0268832 0.522893
0.0549463 -0.026972 0.522175
0.0558537 -0.0270614 0.521489
0.0567587 -0.0271516 0.520801
0.0576626 -0.027241 0.520126
0.0585737 -0.027337 0.519582
0.059483 -0.0274327 0.519038
0.0604019 -0.0275355 0.518644
0.0613118 -0.0276327 0.518147
0.0622175 -0.0277285 0.517618
0.0631426 -0.0278369 0.517351
0.0640863 -0.0279565 0.517322
0.0650244 -0.0280721 0.517223
0.0659751 -0.0281963 0.517278
0.066929 -0.0283214 0.517366
0.0678679 -0.0284385 0.517281
0.0687777 -0.0285387 0.516873
0.0697077 -0.0286512 0.516699
0.0706179 -0.0287531 0.516321
0.0714918 -0.0288366 0.515572
0.0723909 -0.0289338 0.515107
0.0733103 -0.029042 0.514865
0.0742142 -0.0291428 0.514475
0.0751354 -0.0292527 0.514267
0.0761017 -0.0293857 0.514501
0.0770534 -0.0295106 0.514588
0.078025 -0.0296448 0.514858
0.0790413 -0.029801 0.515535
0.08008 -0.0299664 0.516392
0.0811177 -0.0301304 0.517215
0.0821538 -0.0302928 0.518
0.0831838 -0.0304512 0.518709
0.0841851 -0.0305962 0.51915
0.0851888 -0.0307415 0.519597
0.0862059 -0.0308925 0.520145
0.0872193 -0.0310413 0.520647
0.0882278 -0.0311867 0.521093
0.0892512 -0.0313391 0.521648
0.0902906 -0.0314974 0.522315
0.0913576 -0.0316664 0.523179
0.0929167 -0.0330421 0.528901
0.0924253 -0.0318353 0.524026
0.0423602 -0.0249542 0.536947
0.0433221 -0.025065 0.536611
0.0442691 -0.0251624 0.535971
0.0452061 -0.0252531 0.535166
0.0461226 -0.0253276 0.533997
0.0470275 -0.0253954 0.532673
0.0479101 -0.0254477 0.531006
0.04879 -0.0255008 0.529388
0.049668 -0.0255562 0.527831
0.0505565 -0.025623 0.526543
0.051446 -0.0256932 0.525342
0.052353 -0.0257781 0.524492
0.0532707 -0.0258727 0.523858
0.054181 -0.0259626 0.52314
0.0550888 -0.0260524 0.522418
0.0559931 -0.026141 0.521678
0.0568979 -0.0262313 0.520979
0.0578021 -0.0263222 0.520304
0.0587137 -0.0264188 0.51976
0.0596289 -0.0265186 0.519289
0.0605583 -0.0266282 0.519025
0.0614836 -0.026735 0.518718
0.0624001 -0.0268376 0.518312
0.0633322 -0.02695 0.518116
0.0642816 -0.0270717 0.518135
0.0652241 -0.0271902 0.518073
0.0661757 -0.0273133 0.518117
0.0671352 -0.0274411 0.51825
0.0680756 -0.0275578 0.518161
0.0689862 -0.0276591 0.517744
0.0699128 -0.0277694 0.517517
0.0708136 -0.0278663 0.51702
0.0716784 -0.0279456 0.516162
0.0725722 -0.0280402 0.515631
0.0734807 -0.0281432 0.515267
0.0743735 -0.028239 0.514757
0.0752937 -0.0283482 0.514531
0.0762552 -0.0284777 0.514712
0.0772016 -0.0286 0.514743
0.0781728 -0.0287339 0.515004
0.0791824 -0.0288846 0.515611
0.0802155 -0.0290461 0.516412
0.081247 -0.0292057 0.517175
0.0822851 -0.0293676 0.517974
0.0833172 -0.0295255 0.518696
0.084333 -0.0296762 0.519259
0.0853445 -0.029824 0.519768
0.0863839 -0.0299833 0.520495
0.0874148 -0.0301382 0.521132
0.0884485 -0.0302937 0.521775
0.0894828 -0.0304491 0.522404
0.0905457 -0.0306157 0.523243
0.0916231 -0.0307874 0.524173
0.0927003 -0.030958 0.525077
0.0424852 -0.0239991 0.536934
0.0434474 -0.0241107 0.536601
0.0443926 -0.0242076 0.535921
0.0453308 -0.0243 0.535138
0.0462508 -0.0243795 0.53404
0.0471637 -0.0244554 0.532869
0.0480584 -0.02452 0.531427
0.0489456 -0.0245811 0.529931
0.0498247 -0.0246398 0.528378
0.0507133 -0.0247076 0.527075
0.0516027 -0.0247793 0.525859
0.0525069 -0.024863 0.524947
0.0534222 -0.0249558 0.524259
0.0543335 -0.0250479 0.523544
0.0552386 -0.0251366 0.52277
0.0561435 -0.0252259 0.522028
0.0570488 -0.0253174 0.521326
0.0579538 -0.02541 0.520653
0.058867 -0.0255079 0.520121
0.0597954 -0.0256158 0.519817
0.0607352 -0.0257312 0.519675
0.0616755 -0.0258465 0.519545
0.0626027 -0.0259555 0.519255
0.0635405 -0.0260696 0.519105
0.0644816 -0.0261865 0.519002
0.0654204 -0.0263019 0.518873
0.0663639 -0.0264204 0.518805
0.0673202 -0.0265454 0.518884
0.0682623 -0.0266627 0.5188
0.0691835 -0.0267695 0.518487
0.0701122 -0.0268807 0.518266
0.0710153 -0.0269795 0.517778
0.0718865 -0.0270623 0.516972
0.0727817 -0.0271582 0.516442
0.0736814 -0.0272571 0.515972
0.074569 -0.0273502 0.515397
0.075478 -0.0274542 0.515049
0.0764225 -0.0275752 0.515055
0.0773522 -0.0276896 0.514919
0.0783127 -0.0278174 0.515072
0.0793044 -0.0279597 0.515511
0.0803299 -0.0281162 0.51624
0.0813544 -0.0282711 0.516939
0.0823989 -0.0284345 0.517793
0.0834321 -0.0285918 0.518523
0.0844616 -0.0287472 0.519202
0.0854872 -0.0289002 0.519828
0.0865494 -0.0290675 0.52074
0.0876032 -0.0292309 0.521558
0.0886752 -0.0294006 0.522502
0.0897342 -0.0295638 0.523315
0.0908224 -0.0297388 0.524338
0.0919089 -0.0299121 0.525321
0.0929953 -0.0300837 0.526277
0.094538 -0.0314354 0.531743
0.0940768 -0.0302529 0.52717
0.0444977 -0.0232366 0.535471
0.0454357 -0.0233307 0.534696
0.0463641 -0.0234188 0.533781
0.0472887 -0.0235063 0.532845
0.0481982 -0.023584 0.531684
0.0490955 -0.0236549 0.530366
0.0499851 -0.0237223 0.528986
0.0508778 -0.0237953 0.527738
0.0517685 -0.0238689 0.526523
0.0526725 -0.0239536 0.525589
0.0535887 -0.0240475 0.524895
0.0545005 -0.0241396 0.52417
0.0554071 -0.0242304 0.523401
0.0563169 -0.0243235 0.522714
0.0572236 -0.0244166 0.522015
0.0581298 -0.0245099 0.521339
0.0590442 -0.0246089 0.520806
0.0599818 -0.0247218 0.520606
0.0609277 -0.0248402 0.520526
0.0618783 -0.0249612 0.520508
0.0628159 -0.0250749 0.520325
0.0637511 -0.0251872 0.520117
0.0646836 -0.0252988 0.519887
0.0656131 -0.0254088 0.519628
0.0665488 -0.0255227 0.51945
0.0674943 -0.0256417 0.51939
0.0684427 -0.025762 0.519364
0.0693662 -0.0258698 0.519064
0.0703011 -0.0259841 0.518897
0.0712116 -0.0260865 0.518475
0.0720947 -0.026176 0.51778
0.0729931 -0.0262738 0.517267
0.0738949 -0.0263738 0.516803
0.0747782 -0.0264655 0.51617
0.0756759 -0.0265646 0.515698
0.0766094 -0.02668 0.515584
0.0775223 -0.0267864 0.515277
0.0784705 -0.0269089 0.515309
0.0794446 -0.0270418 0.515577
0.0804579 -0.0271916 0.516191
0.0814754 -0.0273424 0.516823
0.0825254 -0.0275065 0.517723
0.0835594 -0.0276629 0.518458
0.0846084 -0.0278253 0.5193
0.0856546 -0.0279852 0.520094
0.086739 -0.0281598 0.521183
0.0878105 -0.0283282 0.522136
0.0889119 -0.0285081 0.523305
0.0900011 -0.0286818 0.524346
0.0911084 -0.0288612 0.525501
0.0921931 -0.0290313 0.52645
0.0932892 -0.0292048 0.527462
0.0943637 -0.0293697 0.528286
0.0464798 -0.0224601 0.533569
0.0474103 -0.0225535 0.532755
0.0483341 -0.0226432 0.531863
0.0492418 -0.0227235 0.530728
0.0501403 -0.022799 0.529495
0.0510413 -0.0228792 0.528374
0.0519395 -0.0229591 0.527267
0.0528444 -0.0230446 0.526326
0.0537611 -0.0231395 0.52562
0.0546741 -0.0232335 0.524893
0.0555856 -0.0233273 0.524177
0.0565004 -0.0234239 0.523542
0.0574126 -0.0235206 0.5229
0.0583246 -0.0236171 0.522284
0.0592441 -0.0237192 0.521797
0.060183 -0.0238329 0.52159
0.0611303 -0.023951 0.521502
0.0620793 -0.02407 0.521438
0.0630147 -0.0241827 0.521207
0.0639381 -0.0242886 0.520834
0.0648615 -0.024395 0.520475
0.0657766 -0.0244983 0.520031
0.0667073 -0.0246095 0.519784
0.0676446 -0.024724 0.519621
0.0685943 -0.0248445 0.519602
0.0695235 -0.0249555 0.519358
0.0704652 -0.0250722 0.519256
0.0713775 -0.025176 0.518845
0.0722773 -0.0252741 0.518317
0.073188 -0.0253782 0.517918
0.0740926 -0.0254795 0.517469
0.0749822 -0.025575 0.516887
0.0758802 -0.0256742 0.516404
0.0768027 -0.025785 0.516171
0.0777089 -0.0258885 0.515789
0.078651 -0.0260078 0.515753
0.0796135 -0.0261355 0.515906
0.0806208 -0.0262813 0.516457
0.0816327 -0.0264285 0.517032
0.0826714 -0.0265863 0.517825
0.0836999 -0.0267396 0.518507
0.0847561 -0.0269023 0.519404
0.085811 -0.0270648 0.520266
0.0869044 -0.0272404 0.521422
0.0879975 -0.0274155 0.522545
0.089121 -0.0276016 0.523883
0.0902289 -0.0277796 0.525059
0.0913472 -0.0279614 0.526288
0.0924346 -0.0281305 0.527245
0.0935318 -0.0283025 0.528251
0.0945933 -0.0284601 0.528963
0.0465894 -0.0214974 0.533238
0.0475258 -0.0215959 0.532543
0.0484601 -0.0216949 0.531853
0.0493814 -0.0217857 0.530963
0.0502939 -0.0218724 0.529972
0.0512072 -0.0219613 0.529047
0.0521209 -0.0220523 0.528179
0.053038 -0.0221462 0.52741
0.0539605 -0.022245 0.526765
0.0548755 -0.02234 0.526037
0.0557885 -0.0224347 0.525313
0.0567017 -0.022531 0.524626
0.0576089 -0.0226249 0.523885
0.0585184 -0.022721 0.523208
0.0594353 -0.0228212 0.522662
0.0603713 -0.022933 0.522395
0.0613159 -0.023049 0.52225
0.0622619 -0.0231665 0.522129
0.0631984 -0.0232791 0.521892
0.0641096 -0.0233788 0.521353
0.0650243 -0.0234816 0.520876
0.0659285 -0.0235798 0.520295
0.0668541 -0.0236887 0.51998
0.0677808 -0.0237983 0.51969
0.0687356 -0.0239208 0.519722
0.0696692 -0.0240342 0.519521
0.0706121 -0.0241516 0.519427
0.0715301 -0.0242581 0.519072
0.0724464 -0.0243644 0.518709
0.0733696 -0.0244743 0.51843
0.0742765 -0.0245769 0.517994
0.0751777 -0.0246777 0.517515
0.0760823 -0.0247803 0.517085
0.076995 -0.0248865 0.516745
0.0778969 -0.0249891 0.516313
0.0788388 -0.0251076 0.516264
0.0797897 -0.0252304 0.516299
0.0807861 -0.0253704 0.516742
0.0817924 -0.0255146 0.517259
0.0828196 -0.0256659 0.517944
0.083843 -0.0258156 0.518575
0.0848992 -0.0259771 0.519468
0.0859685 -0.026143 0.520447
0.0870711 -0.0263204 0.521672
0.0881866 -0.0265014 0.522969
0.0893263 -0.0266906 0.524426
0.0904502 -0.0268728 0.525719
0.0915725 -0.0270532 0.526965
0.0926621 -0.0272216 0.527926
0.0937512 -0.0273882 0.528859
0.0948056 -0.0275422 0.529501
0.0466915 -0.0205297 0.532758
0.0476343 -0.0206343 0.5322
0.0485821 -0.0207433 0.531767
0.0495173 -0.0208448 0.531133
0.0504478 -0.0209436 0.530447
0.0513856 -0.0210489 0.529927
0.0523155 -0.0211499 0.529302
0.0532468 -0.0212528 0.528731
0.0541763 -0.0213549 0.52816
0.0550939 -0.0214514 0.527433
0.0560012 -0.0215438 0.526589
0.0569154 -0.0216405 0.525883
0.0578167 -0.0217314 0.525026
0.0587243 -0.0218264 0.524294
0.0596384 -0.021926 0.523684
0.0605714 -0.0220355 0.52335
0.0615094 -0.0221478 0.523095
0.0624475 -0.0222611 0.522852
0.0633801 -0.0223714 0.522549
0.0642823 -0.0224677 0.521883
0.0651884 -0.0225663 0.52129
0.0660789 -0.0226588 0.520536
0.0669945 -0.0227632 0.520099
0.0679061 -0.0228668 0.519634
0.06886 -0.0229888 0.519654
0.0697982 -0.0231041 0.519502
0.070747 -0.0232245 0.519468
0.0716759 -0.0233362 0.519224
0.0726081 -0.0234496 0.519022
0.0735379 -0.0235622 0.518802
0.0744524 -0.0236687 0.518434
0.0753658 -0.0237748 0.518068
0.0762777 -0.0238808 0.517697
0.0771879 -0.0239864 0.517321
0.0780909 -0.0240891 0.516888
0.0790283 -0.024206 0.516786
0.0799749 -0.0243265 0.516772
0.0809604 -0.0244618 0.517107
0.081961 -0.0246023 0.517564
0.0829814 -0.0247497 0.518181
0.0839979 -0.0248959 0.518747
0.0850483 -0.0250535 0.519584
0.0861253 -0.02522 0.520619
0.0872367 -0.0253984 0.52191
0.0883622 -0.0255807 0.52328
0.0895112 -0.0257704 0.524803
0.0906511 -0.0259561 0.526213
0.0917674 -0.026132 0.527402
0.0928503 -0.0262957 0.528301
0.093931 -0.026458 0.52916
0.095728 -0.0268636 0.535397
0.0477481 -0.0196763 0.531958
0.048702 -0.01979 0.531644
0.0496497 -0.0198995 0.531232
0.0505967 -0.0200096 0.530832
0.0515568 -0.0201279 0.530677
0.0525123 -0.020244 0.530452
0.0534617 -0.0203568 0.53014
0.0544021 -0.0204655 0.5297
0.0553218 -0.0205629 0.528966
0.056222 -0.0206514 0.527975
0.0571256 -0.0207433 0.52708
0.0580158 -0.020829 0.526034
0.0589164 -0.020921 0.525181
0.0598272 -0.0210192 0.524503
0.060753 -0.0211255 0.524054
0.0616833 -0.0212339 0.523679
0.0626129 -0.0213431 0.523313
0.0635407 -0.0214509 0.522936
0.0644382 -0.0215461 0.522204
0.0653446 -0.0216457 0.521606
0.0662268 -0.0217359 0.520747
0.0671372 -0.0218384 0.520244
0.0680388 -0.0219382 0.51966
0.068987 -0.0220576 0.519614
0.069922 -0.0221718 0.519424
0.0708769 -0.0222947 0.519454
0.0718171 -0.0224114 0.519327
0.0727557 -0.022527 0.519187
0.0736874 -0.0226405 0.518981
0.0746078 -0.0227498 0.518668
0.0755279 -0.0228592 0.518361
0.0764466 -0.022968 0.518049
0.0773696 -0.0230786 0.517787
0.0782862 -0.0231875 0.517473
0.0792256 -0.023305 0.51738
0.0801731 -0.0234252 0.517361
0.0811469 -0.0235551 0.517578
0.0821408 -0.0236926 0.517966
0.0831492 -0.0238341 0.518468
0.084159 -0.0239765 0.518969
0.085203 -0.0241305 0.519744
0.0862867 -0.0242977 0.520829
0.0873943 -0.0244727 0.52208
0.0885225 -0.024653 0.523466
0.089673 -0.0248407 0.524993
0.09082 -0.0250259 0.526452
0.09193 -0.0251975 0.527583
0.0937575 -0.0256075 0.534226
0.0497775 -0.0189514 0.53125
0.0507395 -0.0190705 0.531107
0.0517153 -0.019197 0.531204
0.0526899 -0.0193235 0.531277
0.0536605 -0.0194472 0.531278
0.054611 -0.0195608 0.530966
0.0555357 -0.0196616 0.530273
0.0564321 -0.0197489 0.529192
0.0573239 -0.0198353 0.528095
0.0581989 -0.0199148 0.526809
0.0590918 -0.0200042 0.525829
0.0599986 -0.0201009 0.52508
0.0609208 -0.0202055 0.524568
0.0618427 -0.0203108 0.524072
0.0627639 -0.0204161 0.523586
0.0636822 -0.0205207 0.523084
0.0645709 -0.0206134 0.522241
0.065469 -0.0207099 0.52154
0.066347 -0.0207997 0.520632
0.0672523 -0.0209009 0.52007
0.0681528 -0.0210008 0.519475
0.069096 -0.0211189 0.519373
0.0700366 -0.0212355 0.519246
0.0709982 -0.021361 0.519348
0.0719458 -0.0214805 0.519297
0.0728896 -0.0215987 0.519209
0.0738267 -0.0217139 0.519053
0.0747473 -0.0218239 0.51874
0.0756788 -0.021938 0.518541
0.0766159 -0.0220539 0.518402
0.077547 -0.0221674 0.51821
0.0784766 -0.0222809 0.518009
0.079422 -0.0224006 0.51796
0.0803703 -0.0225209 0.517936
0.0813391 -0.0226483 0.518098
0.0823273 -0.0227828 0.518425
0.0833231 -0.0229197 0.518808
0.0843264 -0.0230585 0.519244
0.0853587 -0.0232069 0.519912
0.0864365 -0.0233702 0.520941
0.0875443 -0.0235427 0.522188
0.0886727 -0.0237207 0.523568
0.0898169 -0.0239034 0.525037
0.090963 -0.0240862 0.526484
0.0920733 -0.0242557 0.527612
0.0508892 -0.018133 0.531496
0.0518758 -0.0182654 0.531761
0.0528602 -0.0183955 0.531973
0.0538404 -0.0185238 0.532106
0.0547996 -0.018641 0.531902
0.0557291 -0.0187449 0.531258
0.0566229 -0.0188321 0.530113
0.0575031 -0.0189138 0.528826
0.0583695 -0.0189915 0.527401
0.0592504 -0.0190764 0.52624
0.0601454 -0.019169 0.525321
0.0610638 -0.019273 0.524749
0.0619815 -0.0193769 0.524193
0.0628979 -0.0194811 0.523643
0.0638116 -0.0195844 0.52308
0.0647002 -0.0196778 0.522233
0.0655941 -0.0197741 0.521481
0.0664681 -0.0198637 0.520527
0.0673587 -0.0199602 0.519797
0.0682574 -0.0200604 0.519184
0.0691952 -0.0201763 0.519025
0.0701415 -0.0202952 0.518963
0.0711151 -0.0204246 0.519193
0.0720781 -0.0205502 0.519305
0.0730282 -0.0206708 0.519278
0.0739701 -0.0207884 0.519168
0.0748955 -0.0209001 0.518897
0.0758335 -0.0210164 0.518757
0.0767836 -0.0211375 0.518738
0.0777285 -0.0212562 0.518669
0.0786715 -0.0213745 0.518584
0.079619 -0.0214943 0.518542
0.0805678 -0.0216146 0.518513
0.0815307 -0.0217392 0.518608
0.0825139 -0.021871 0.518881
0.0835048 -0.0220052 0.519212
0.0845035 -0.0221415 0.519599
0.0855292 -0.0222868 0.520203
0.0866004 -0.0224461 0.521169
0.0877013 -0.0226141 0.522351
0.0888226 -0.0227878 0.523666
0.0899589 -0.0229649 0.525066
0.0911054 -0.0231454 0.526511
0.092217 -0.0233135 0.527644
0.0530285 -0.0174634 0.532631
0.0540097 -0.0175917 0.532757
0.0549697 -0.017709 0.532546
0.0559085 -0.0178179 0.532024
0.056808 -0.0179084 0.530942
0.0576936 -0.0179949 0.529713
0.0585686 -0.0180776 0.528389
0.0594459 -0.018163 0.527157
0.0603336 -0.0182533 0.526117
0.0612404 -0.018353 0.525373
0.0621462 -0.0184525 0.524648
0.0630463 -0.0185509 0.523879
0.0639551 -0.0186529 0.52325
0.0648481 -0.0187491 0.52245
0.065747 -0.0188487 0.521754
0.0666309 -0.018943 0.520906
0.0675127 -0.0190373 0.520067
0.0684055 -0.0191362 0.519381
0.0693326 -0.0192481 0.519097
0.070274 -0.0193653 0.518978
0.0712394 -0.0194919 0.519118
0.0722139 -0.0196209 0.519347
0.0731695 -0.0197433 0.519374
0.0741114 -0.0198605 0.519259
0.0750431 -0.0199751 0.519047
0.0759931 -0.0200956 0.51902
0.0769571 -0.0202209 0.519127
0.0779167 -0.0203444 0.519188
0.0788734 -0.020467 0.519221
0.0798276 -0.020589 0.519228
0.0807776 -0.0207091 0.519197
0.0817363 -0.0208327 0.519243
0.0827155 -0.020962 0.519467
0.0837071 -0.0210954 0.519792
0.0847005 -0.0212298 0.520123
0.0857213 -0.021372 0.520675
0.086787 -0.0215271 0.521582
0.0878744 -0.0216887 0.522644
0.088975 -0.0218541 0.523784
0.0900975 -0.0220253 0.525067
0.0912373 -0.0222004 0.526452
0.0923435 -0.0223651 0.527541
0.053199 -0.0165297 0.533319
0.0541802 -0.0166568 0.53342
0.0551391 -0.0167743 0.533172
0.0560871 -0.0168868 0.53277
0.0569937 -0.0169826 0.531776
0.0578865 -0.0170729 0.530629
0.0587716 -0.0171616 0.529426
0.0596431 -0.0172463 0.528089
0.0605232 -0.0173347 0.526926
0.0614204 -0.0174312 0.526037
0.0623129 -0.0175269 0.525125
0.0632 -0.0176208 0.52418
0.0641135 -0.0177259 0.5236
0.0650163 -0.0178266 0.522911
0.0659216 -0.0179293 0.52228
0.0668212 -0.0180304 0.521604
0.0676995 -0.0181243 0.52071
0.0685864 -0.0182223 0.519945
0.0694975 -0.0183286 0.519472
0.0704284 -0.0184428 0.51923
0.0713841 -0.018565 0.519258
0.07236 -0.0186944 0.519496
0.0733168 -0.0188164 0.519529
0.0742595 -0.0189348 0.519418
0.0751924 -0.0190493 0.519212
0.0761442 -0.0191705 0.519196
0.0771162 -0.0192976 0.519375
0.0780884 -0.0194249 0.51955
0.079059 -0.0195517 0.519701
0.0800217 -0.0196761 0.519777
0.0809731 -0.0197967 0.519748
0.0819382 -0.0199215 0.519841
0.0829177 -0.0200511 0.520056
0.0839058 -0.0201822 0.520339
0.0849005 -0.0203157 0.520669
0.0859221 -0.0204568 0.521216
0.0869748 -0.020607 0.522006
0.0880432 -0.0207614 0.522901
0.0891363 -0.0209219 0.523972
0.090252 -0.0210889 0.525194
0.0913864 -0.0212601 0.52653
0.0924928 -0.0214229 0.527614
0.0543363 -0.0157138 0.533853
0.0552966 -0.0158312 0.533609
0.056254 -0.0159484 0.533334
0.0571813 -0.0160538 0.53263
0.0580893 -0.0161519 0.531681
0.0589869 -0.0162462 0.530626
0.0598691 -0.0163364 0.52941
0.0607502 -0.0164273 0.528231
0.061638 -0.0165208 0.527188
0.0625168 -0.0166124 0.526074
0.0633897 -0.0167023 0.52493
0.0642957 -0.0168053 0.524241
0.0652004 -0.0169075 0.52356
0.0661094 -0.0170127 0.522959
0.0670223 -0.0171188 0.522422
0.0679071 -0.0172163 0.521586
0.0687906 -0.0173134 0.520765
0.0696843 -0.0174147 0.520084
0.0706034 -0.0175246 0.519701
0.0715431 -0.0176421 0.519549
0.0725092 -0.0177671 0.519676
0.0734667 -0.0178896 0.51971
0.0744163 -0.0180102 0.519662
0.0753557 -0.0181268 0.519514
0.0763141 -0.0182494 0.519555
0.0772919 -0.0183783 0.51978
0.0782661 -0.0185061 0.519964
0.0792385 -0.0186328 0.520124
0.0802089 -0.0187591 0.520261
0.0811621 -0.01888 0.520238
0.0821345 -0.0190067 0.520384
0.083115 -0.0191354 0.520598
0.0841035 -0.0192667 0.520873
0.0850991 -0.0193994 0.521201
0.086129 -0.0195416 0.521806
0.0871708 -0.0196874 0.522494
0.088239 -0.0198397 0.523377
0.089325 -0.0199965 0.524379
0.090427 -0.0201572 0.525482
0.0915485 -0.0203225 0.526709
0.0926482 -0.0204818 0.527735
0.0546627 -0.014835 0.536966
0.0555544 -0.0149254 0.535585
0.0564727 -0.0150272 0.534672
0.0573869 -0.0151275 0.533739
0.0583011 -0.0152295 0.532853
0.0592099 -0.0153297 0.531928
0.0601041 -0.0154247 0.530843
0.0609914 -0.0155192 0.529716
0.0618714 -0.0156116 0.528538
0.0627369 -0.0156997 0.527225
0.0635965 -0.0157865 0.525891
0.0644936 -0.0158872 0.52507
0.0653958 -0.0159898 0.524343
0.0663077 -0.016096 0.523757
0.0672283 -0.0162052 0.523292
0.0681207 -0.0163063 0.522525
0.0690012 -0.0164036 0.521652
0.0698857 -0.0165026 0.520853
0.0707932 -0.0166095 0.520329
0.0717155 -0.0167209 0.519979
0.072671 -0.0168431 0.519985
0.0736292 -0.0169654 0.520017
0.0745798 -0.0170856 0.519972
0.0755256 -0.0172044 0.519879
0.0764844 -0.0173272 0.519916
0.0774619 -0.0174555 0.52013
0.0784418 -0.0175841 0.520358
0.079421 -0.0177127 0.520572
0.0803998 -0.0178406 0.520775
0.0813606 -0.0179633 0.52081
0.0823342 -0.0180902 0.520956
0.0833096 -0.0182171 0.521114
0.0842996 -0.0183475 0.521391
0.0852908 -0.0184787 0.521671
0.0863221 -0.0186201 0.522278
0.0873589 -0.0187629 0.522913
0.0884207 -0.0189121 0.523735
0.0894998 -0.0190651 0.524673
0.0905952 -0.0192225 0.525716
0.0916963 -0.0193802 0.526775
0.0927811 -0.0195336 0.527679
0.0558289 -0.0140181 0.537805
0.0567076 -0.014106 0.536241
0.0576088 -0.0142032 0.53508
0.0585203 -0.0143049 0.534121
0.0594319 -0.014407 0.533205
0.0603371 -0.0145075 0.532241
0.061231 -0.0146049 0.531169
0.0621067 -0.0146975 0.529905
0.0629604 -0.0147835 0.528411
0.0638111 -0.0148693 0.526941
0.0647027 -0.0149691 0.526031
0.0656049 -0.0150725 0.525283
0.0665142 -0.0151788 0.524645
0.0674447 -0.0152915 0.524276
0.0683483 -0.0153967 0.523616
0.0692221 -0.0154931 0.522647
0.070095 -0.01559 0.521702
0.0709918 -0.0156941 0.521047
0.071893 -0.0157998 0.52046
0.0728314 -0.0159163 0.520277
0.0737899 -0.0160394 0.520305
0.0747425 -0.0161601 0.520272
0.0756899 -0.016279 0.520187
0.0766487 -0.016402 0.520215
0.0776261 -0.0165291 0.520419
0.0786056 -0.0166575 0.520637
0.0795862 -0.0167853 0.520855
0.0805722 -0.0169148 0.521117
0.0815403 -0.0170393 0.52121
0.0825156 -0.0171659 0.521362
0.0834914 -0.0172926 0.521515
0.0844823 -0.0174232 0.521791
0.0854808 -0.0175553 0.522124
0.0865207 -0.0176978 0.522793
0.0875599 -0.0178397 0.523437
0.0886232 -0.0179875 0.52426
0.0896957 -0.0181374 0.525134
0.0907782 -0.0182896 0.526064
0.0918574 -0.0184407 0.526943
0.0929267 -0.0185882 0.527722
0.0552431 -0.0130201 0.541993
0.0560695 -0.0130911 0.539488
0.0569279 -0.0131745 0.537581
0.0578119 -0.0132677 0.536138
0.0587125 -0.0133671 0.534997
0.0596174 -0.013468 0.533965
0.0605315 -0.0135724 0.533105
0.0614315 -0.0136734 0.532093
0.0623096 -0.0137683 0.53084
0.0631662 -0.013857 0.529365
0.0640213 -0.0139471 0.527931
0.064904 -0.014045 0.52689
0.0658014 -0.0141478 0.526065
0.0666966 -0.0142511 0.525247
0.067617 -0.0143611 0.524747
0.0685293 -0.0144694 0.524174
0.0693999 -0.0145663 0.523158
0.0702608 -0.0146612 0.522073
0.0711521 -0.0147651 0.521351
0.0720459 -0.0148701 0.520679
0.0729628 -0.0149807 0.520266
0.0739169 -0.0151024 0.520247
0.0748759 -0.0152247 0.520276
0.0758297 -0.0153458 0.520252
0.0767889 -0.0154683 0.52028
0.0777663 -0.0155954 0.52048
0.0787465 -0.0157232 0.520698
0.0797287 -0.0158515 0.520929
0.0807162 -0.0159804 0.521199
0.081691 -0.0161069 0.521348
0.0826719 -0.0162341 0.521546
0.0836552 -0.0163623 0.521757
0.0846469 -0.0164924 0.522034
0.0856529 -0.0166257 0.522424
0.0867012 -0.0167688 0.523154
0.0877351 -0.0169086 0.523747
0.0888 -0.0170552 0.524574
0.0898731 -0.0172037 0.525444
0.090949 -0.0173522 0.526314
0.0920142 -0.0174985 0.527076
0.0930737 -0.0176424 0.527775
0.050738 -0.0125554 0.550011
0.0498477 -0.0114372 0.549674
0.0508383 -0.0115603 0.549455
0.0517195 -0.0126748 0.549632
0.0518162 -0.01168 0.549027
0.0526759 -0.012786 0.548846
0.0527702 -0.0117918 0.548216
0.0535665 -0.0128746 0.547016
0.0536972 -0.011895 0.547002
0.0544076 -0.0129475 0.544483
0.0545778 -0.0119847 0.545107
0.0554337 -0.0120678 0.542923
0.056261 -0.0121429 0.540411
0.0571126 -0.0122271 0.538384
0.0579866 -0.0123191 0.536775
0.0588793 -0.012418 0.535507
0.0597766 -0.0125183 0.534358
0.060698 -0.0126262 0.533585
0.0616068 -0.0127312 0.53268
0.0624911 -0.0128293 0.531493
0.0633584 -0.0129238 0.53014
0.0642243 -0.013018 0.528824
0.0650992 -0.0131155 0.527669
0.0659886 -0.0132175 0.526732
0.066874 -0.0133192 0.525784
0.0677796 -0.0134263 0.525102
0.0686904 -0.0135352 0.524504
0.0695611 -0.0136337 0.523483
0.0704177 -0.0137293 0.522344
0.0713037 -0.0138324 0.52156
0.0721908 -0.0139365 0.520812
0.0730962 -0.0140457 0.520278
0.0740458 -0.0141651 0.520209
0.0750064 -0.0142878 0.52025
0.0759669 -0.0144111 0.520289
0.0769269 -0.0145335 0.520322
0.0779047 -0.01466 0.520522
0.0788858 -0.0147876 0.520745
0.0798695 -0.0149156 0.520986
0.080858 -0.0150447 0.521261
0.0818394 -0.0151723 0.521464
0.082821 -0.0152989 0.521663
0.0838054 -0.015427 0.521879
0.0847987 -0.0155567 0.522165
0.0858123 -0.015691 0.522614
0.0868678 -0.0158346 0.523398
0.0879106 -0.015975 0.524056
0.0889904 -0.0161238 0.524996
0.090072 -0.0162726 0.525925
0.0911492 -0.01642 0.526794
0.0922073 -0.0165632 0.527492
0.0932664 -0.0167056 0.528178
0.0489721 -0.0103241 0.549607
0.0499557 -0.0104462 0.549254
0.0509418 -0.0105679 0.548959
0.0519174 -0.0106879 0.548501
0.0528689 -0.0108003 0.54766
0.0537939 -0.0109053 0.546429
0.0547013 -0.0110057 0.544978
0.055573 -0.0110969 0.543046
0.0564116 -0.0111791 0.540706
0.0572683 -0.0112683 0.538749
0.0581374 -0.0113614 0.537062
0.059023 -0.0114597 0.535684
0.0599202 -0.011562 0.534529
0.0608412 -0.0116715 0.533747
0.0617502 -0.0117773 0.532838
0.0626441 -0.01188 0.531772
0.0635215 -0.0119797 0.530542
0.0643984 -0.012079 0.529354
0.0652801 -0.0121797 0.528271
0.0661656 -0.0122821 0.527274
0.0670414 -0.0123823 0.526203
0.0679323 -0.0124871 0.525343
0.0688328 -0.0125943 0.524622
0.0696985 -0.0126935 0.523543
0.0705498 -0.0127895 0.522346
0.0714304 -0.0128923 0.5215
0.0723155 -0.0129973 0.520732
0.0732204 -0.0131065 0.520192
0.0741701 -0.013227 0.520123
0.0751377 -0.0133511 0.520232
0.0761045 -0.013475 0.520331
0.0770704 -0.0135991 0.520417
0.0780487 -0.0137256 0.520616
0.0790303 -0.0138527 0.52084
0.0800146 -0.0139802 0.52108
0.0809978 -0.0141075 0.521303
0.0819792 -0.0142344 0.521503
0.0829615 -0.0143613 0.521703
0.0839471 -0.0144893 0.521928
0.084948 -0.0146203 0.522274
0.0859695 -0.0147552 0.522784
0.0870327 -0.0148993 0.523626
0.0880838 -0.0150402 0.524346
0.0891726 -0.015189 0.525349
0.0902571 -0.0153363 0.526293
0.09135 -0.0154856 0.527276
0.0924106 -0.015628 0.527983
0.0934799 -0.0157716 0.528738
0.0490786 -0.00933254 0.54915
0.0500587 -0.00945388 0.54874
0.0510377 -0.00957472 0.548331
0.0520071 -0.00969328 0.547779
0.0529471 -0.00980404 0.546763
0.0538708 -0.00991075 0.545532
0.05478 -0.0100143 0.544135
0.0556511 -0.0101088 0.542216
0.0565003 -0.0101979 0.540062
0.0573693 -0.0102934 0.538303
0.0582465 -0.0103915 0.536744
0.0591324 -0.0104927 0.53538
0.0600364 -0.0105981 0.534323
0.0609538 -0.010708 0.533495
0.0618588 -0.0108146 0.532538
0.062757 -0.0109203 0.531532
0.0636442 -0.0110234 0.530429
0.0645312 -0.0111269 0.529369
0.0654239 -0.0112322 0.528417
0.066319 -0.0113385 0.527531
0.0671944 -0.0114406 0.52645
0.0680798 -0.0115453 0.52552
0.0689659 -0.01165 0.524634
0.0698259 -0.01175 0.523491
0.0706718 -0.0118467 0.522235
0.071543 -0.0119491 0.521292
0.0724228 -0.0120538 0.520471
0.0733267 -0.0121641 0.519923
0.0742707 -0.012283 0.519797
0.0752382 -0.0124071 0.519909
0.0762111 -0.0125322 0.520068
0.077183 -0.0126571 0.520212
0.0781664 -0.0127845 0.52046
0.0791474 -0.0129106 0.520677
0.0801309 -0.0130381 0.52091
0.0811136 -0.0131646 0.521126
0.0821004 -0.0132923 0.521374
0.0830892 -0.0134204 0.521631
0.0840819 -0.0135488 0.521913
0.0850903 -0.0136809 0.522322
0.0861188 -0.0138162 0.522886
0.0871833 -0.0139593 0.523734
0.0882424 -0.0141003 0.524513
0.0893403 -0.0142494 0.525584
0.0904348 -0.0143975 0.526599
0.0915449 -0.0145482 0.527711
0.0926227 -0.0146923 0.528541
0.0937104 -0.0148384 0.529427
0.0952817 -0.0160658 0.535029
0.0947788 -0.0149801 0.530143
0.048205 -0.00822016 0.549119
0.0491857 -0.00834196 0.548707
0.0501657 -0.00846399 0.548303
0.0511361 -0.00858331 0.547751
0.0520944 -0.00869996 0.547021
0.0530292 -0.00881175 0.545938
0.0539472 -0.00891938 0.544636
0.0548514 -0.00902356 0.543181
0.0557208 -0.00912108 0.541262
0.0565801 -0.00921653 0.539286
0.0574528 -0.00931562 0.537601
0.0583345 -0.00941764 0.536125
0.0592239 -0.00952137 0.534822
0.0601352 -0.00963057 0.533879
0.0610525 -0.0097414 0.533057
0.061958 -0.00984975 0.532115
0.0628648 -0.00995891 0.531228
0.0637601 -0.0100658 0.530231
0.0646484 -0.0101713 0.529189
0.0655418 -0.0102789 0.52825
0.0664374 -0.0103865 0.527372
0.0673127 -0.01049 0.52629
0.0681877 -0.0105937 0.525245
0.0690628 -0.0106985 0.52424
0.0699207 -0.0107994 0.523081
0.0707666 -0.010898 0.521832
0.071633 -0.0110012 0.520844
0.072513 -0.0111072 0.520029
0.0734208 -0.0112191 0.519529
0.0743587 -0.0113374 0.519346
0.0753315 -0.0114623 0.519513
0.0763102 -0.0115884 0.519732
0.0772884 -0.0117137 0.519938
0.0782723 -0.0118405 0.520192
0.0792579 -0.0119681 0.520453
0.0802403 -0.0120942 0.520675
0.0812228 -0.0122207 0.520891
0.0822162 -0.0123493 0.521198
0.0832117 -0.0124778 0.521512
0.084205 -0.0126062 0.521798
0.0852199 -0.0127387 0.522261
0.0862491 -0.0128731 0.522827
0.0873085 -0.0130132 0.523629
0.088374 -0.0131546 0.524459
0.08948 -0.0133029 0.525591
0.0905825 -0.0134511 0.526666
0.0917166 -0.0136043 0.52796
0.0928123 -0.0137501 0.528922
0.0939188 -0.0138979 0.529942
0.0950039 -0.0140419 0.530775
0.0483155 -0.0072308 0.548734
0.0492956 -0.00735338 0.548317
0.0502684 -0.00747374 0.547789
0.0512313 -0.00759266 0.547116
0.0521819 -0.00770878 0.54627
0.053108 -0.00781996 0.545059
0.0540134 -0.0079275 0.543576
0.054911 -0.00803335 0.542045
0.0557781 -0.00813338 0.540123
0.0566441 -0.00823343 0.538276
0.0575242 -0.00833701 0.536725
0.0584142 -0.0084432 0.535389
0.0593102 -0.00855057 0.534196
0.0602255 -0.00866219 0.533319
0.0611378 -0.00877355 0.532442
0.062039 -0.0088826 0.531456
0.0629486 -0.00899382 0.530616
0.0638427 -0.00910225 0.529617
0.0647304 -0.0092091 0.528578
0.0656323 -0.00931988 0.527753
0.0665285 -0.00942854 0.52689
0.0674077 -0.00953503 0.525861
0.0682772 -0.00963992 0.524762
0.0691457 -0.00974454 0.52369
0.0700016 -0.0098469 0.522519
0.0708561 -0.00994903 0.521372
0.0717235 -0.0100547 0.520402
0.0726141 -0.0101641 0.519706
0.0735265 -0.0102772 0.519253
0.0744581 -0.0103945 0.51901
0.0754245 -0.0105176 0.519116
0.0764036 -0.0106437 0.519342
0.0773775 -0.0107679 0.519509
0.0783617 -0.0108949 0.51977
0.0793531 -0.0110224 0.520087
0.0803417 -0.0111493 0.520368
0.0813309 -0.0112766 0.520646
0.0823381 -0.0114067 0.521075
0.0833413 -0.0115361 0.521456
0.0843418 -0.0116654 0.521801
0.0853629 -0.0117981 0.522312
0.0863925 -0.0119317 0.522878
0.0874458 -0.0120695 0.523626
0.0885175 -0.0122103 0.524501
0.089623 -0.0123569 0.525625
0.0907342 -0.012504 0.526763
0.0918784 -0.0126572 0.52813
0.0929915 -0.0128043 0.529221
0.0941138 -0.012953 0.530354
0.095194 -0.0130941 0.531139
0.0484419 -0.00624492 0.548656
0.0494183 -0.0063674 0.548168
0.0503818 -0.00648721 0.547474
0.0513369 -0.00660543 0.546668
0.0522825 -0.0067219 0.545747
0.0531996 -0.00683388 0.544401
0.054096 -0.00694179 0.54279
0.0549882 -0.00704931 0.541195
0.05585 -0.00715131 0.539213
0.0567196 -0.00725498 0.537444
0.0575999 -0.00736126 0.535917
0.0584975 -0.00747085 0.534706
0.0593928 -0.00758078 0.533521
0.0603107 -0.00769394 0.532693
0.0612226 -0.00780631 0.531821
0.0621228 -0.00791741 0.530833
0.0630268 -0.00802906 0.529936
0.0639149 -0.00813755 0.528874
0.064796 -0.00824552 0.527769
0.0656969 -0.0083568 0.526944
0.0665919 -0.00846777 0.526083
0.0674752 -0.00857602 0.525117
0.0683485 -0.00868318 0.524073
0.0692159 -0.00878983 0.523001
0.0700706 -0.00889369 0.521828
0.0709342 -0.00899968 0.520792
0.0718023 -0.00910638 0.519838
0.0726988 -0.0092179 0.51921
0.0736163 -0.00933338 0.518818
0.0745468 -0.00945016 0.518566
0.0755119 -0.00957319 0.518665
0.0764957 -0.00969918 0.51894
0.0774702 -0.00982373 0.519117
0.0784547 -0.00994973 0.519382
0.0794517 -0.0100782 0.519754
0.0804407 -0.0102046 0.520041
0.0814326 -0.0103315 0.520344
0.0824539 -0.0104637 0.520899
0.0834648 -0.0105936 0.521345
0.0844722 -0.010723 0.521749
0.0855 -0.0108557 0.522312
0.0865365 -0.0109897 0.522934
0.08759 -0.0111262 0.523677
0.088662 -0.0112655 0.52455
0.0897601 -0.011409 0.525609
0.0908717 -0.0115544 0.526746
0.0920165 -0.0117048 0.528114
0.0931318 -0.0118505 0.529217
0.0942621 -0.0119987 0.530407
0.095342 -0.0121389 0.531186
0.0475736 -0.0051327 0.548735
0.0485567 -0.00525715 0.548355
0.0495316 -0.00537987 0.547844
0.0504886 -0.00549974 0.547038
0.0514391 -0.00561882 0.546166
0.0523797 -0.005736 0.545169
0.0532889 -0.00584858 0.543707
0.0541759 -0.00595754 0.541963
0.055059 -0.00606626 0.540248
0.0559191 -0.00617162 0.538265
0.0567878 -0.006278 0.536509
0.0576722 -0.0063872 0.535063
0.0585729 -0.00649947 0.533917
0.0594715 -0.00661127 0.532793
0.0603877 -0.00672622 0.531958
0.0612945 -0.0068391 0.531032
0.0621929 -0.0069512 0.530038
0.0630911 -0.00706348 0.529081
0.0639727 -0.00717338 0.527956
0.0648472 -0.00728158 0.526787
0.065746 -0.00739434 0.525956
0.0666399 -0.00750584 0.525098
0.0675325 -0.00761773 0.524258
0.0684149 -0.00772791 0.523333
0.0692926 -0.00783756 0.522387
0.0701567 -0.00794481 0.521327
0.0710312 -0.00805412 0.520416
0.0719002 -0.00816262 0.519478
0.0727973 -0.00827494 0.51886
0.0737093 -0.00839041 0.518416
0.0746282 -0.00850583 0.518053
0.0755812 -0.00862727 0.518037
0.0765582 -0.00875185 0.518253
0.0775253 -0.00887477 0.518367
0.0785146 -0.0090007 0.518685
0.0795221 -0.00912967 0.519161
0.0805239 -0.00925764 0.519569
0.0815288 -0.00938642 0.519993
0.0825692 -0.00952033 0.520717
0.0835877 -0.00965049 0.521229
0.0845956 -0.00977899 0.521635
0.0856236 -0.00991098 0.522199
0.0866675 -0.010045 0.52288
0.0877092 -0.0101789 0.523523
0.0887817 -0.0103165 0.524398
0.0898783 -0.0104578 0.525442
0.090996 -0.0106024 0.526625
0.0921345 -0.0107498 0.527939
0.0932565 -0.0108946 0.529093
0.0943799 -0.0110394 0.530226
0.0954435 -0.011176 0.530883
0.0477199 -0.00414861 0.549049
0.0486827 -0.00427048 0.548267
0.0496484 -0.00439301 0.547585
0.050598 -0.00451358 0.546652
0.051538 -0.00463241 0.545605
0.0524674 -0.00474947 0.544431
0.0533679 -0.0048634 0.542846
0.0542462 -0.00497414 0.540986
0.0551234 -0.00508484 0.539205
0.0559892 -0.00519406 0.537338
0.0568643 -0.0053044 0.5357
0.0577523 -0.00541666 0.534327
0.0586522 -0.00553053 0.533186
0.0595489 -0.00564418 0.532052
0.0604598 -0.00575906 0.531159
0.061361 -0.00587341 0.530176
0.062259 -0.00598658 0.529193
0.0631601 -0.00610102 0.528289
0.0640403 -0.00621198 0.527162
0.0649083 -0.00632187 0.525931
0.0658009 -0.00643523 0.525041
0.0666937 -0.00654789 0.524186
0.0675906 -0.0066613 0.52341
0.0684793 -0.00677385 0.522571
0.0693727 -0.00688725 0.521813
0.0702531 -0.00699856 0.520941
0.0711432 -0.00711145 0.520201
0.0720229 -0.00722248 0.519378
0.0729307 -0.00733799 0.518872
0.0738474 -0.00745369 0.518471
0.0747605 -0.00756987 0.518048
0.0757016 -0.00768895 0.517912
0.0766663 -0.00781175 0.518008
0.0776214 -0.00793298 0.518009
0.0785984 -0.00805695 0.518214
0.0796056 -0.00818523 0.518691
0.0806134 -0.00831284 0.519157
0.0816247 -0.00844146 0.519641
0.0826719 -0.00857472 0.520425
0.083696 -0.00870519 0.520987
0.0847107 -0.00883416 0.521451
0.085739 -0.00896518 0.522016
0.0867901 -0.00909904 0.522755
0.087833 -0.00923143 0.523406
0.0889063 -0.00936827 0.524285
0.0900035 -0.00950801 0.525332
0.091127 -0.00965071 0.526556
0.0922589 -0.00979505 0.527816
0.0933814 -0.00993798 0.528969
0.0944971 -0.0100802 0.530042
0.0955511 -0.0102143 0.530625
0.0428098 -0.00353591 0.576293
0.0416874 -0.00235144 0.571001
0.0426834 -0.00247949 0.569934
0.0435937 -0.00363337 0.570064
0.0436688 -0.00260577 0.568696
0.0445793 -0.00272493 0.565862
0.0478588 -0.00316249 0.549217
0.0488069 -0.00328405 0.548146
0.0497615 -0.00340647 0.547259
0.0507039 -0.00352716 0.546203
0.0516394 -0.00364749 0.54509
0.0525607 -0.00376613 0.543795
0.0534524 -0.00388107 0.542081
0.0543255 -0.00399459 0.540162
0.0551973 -0.00410759 0.538317
0.0560662 -0.00422017 0.536521
0.0569408 -0.00433275 0.534895
0.057832 -0.00444755 0.533588
0.0587309 -0.00456299 0.532448
0.0596257 -0.00467811 0.531305
0.0605268 -0.00479412 0.530295
0.0614266 -0.00490906 0.529312
0.0623237 -0.00502461 0.528334
0.0632207 -0.00513934 0.527395
0.0640958 -0.00525168 0.526222
0.0649665 -0.00536405 0.525042
0.0658575 -0.00547793 0.524149
0.0667537 -0.00559285 0.52335
0.0676602 -0.00570864 0.5227
0.0685639 -0.00582439 0.522041
0.0694733 -0.00594037 0.521467
0.0703705 -0.00605517 0.520781
0.0712777 -0.00617078 0.520226
0.0721688 -0.00628515 0.519521
0.0730819 -0.00640126 0.519064
0.0739983 -0.00651826 0.518656
0.0749056 -0.006634 0.518169
0.0758295 -0.006752 0.517862
0.0767866 -0.00687313 0.517882
0.0777287 -0.00699282 0.517757
0.0786936 -0.00711549 0.51785
0.0796953 -0.00724186 0.518278
0.0807026 -0.00736901 0.518742
0.0817136 -0.00749695 0.519226
0.0827609 -0.00762834 0.520014
0.083785 -0.0077579 0.520577
0.0848053 -0.00788664 0.52109
0.0858394 -0.00801732 0.521706
0.0868907 -0.00814997 0.522448
0.0879347 -0.00828153 0.523107
0.0890078 -0.00841626 0.523984
0.0900975 -0.00855387 0.524971
0.0912285 -0.00869538 0.526255
0.092362 -0.00883772 0.527526
0.0934927 -0.00898011 0.528743
0.094615 -0.00912066 0.529863
0.0956674 -0.00925377 0.530433
0.0398089 -0.00210657 0.57657
0.0387551 -0.000934793 0.572577
0.0397788 -0.00106608 0.572059
0.0406795 -0.00222298 0.571844
0.0407912 -0.00119639 0.571285
0.0417928 -0.00132632 0.570302
0.0427787 -0.0014557 0.569017
0.0437437 -0.00158275 0.567339
0.0446462 -0.00170613 0.564381
0.0455102 -0.00182564 0.560797
0.0471048 -0.00205503 0.551644
0.0479945 -0.00217418 0.549317
0.0489295 -0.00229713 0.547995
0.0498746 -0.00241952 0.546932
0.0508128 -0.00254193 0.545813
0.0517403 -0.00266362 0.544569
0.0526568 -0.00278396 0.543207
0.0535429 -0.00290123 0.541418
0.0544141 -0.00301735 0.539487
0.0552852 -0.00313329 0.537651
0.0561578 -0.00324884 0.535929
0.057033 -0.00336478 0.534328
0.0579239 -0.0034813 0.533028
0.0588174 -0.00359867 0.531827
0.0597024 -0.00371423 0.53056
0.0605973 -0.00383126 0.529483
0.0614918 -0.00394733 0.528445
0.0623883 -0.00406405 0.527478
0.0632846 -0.00418044 0.526547
0.0641632 -0.00429559 0.525434
0.0650382 -0.00440976 0.524321
0.0659243 -0.00452439 0.523382
0.0668242 -0.00464094 0.52264
0.0677342 -0.00475792 0.522041
0.0686523 -0.00487632 0.521554
0.0695682 -0.00499387 0.52106
0.0704863 -0.00511142 0.520606
0.0714098 -0.00523008 0.520225
0.072313 -0.00534622 0.519643
0.0732281 -0.0054638 0.519204
0.0741452 -0.00558115 0.518798
0.0750464 -0.0056972 0.518247
0.0759582 -0.00581392 0.517817
0.0769023 -0.0059339 0.51771
0.0778373 -0.00605347 0.517519
0.0787956 -0.00617449 0.517551
0.0797849 -0.00629951 0.517866
0.0807849 -0.00642529 0.518268
0.0817883 -0.00655099 0.518685
0.0828292 -0.00668095 0.51942
0.0838533 -0.00680955 0.519989
0.0848731 -0.00693734 0.520503
0.0859068 -0.00706657 0.52112
0.0869571 -0.007198 0.521857
0.0879934 -0.00732728 0.522457
0.0890585 -0.00746032 0.523275
0.0901398 -0.00759498 0.524199
0.09125 -0.00773226 0.525325
0.0923825 -0.00787255 0.526596
0.0935143 -0.00801226 0.527828
0.0946362 -0.00815138 0.528952
0.0956958 -0.00828418 0.529583
0.0368356 -0.000675687 0.57785
0.0358063 0.000490398 0.574134
0.036824 0.000357104 0.573265
0.0377321 -0.000802909 0.57316
0.0378437 0.000224647 0.572541
0.0388659 9.22679e-05 0.571954
0.0398861 -4.01155e-05 0.571366
0.0408949 -0.000171651 0.570525
0.0418948 -0.000303175 0.569529
0.0428717 -0.000433886 0.568054
0.0438247 -0.000563317 0.566134
0.04472 -0.000690808 0.563066
0.0455891 -0.000816575 0.559647
0.0462872 -0.00193932 0.555637
0.0464119 -0.000939975 0.5555
0.0472404 -0.0010619 0.551738
0.0481209 -0.00118529 0.549234
0.0490416 -0.00130945 0.547643
0.0499717 -0.00143326 0.546317
0.0509054 -0.00155694 0.545133
0.0518248 -0.00167968 0.543767
0.0527358 -0.00180203 0.542336
0.0536201 -0.00192248 0.540543
0.0544936 -0.00204162 0.538671
0.0553679 -0.00216057 0.536908
0.0562477 -0.00227961 0.535314
0.0571265 -0.00239808 0.533782
0.0580204 -0.00251691 0.532538
0.0589088 -0.00263562 0.531275
0.0597884 -0.00275289 0.529947
0.0606737 -0.00287068 0.528752
0.0615579 -0.0029882 0.527596
0.0624479 -0.00310577 0.526561
0.0633431 -0.00322386 0.525635
0.0642255 -0.00334047 0.524586
0.0651047 -0.00345642 0.523539
0.0659947 -0.00357314 0.522661
0.0668989 -0.00369146 0.521982
0.0678125 -0.00380953 0.521435
0.0687354 -0.00392859 0.521011
0.0696605 -0.00404779 0.520625
0.0705897 -0.00416716 0.520296
0.0715192 -0.00428644 0.519982
0.0724334 -0.00440457 0.519519
0.0733551 -0.00452294 0.519145
0.0742735 -0.00464095 0.518751
0.0751745 -0.00475799 0.518198
0.0760798 -0.00487508 0.517703
0.0770119 -0.00499449 0.51748
0.0779404 -0.00511346 0.517229
0.0788929 -0.00523453 0.517208
0.079869 -0.0053569 0.517404
0.0808602 -0.0054816 0.517729
0.0818612 -0.00560661 0.518131
0.0828889 -0.00573398 0.518754
0.0839071 -0.00586063 0.519277
0.0849194 -0.00598709 0.519734
0.0859514 -0.00611539 0.520344
0.0869944 -0.00624448 0.521026
0.0880225 -0.00637204 0.521568
0.089078 -0.0065027 0.522316
0.0901488 -0.00663509 0.523165
0.0912478 -0.00676943 0.524213
0.0923714 -0.00690623 0.525423
0.0935026 -0.00704412 0.52666
0.0946179 -0.00718051 0.527746
0.0956917 -0.00731376 0.528495
0.0348944 0.000627545 0.578852
0.0338562 0.00178643 0.574458
0.0348926 0.0016525 0.574132
0.0359251 0.00151944 0.573701
0.0369422 0.00138448 0.572837
0.0379576 0.00125084 0.571996
0.0389765 0.00111738 0.571335
0.0399911 0.000984363 0.570615
0.0409936 0.000850923 0.569639
0.0419894 0.000718105 0.568575
0.0429675 0.000585749 0.567165
0.0439123 0.000452737 0.565092
0.0448039 0.000320428 0.561987
0.04567 0.000189793 0.558551
0.0465163 5.9854e-05 0.55494
0.0473642 -6.86783e-05 0.551597
0.0482388 -0.000195726 0.548986
0.0491504 -0.000321931 0.54723
0.0500681 -0.000447846 0.545691
0.0509966 -0.000573756 0.544432
0.0519111 -0.000698466 0.543001
0.0528172 -0.000822577 0.541509
0.0537048 -0.00094557 0.539792
0.0545888 -0.00106858 0.538111
0.0554711 -0.0011901 0.536485
0.0563585 -0.00131191 0.535017
0.0572404 -0.00143319 0.533538
0.0581297 -0.0015537 0.532234
0.0590134 -0.00167408 0.53091
0.059884 -0.00179374 0.529467
0.0607595 -0.00191277 0.528152
0.061633 -0.00203158 0.526868
0.0625125 -0.00215029 0.525713
0.0634009 -0.00226904 0.524716
0.0642865 -0.00238698 0.523725
0.0651706 -0.00250544 0.522755
0.0660656 -0.00262359 0.52195
0.0669781 -0.00274293 0.521378
0.0678951 -0.00286277 0.52088
0.0688225 -0.00298245 0.520513
0.0697485 -0.00310204 0.520143
0.0706825 -0.00322216 0.519873
0.0716208 -0.00334244 0.519656
0.0725459 -0.0034616 0.519309
0.0734739 -0.00358129 0.519002
0.0743985 -0.00370107 0.518672
0.0753048 -0.00381899 0.51817
0.076204 -0.00393641 0.517613
0.077131 -0.00405547 0.51734
0.0780542 -0.00417472 0.51704
