ply
format ascii 1.0
element vertex 1608
property float x
property float y
property float z
end_header
0.0214197 -0.0667399 0.580615
0.0219498 -0.0658598 0.580411
0.0224655 -0.064966 0.579943
0.0229967 -0.0640896 0.579776
0.0235286 -0.063215 0.579633
0.0241295 -0.0624028 0.580737
0.0247394 -0.0615936 0.581968
0.0253511 -0.0607807 0.583194
0.0259371 -0.0599425 0.583939
0.026491 -0.0590776 0.58412
0.0270102 -0.0581874 0.583717
0.0275128 -0.0572876 0.583052
0.0279979 -0.0563795 0.582126
0.0284807 -0.0554737 0.581186
0.0289705 -0.0545757 0.580386
0.0294569 -0.0536791 0.579558
0.0299574 -0.052793 0.578967
0.0304787 -0.0519195 0.578709
0.030998 -0.0510461 0.578429
0.0315148 -0.0501727 0.578118
0.0320337 -0.0493015 0.577848
0.0325337 -0.0484239 0.577314
0.0330224 -0.0475444 0.576634
0.0335226 -0.0466711 0.576132
0.0340251 -0.0458003 0.575676
0.0345497 -0.0449376 0.575534
0.0351042 -0.0440833 0.575798
0.035674 -0.0432319 0.57626
0.0362513 -0.0423808 0.576811
0.0368344 -0.0415291 0.577425
0.0374204 -0.0406761 0.578064
0.0379975 -0.0398198 0.578576
0.0385525 -0.0389588 0.578797
0.0390982 -0.0380963 0.578901
0.0396276 -0.0372318 0.578801
0.040151 -0.0363673 0.578632
0.0406695 -0.035503 0.578407
0.041198 -0.0346399 0.578307
0.0417227 -0.0337771 0.578165
0.0422462 -0.0329147 0.578012
0.0427577 -0.032053 0.577724
0.0432626 -0.0311922 0.577367
0.0437635 -0.0303328 0.576975
0.0442907 -0.029473 0.576883
0.0448468 -0.0286116 0.577114
0.045434 -0.0277471 0.577684
0.046074 -0.026876 0.578817
0.0467938 -0.025993 0.580789
0.0474985 -0.0251067 0.582562
0.0481916 -0.0242176 0.584181
0.0488609 -0.023328 0.585521
0.0494867 -0.0224423 0.586384
0.050046 -0.0215666 0.586549
0.0505991 -0.0206917 0.586649
0.0511569 -0.0198156 0.586795
0.0517083 -0.0189406 0.586875
0.0522556 -0.0180665 0.586913
0.0528091 -0.0171909 0.587011
0.0533684 -0.0163136 0.587166
0.0539655 -0.015426 0.587682
0.0545675 -0.0145358 0.588239
0.0551675 -0.013645 0.588767
0.055783 -0.0127482 0.589431
0.0563906 -0.0118528 0.590015
0.0569743 -0.0109635 0.590365
0.0575665 -0.0100709 0.590789
0.0581725 -0.00917234 0.591332
0.0587535 -0.00828156 0.591639
0.0593386 -0.00738899 0.591982
0.0599168 -0.0064977 0.592254
0.0604752 -0.0056139 0.592352
0.0610476 -0.00472441 0.59257
0.0616138 -0.0038372 0.592732
0.062202 -0.00294033 0.593081
0.0627774 -0.00204843 0.593315
0.063389 -0.00114043 0.593853
0.0640327 -0.00021728 0.594655
0.0647189 0.000726351 0.5958
0.0654208 0.00167951 0.59706
0.0661234 0.00263504 0.598309
0.0668004 0.00358126 0.599331
0.0674817 0.00453144 0.600372
0.0681686 0.00548667 0.601442
0.0688414 0.00643648 0.602388
0.0694917 0.00737716 0.603139
0.0193984 -0.0678473 0.579135
0.0199677 -0.0670156 0.579749
0.0205118 -0.0661525 0.57983
0.0210473 -0.06528 0.579741
0.0215952 -0.0644207 0.579895
0.0221595 -0.0635771 0.58036
0.022724 -0.0627318 0.580815
0.0233309 -0.0619228 0.58204
0.0239471 -0.0611165 0.583394
0.0245434 -0.0602882 0.584353
0.0251146 -0.0594362 0.584838
0.0256532 -0.0585579 0.584742
0.0261728 -0.0576666 0.584325
0.026673 -0.0567638 0.583593
0.0271523 -0.0558509 0.582538
0.0276287 -0.0549404 0.581469
0.0281117 -0.054038 0.580537
0.0285926 -0.0531381 0.579597
0.0290906 -0.0522507 0.578953
0.0296128 -0.0513777 0.578703
0.0301365 -0.0505063 0.578482
0.0306619 -0.0496366 0.578292
0.0311853 -0.0487669 0.57808
0.0316942 -0.0478926 0.577661
0.032192 -0.0470159 0.577094
0.032698 -0.046144 0.576658
0.0332025 -0.0452731 0.576213
0.0337326 -0.0444111 0.576137
0.034287 -0.0435556 0.576397
0.0348568 -0.0427029 0.576859
0.0354246 -0.0418485 0.577288
0.0359977 -0.0409937 0.577774
0.036578 -0.0401388 0.578344
0.0371504 -0.039281 0.578802
0.037707 -0.0384198 0.579046
0.0382627 -0.0375579 0.579272
0.0388073 -0.0366943 0.579357
0.0393416 -0.0358298 0.579312
0.0398661 -0.034965 0.57915
0.0403963 -0.0341011 0.579059
0.0409257 -0.0332374 0.578962
0.0414501 -0.032374 0.578809
0.0419734 -0.0315112 0.578647
0.0425112 -0.0306485 0.578656
0.0430462 -0.029786 0.578634
0.0435988 -0.0289224 0.578812
0.0441947 -0.028055 0.579477
0.0448165 -0.0271835 0.580417
0.0454726 -0.0263058 0.581719
0.046142 -0.025423 0.583141
0.0467945 -0.0245391 0.584354
0.0474178 -0.0236564 0.58523
0.0480174 -0.0227756 0.585838
0.0485819 -0.0218995 0.586067
0.0491468 -0.0210229 0.586295
0.0497061 -0.0201469 0.586463
0.0502699 -0.0192696 0.586673
0.0508218 -0.0183947 0.586759
0.0513736 -0.0175196 0.586843
0.051926 -0.0166442 0.586934
0.0524854 -0.0157667 0.587091
0.0530757 -0.0148805 0.587549
0.0536757 -0.0139903 0.588093
0.0542724 -0.0131 0.588597
0.0548805 -0.0122051 0.589203
0.0554877 -0.0113088 0.589787
0.0560719 -0.0104195 0.590152
0.0566635 -0.00952641 0.590575
0.0572548 -0.00863297 0.590993
0.0578406 -0.00774052 0.591352
0.0584263 -0.00684696 0.591702
0.0590048 -0.0059563 0.591988
0.0595705 -0.00506961 0.592152
0.060156 -0.00417468 0.592489
0.0607302 -0.00328361 0.592722
0.0613276 -0.00238249 0.593155
0.0619265 -0.00148014 0.593596
0.062562 -0.000560498 0.594345
0.063222 0.000371744 0.59529
0.0639168 0.00132164 0.596517
0.0646092 0.0022727 0.597707
0.0652927 0.00322199 0.598805
0.0659499 0.00416103 0.599669
0.0666284 0.00511175 0.600697
0.0673156 0.00606865 0.601783
0.0680055 0.00702947 0.602872
0.0686711 0.00797959 0.60375
0.0709285 0.00872054 0.610096
0.0693426 0.00893435 0.604667
0.0179938 -0.0681749 0.579184
0.0185253 -0.0672977 0.579008
0.0190933 -0.0664651 0.57961
0.0196563 -0.065624 0.580089
0.020214 -0.064775 0.580443
0.0207878 -0.0639413 0.58111
0.0213736 -0.0631166 0.581989
0.0219402 -0.0622697 0.582467
0.0225299 -0.0614418 0.58337
0.0231287 -0.0606179 0.584413
0.0237043 -0.0597704 0.584997
0.0242575 -0.0589028 0.585155
0.0247965 -0.0580241 0.585059
0.0253141 -0.0571307 0.584591
0.0258118 -0.0562256 0.583792
0.0262885 -0.0553106 0.582666
0.0267624 -0.0543983 0.581525
0.0272396 -0.0534924 0.580471
0.0277212 -0.0525932 0.579523
0.0282199 -0.0517064 0.578874
0.0287464 -0.0508356 0.578686
0.0292712 -0.0499648 0.578477
0.0298046 -0.0490986 0.578406
0.0303328 -0.0482307 0.578259
0.0308507 -0.0473596 0.577965
0.0313549 -0.0464847 0.577474
0.0318709 -0.0456155 0.577168
0.0323773 -0.0447445 0.576735
0.0329115 -0.0438827 0.576709
0.0334621 -0.0430253 0.576912
0.0340224 -0.0421694 0.577246
0.0345809 -0.0413122 0.577548
0.0351471 -0.0404554 0.577948
0.0357217 -0.0395989 0.578452
0.0362938 -0.0387406 0.57891
0.0368553 -0.0378796 0.579221
0.0374158 -0.0370177 0.579512
0.0379698 -0.0361545 0.579714
0.0385095 -0.0352899 0.579732
0.0390406 -0.0344249 0.579642
0.0395759 -0.0335604 0.579609
0.0401111 -0.0326961 0.579575
0.0406413 -0.0318319 0.579481
0.0411805 -0.030968 0.579498
0.0417356 -0.0301033 0.579702
0.0422892 -0.0292383 0.579884
0.0428585 -0.0283716 0.580247
0.0434643 -0.0275007 0.581021
0.0440941 -0.0266252 0.582051
0.0447194 -0.0257478 0.58301
0.0453535 -0.0248667 0.584049
0.0459688 -0.0239856 0.584863
0.0465554 -0.0231075 0.585347
0.0471178 -0.0222324 0.585563
0.0476816 -0.0213566 0.585787
0.0482469 -0.0204799 0.586026
0.0488066 -0.0196041 0.586202
0.0493703 -0.0187269 0.586416
0.0499168 -0.0178534 0.586449
0.0504738 -0.0169773 0.58659
0.0510259 -0.0161022 0.586681
0.0515906 -0.0152235 0.586895
0.0521803 -0.0143369 0.587354
0.0527794 -0.0134466 0.587899
0.0533678 -0.0125585 0.588331
0.0539797 -0.0116619 0.588984
0.0545864 -0.0107654 0.589574
0.0551712 -0.00987524 0.589948
0.0557676 -0.00898053 0.590426
0.0563637 -0.00808446 0.590892
0.0569479 -0.00719238 0.591242
0.0575335 -0.00629893 0.5916
0.0581137 -0.00540671 0.591901
0.0586798 -0.00451966 0.59207
0.0592649 -0.00362448 0.592408
0.0598455 -0.00273062 0.592702
0.0604497 -0.00182634 0.593202
0.061063 -0.000916533 0.593773
0.0617131 1.11967e-05 0.594655
0.0623734 0.000945198 0.595613
0.0630599 0.00189342 0.596781
0.0637406 0.0028411 0.597883
0.0644134 0.00378686 0.598903
0.065061 0.00472225 0.599697
0.0657396 0.00567494 0.600736
0.0664343 0.0066376 0.601895
0.0671249 0.00760053 0.603002
0.0677903 0.00855206 0.603889
0.0684538 0.00950409 0.604749
0.0706874 0.0102483 0.610914
0.0690362 0.0104136 0.604947
0.0174652 -0.0690571 0.579433
0.0161173 -0.0694689 0.580848
0.0166406 -0.0685744 0.580431
0.0171702 -0.0676905 0.580173
0.0177001 -0.0668085 0.579935
0.0182602 -0.0659646 0.580367
0.0188234 -0.0651221 0.580848
0.0193819 -0.0642724 0.581215
0.0199599 -0.0634416 0.581972
0.020541 -0.0626105 0.582764
0.0211101 -0.0617644 0.58329
0.0216951 -0.0609307 0.584112
0.022286 -0.0600986 0.585018
0.0228514 -0.0592415 0.585414
0.0234043 -0.0583728 0.585564
0.0239375 -0.0574888 0.58535
0.0244499 -0.0565908 0.584771
0.0249457 -0.0556842 0.583918
0.0254177 -0.0547657 0.582675
0.0258862 -0.0538501 0.581412
0.0263571 -0.0529409 0.580229
0.0268358 -0.0520406 0.579212
0.0273314 -0.0511529 0.578503
0.0278581 -0.050283 0.578317
0.0283834 -0.0494132 0.578115
0.028924 -0.0485506 0.57816
0.0294574 -0.0476852 0.578094
0.029988 -0.0468192 0.577987
0.0305057 -0.0459491 0.577689
0.0310347 -0.0450838 0.577568
0.0315502 -0.044215 0.577253
0.0320923 -0.0433544 0.577332
0.0326349 -0.0424939 0.577418
0.0331861 -0.041635 0.577622
0.0337348 -0.040775 0.577787
0.0342912 -0.039916 0.578057
0.0348567 -0.0390575 0.578444
0.0354278 -0.0381988 0.578897
0.0359931 -0.037338 0.579264
0.0365578 -0.0364762 0.579613
0.0371167 -0.035613 0.579882
0.0376613 -0.0347484 0.579961
0.0381976 -0.0338833 0.579933
0.0387337 -0.0330184 0.579904
0.0392742 -0.0321537 0.579931
0.03981 -0.0312891 0.5799
0.0403603 -0.030424 0.580045
0.0409271 -0.0295578 0.580388
0.0414964 -0.0286905 0.580753
0.0420764 -0.0278214 0.581238
0.0426891 -0.0269477 0.582093
0.0433015 -0.0260718 0.582928
0.0439085 -0.0251946 0.583686
0.0445149 -0.0243156 0.584423
0.0451036 -0.0234376 0.584946
0.0456695 -0.0225623 0.585207
0.0462308 -0.0216874 0.585414
0.0467935 -0.0208118 0.585633
0.0473575 -0.0199354 0.585862
0.0479214 -0.0190585 0.586085
0.0484798 -0.0181825 0.586249
0.0490207 -0.0173106 0.586225
0.0495776 -0.0164346 0.586369
0.0501351 -0.0155582 0.586516
0.0507012 -0.014679 0.586749
0.0512855 -0.0137936 0.587162
0.0518829 -0.0129034 0.587698
0.0524703 -0.0120152 0.588127
0.0530817 -0.0111179 0.588784
0.0536885 -0.010221 0.589386
0.0542791 -0.00932845 0.589821
0.0548742 -0.00843364 0.590295
0.0554627 -0.00754027 0.590696
0.0560459 -0.00664823 0.591043
0.0566315 -0.00575416 0.591404
0.0572177 -0.00485973 0.591769
0.0577902 -0.00396993 0.592
0.0583742 -0.00307464 0.592331
0.0589598 -0.00217835 0.592674
0.059562 -0.00127406 0.593163
0.060175 -0.00036336 0.593736
0.0608292 0.000567381 0.594667
0.0614872 0.00150151 0.595617
0.062156 0.00244307 0.596645
0.0628194 0.0033836 0.597614
0.0634754 0.00432259 0.598503
0.0641086 0.00525145 0.599186
0.0647871 0.00620522 0.600241
0.0654894 0.00717324 0.601481
0.0661864 0.00814111 0.602656
0.0668648 0.00910053 0.603664
0.0675343 0.0100573 0.604583
0.0681247 0.0109716 0.604848
0.0153203 -0.069033 0.582633
0.015832 -0.0681168 0.581883
0.0163533 -0.0672175 0.581391
0.0168838 -0.0663328 0.581131
0.0174403 -0.0654817 0.581472
0.0180055 -0.0646392 0.581989
0.0185633 -0.063786 0.582329
0.0191407 -0.0629524 0.583073
0.0197168 -0.062114 0.583763
0.0202857 -0.0612656 0.584282
0.0208613 -0.0604213 0.584919
0.0214385 -0.0595757 0.585567
0.0219915 -0.0587069 0.58572
0.0225375 -0.0578321 0.585736
0.0230644 -0.0569429 0.585397
0.0235713 -0.0560409 0.584698
0.0240646 -0.0551325 0.583775
0.0245347 -0.054213 0.582469
0.0250013 -0.0532967 0.581145
0.0254672 -0.0523852 0.579849
0.0259465 -0.051486 0.57882
0.0264421 -0.0505992 0.578098
0.0269622 -0.0497269 0.577805
0.0274806 -0.0488549 0.577492
0.028024 -0.0479947 0.577593
0.0285604 -0.0471314 0.577578
0.0290999 -0.0462695 0.577614
0.0296342 -0.0454059 0.577572
0.0301757 -0.0445446 0.577639
0.0306994 -0.0436782 0.577437
0.0312416 -0.0428173 0.577517
0.0317833 -0.0419561 0.577586
0.0323306 -0.041096 0.577736
0.0328784 -0.0402356 0.577891
0.0334304 -0.0393755 0.578102
0.0339907 -0.038516 0.578422
0.034557 -0.0376563 0.578819
0.0351215 -0.0367954 0.579182
0.035686 -0.0359333 0.579535
0.0362491 -0.0350703 0.579864
0.0367985 -0.0342059 0.580008
0.0373394 -0.0333409 0.580036
0.0378802 -0.0324759 0.580065
0.0384256 -0.0316109 0.580153
0.0389626 -0.0307459 0.580133
0.039518 -0.0298802 0.580342
0.0400894 -0.0290129 0.580743
0.040664 -0.0281443 0.581173
0.0412388 -0.0272747 0.5816
0.0418457 -0.0264003 0.582397
0.0424506 -0.0255241 0.583155
0.0430448 -0.0246476 0.583772
0.0436409 -0.0237693 0.5844
0.0442289 -0.0228909 0.584925
0.0447952 -0.0220153 0.585194
0.0453562 -0.0211402 0.585401
0.0459187 -0.0202644 0.58562
0.0464818 -0.0193879 0.585843
0.0470393 -0.0185124 0.586
0.0475954 -0.0176369 0.586141
0.0481301 -0.016767 0.586051
0.0486866 -0.0158911 0.586194
0.0492455 -0.0150143 0.58636
0.0498175 -0.0141331 0.586659
0.0504018 -0.0132474 0.587078
0.051004 -0.0123549 0.587671
0.0515969 -0.0114643 0.588161
0.0522084 -0.0105662 0.588828
0.0528156 -0.00966825 0.589441
0.0534056 -0.00877535 0.589876
0.0539999 -0.00787988 0.590345
0.0545759 -0.00699088 0.590631
0.0551591 -0.00609819 0.590982
0.0557438 -0.00520427 0.591341
0.0563289 -0.00430978 0.5917
0.0569011 -0.00341985 0.591932
0.0574901 -0.00252211 0.592314
0.0580751 -0.00162542 0.592655
0.0586697 -0.000723814 0.593079
0.0592741 0.000183364 0.593584
0.0599112 0.00110692 0.594377
0.0605384 0.00202737 0.595066
0.0611817 0.00295733 0.595887
0.061834 0.00389303 0.596776
0.0624813 0.00482818 0.597606
0.0631156 0.00575796 0.598313
0.0638065 0.00671916 0.599492
0.0645135 0.00769102 0.600792
0.0652066 0.00865772 0.601955
0.0658904 0.00962136 0.603024
0.0665654 0.0105823 0.604004
0.0671639 0.011501 0.604342
0.0144945 -0.0685582 0.583817
0.0150132 -0.0676478 0.583186
0.0155393 -0.066751 0.582763
0.0160708 -0.0658637 0.582488
0.0166204 -0.0650008 0.582649
0.0171787 -0.0641475 0.583003
0.0177349 -0.0632903 0.583296
0.0183063 -0.0624482 0.583911
0.0188767 -0.0616023 0.584484
0.0194474 -0.0607543 0.585043
0.0200195 -0.0599051 0.585608
0.0205849 -0.0590476 0.586021
0.0211314 -0.0581725 0.586041
0.0216673 -0.0572888 0.585853
0.0221848 -0.0563921 0.58532
0.0226826 -0.0554835 0.584428
0.0231728 -0.0545735 0.583429
0.023641 -0.0536534 0.582057
0.0241094 -0.052739 0.580734
0.0245738 -0.0518276 0.579385
0.0250568 -0.0509314 0.578403
0.025553 -0.0500458 0.57768
0.0260666 -0.0491711 0.577273
0.0265774 -0.0482968 0.576833
0.0271154 -0.0474355 0.576854
0.0276505 -0.0465731 0.576831
0.0281973 -0.0457151 0.576995
0.0287442 -0.0448566 0.577155
0.0292983 -0.0439998 0.577425
0.0298336 -0.043137 0.5774
0.0303793 -0.042277 0.577533
0.0309141 -0.0414143 0.577501
0.0314608 -0.040554 0.577646
0.0320083 -0.0396936 0.577799
0.0325608 -0.0388336 0.578023
0.033117 -0.0379735 0.578292
0.0336822 -0.0371136 0.578682
0.0342451 -0.0362524 0.579031
0.0348095 -0.0353903 0.579392
0.0353729 -0.0345273 0.579732
0.035927 -0.033663 0.57994
0.036472 -0.0327981 0.580024
0.0370127 -0.0319332 0.580052
0.0375583 -0.031068 0.580142
0.0380998 -0.030203 0.58018
0.0386554 -0.029337 0.580394
0.0392342 -0.0284686 0.580891
0.0398177 -0.0275985 0.581438
0.0403979 -0.0267275 0.581934
0.0410014 -0.0258522 0.5827
0.0416056 -0.024975 0.583458
0.0421891 -0.0240991 0.583957
0.0427733 -0.0232219 0.584453
0.0433551 -0.022344 0.584914
0.0439213 -0.0214682 0.585186
0.0444828 -0.0205928 0.585401
0.0450461 -0.0197165 0.585632
0.0456048 -0.0188409 0.585808
0.0461559 -0.0179669 0.585898
0.0467044 -0.0170934 0.585959
0.0472322 -0.0162257 0.585796
0.047788 -0.0153502 0.585935
0.0483525 -0.0144717 0.586163
0.0489249 -0.0135903 0.586472
0.0495138 -0.0127027 0.586945
0.0501201 -0.0118082 0.587591
0.0507182 -0.0109152 0.588141
0.0513307 -0.0100157 0.588826
0.0519436 -0.00911487 0.589507
0.0525324 -0.00822177 0.589935
0.0531313 -0.00732369 0.590455
0.0537069 -0.00643434 0.590739
0.0542897 -0.00554136 0.59109
0.0548739 -0.00464705 0.591447
0.0554588 -0.00375164 0.591805
0.0560239 -0.0028648 0.591974
0.056607 -0.00196897 0.592306
0.0571918 -0.00107211 0.592648
0.0577796 -0.000173258 0.593017
0.0583758 0.000730914 0.593453
0.0589968 0.0016475 0.59411
0.0596067 0.00256033 0.594653
0.0602263 0.00347887 0.595276
0.0608682 0.00441002 0.596089
0.0615065 0.00534091 0.596856
0.0621385 0.00626987 0.597558
0.0628269 0.00723102 0.598736
0.0635374 0.00820619 0.600088
0.0642276 0.00917259 0.601244
0.0649237 0.0101445 0.602435
0.0656123 0.0111141 0.603544
0.066236 0.0120476 0.6041
0.0131496 -0.0690048 0.585802
0.0136718 -0.0680912 0.585172
0.0141994 -0.0671893 0.584716
0.0147303 -0.0662946 0.584361
0.0152656 -0.0654079 0.584135
0.0158136 -0.0645387 0.584226
0.0163694 -0.0636787 0.584497
0.0169232 -0.0628152 0.584713
0.0174895 -0.0619645 0.585204
0.0180527 -0.0611084 0.585608
0.0186205 -0.060255 0.586096
0.0191841 -0.0593956 0.586478
0.0197351 -0.0585234 0.586584
0.0202699 -0.0576371 0.586353
0.0207909 -0.0567405 0.585851
0.0212934 -0.0558322 0.585002
0.0217787 -0.054915 0.583848
0.0222633 -0.0540023 0.582721
0.0227321 -0.053084 0.581338
0.0232055 -0.0521741 0.580085
0.0236784 -0.0512688 0.578862
0.0241697 -0.0503782 0.578011
0.02467 -0.0494955 0.577346
0.0251802 -0.04862 0.576877
0.0256805 -0.0477419 0.576252
0.0262056 -0.0468763 0.576063
0.0267349 -0.0460131 0.575952
0.0272847 -0.0451575 0.576181
0.0278368 -0.044302 0.576441
0.0284022 -0.0434496 0.576906
0.0289488 -0.0425908 0.577062
0.0294974 -0.041732 0.577248
0.0300321 -0.0408697 0.577218
0.0305828 -0.0400106 0.577429
0.0311353 -0.0391513 0.577662
0.0316917 -0.0382918 0.577946
0.0322476 -0.0374316 0.578217
0.0328078 -0.036571 0.578544
0.0333694 -0.0357097 0.578883
0.0339292 -0.0348473 0.579189
0.0344923 -0.0339842 0.579534
0.0350508 -0.0331202 0.579807
0.0355959 -0.0322554 0.579896
0.0361366 -0.0313906 0.579925
0.036686 -0.0305255 0.580067
0.0372274 -0.0296604 0.580104
0.0377778 -0.0287947 0.580255
0.0383514 -0.0279265 0.580698
0.0389333 -0.0270563 0.581235
0.0395185 -0.0261844 0.581803
0.0401185 -0.025309 0.582541
0.0407228 -0.0244311 0.583314
0.0413143 -0.0235535 0.583918
0.041896 -0.0226762 0.584395
0.0424722 -0.021799 0.584795
0.0430423 -0.0209222 0.585119
0.0436138 -0.0200443 0.585452
0.0441833 -0.0191662 0.585757
0.0447374 -0.0182914 0.585883
0.0452831 -0.0174186 0.585912
0.0458256 -0.0165469 0.585906
0.0463468 -0.0156815 0.585667
0.0468974 -0.0148075 0.585754
0.0474666 -0.0139275 0.586037
0.0480494 -0.0130423 0.586461
0.0486434 -0.0121523 0.586996
0.0492547 -0.011255 0.587701
0.0498588 -0.0103589 0.588321
0.0504702 -0.00945889 0.589005
0.0510826 -0.00855691 0.589687
0.0516761 -0.00766126 0.590166
0.0522747 -0.00676223 0.590687
0.0528503 -0.00587219 0.590974
0.0534336 -0.00497812 0.59133
0.0540104 -0.00408653 0.59162
0.0545884 -0.00319345 0.591913
0.0551528 -0.00230672 0.592076
0.0557366 -0.00141008 0.592419
0.056322 -0.000512389 0.592772
0.0569107 0.00038806 0.593148
0.0575047 0.00129164 0.59357
0.0581113 0.00220221 0.5941
0.0587061 0.00310798 0.594514
0.0593095 0.00401882 0.595
0.0599416 0.00494583 0.595737
0.0605708 0.00587259 0.596437
0.0612015 0.00680171 0.597136
0.0618805 0.00775873 0.598253
0.0625875 0.00873424 0.599589
0.0632682 0.00969652 0.600684
0.0639553 0.0106648 0.601815
0.0646514 0.0116399 0.603008
0.0652978 0.0125877 0.603764
0.0128308 -0.0675991 0.586136
0.0133638 -0.0667019 0.585778
0.0139005 -0.0658122 0.585539
0.0144388 -0.0649263 0.585353
0.0149855 -0.0640522 0.585385
0.0155445 -0.0631934 0.585718
0.016102 -0.0623313 0.586002
0.0166627 -0.0614715 0.58635
0.0172239 -0.0606107 0.586696
0.0177887 -0.0597519 0.587109
0.0183409 -0.0588795 0.58723
0.0188785 -0.0579934 0.587035
0.0194043 -0.0570983 0.586597
0.0199136 -0.0561915 0.585831
0.0204045 -0.0552741 0.584719
0.0208814 -0.0543513 0.583369
0.0213635 -0.0534377 0.582168
0.0218344 -0.0525217 0.580793
0.0223135 -0.0516164 0.579623
0.0227951 -0.050717 0.578538
0.0232945 -0.0498315 0.577818
0.0237995 -0.0489515 0.577223
0.0243075 -0.0480753 0.576702
0.0248042 -0.0471962 0.576001
0.0253176 -0.0463263 0.57561
0.0258385 -0.0454609 0.575359
0.0263833 -0.0446046 0.575518
0.0269392 -0.0437512 0.575854
0.0275123 -0.0429018 0.576464
0.0280694 -0.0420463 0.576799
0.0286213 -0.0411886 0.577044
0.0291595 -0.0403273 0.577069
0.0297137 -0.039469 0.57734
0.0302663 -0.0386097 0.577579
0.0308231 -0.0377503 0.577877
0.0313789 -0.0368898 0.578152
0.031934 -0.0360287 0.578411
0.0324944 -0.0351672 0.57874
0.033049 -0.0343046 0.578979
0.0336081 -0.0334414 0.579276
0.0341659 -0.0325775 0.579549
0.0347107 -0.031713 0.579638
0.0352512 -0.0308486 0.579667
0.0358045 -0.0299834 0.579866
0.0363503 -0.0291183 0.579963
0.0369005 -0.0282527 0.580115
0.0374734 -0.0273844 0.580559
0.0380538 -0.026514 0.581088
0.0386389 -0.0256417 0.581665
0.0392379 -0.0247657 0.582404
0.0398368 -0.0238881 0.583125
0.0404264 -0.0230103 0.583719
0.0410022 -0.022134 0.584133
0.0415775 -0.0212568 0.584533
0.0421478 -0.0203799 0.584866
0.0427289 -0.0194996 0.585319
0.0433025 -0.0186202 0.585679
0.0438618 -0.0177439 0.585865
0.0444074 -0.0168712 0.585893
0.0449494 -0.0159996 0.585881
0.0454765 -0.0151328 0.585704
0.0460271 -0.0142587 0.58579
0.046602 -0.0133763 0.58614
0.0471904 -0.0124885 0.586629
0.0477901 -0.0115955 0.587231
0.0484019 -0.0106968 0.587951
0.0490165 -0.00979554 0.588686
0.0496278 -0.00889396 0.589373
0.0502395 -0.00799074 0.590053
0.0508269 -0.00709655 0.590473
0.051419 -0.00619938 0.590934
0.0519832 -0.00531374 0.591108
0.0525599 -0.0044223 0.591404
0.0531309 -0.0035324 0.591636
0.0537065 -0.00264055 0.591915
0.0542766 -0.0017504 0.592132
0.0548663 -0.000850692 0.592536
0.0554526 4.846e-05 0.5929
0.0560409 0.000949197 0.593277
0.0566399 0.00185594 0.59375
0.0572396 0.00276404 0.59422
0.0578279 0.0036669 0.59458
0.0584245 0.00457512 0.595007
0.0590475 0.00549817 0.595671
0.0596607 0.00641711 0.596235
0.0602829 0.00734246 0.596869
0.0609535 0.00829631 0.597926
0.0616513 0.00926832 0.599203
0.0623295 0.0102309 0.60029
0.0630206 0.011203 0.601473
0.0637234 0.0121842 0.602739
0.0643789 0.0131386 0.603582
0.0119716 -0.0670801 0.586657
0.0125046 -0.066181 0.586271
0.0130411 -0.0652894 0.586005
0.0135799 -0.0644024 0.58581
0.0141339 -0.0635368 0.58602
0.0147017 -0.0626877 0.586574
0.0152644 -0.0618298 0.586976
0.0158264 -0.0609693 0.587346
0.0163876 -0.0601063 0.587681
0.0169416 -0.0592346 0.587838
0.0174802 -0.0583473 0.587637
0.0180063 -0.0574496 0.587169
0.0185235 -0.0565465 0.586525
0.0190196 -0.055629 0.585455
0.0195049 -0.0547077 0.584197
0.0199799 -0.0537843 0.582773
0.0204632 -0.0528726 0.581571
0.0209369 -0.0519596 0.580224
0.0214269 -0.0510619 0.579242
0.0219197 -0.0501698 0.57835
0.02243 -0.0492905 0.577819
0.0229431 -0.0484147 0.577359
0.0234553 -0.0475402 0.576896
0.0239502 -0.0466601 0.576139
0.0244539 -0.0457864 0.575564
0.0249705 -0.0449195 0.575231
0.025511 -0.0440618 0.575321
0.0260631 -0.0432075 0.575604
0.026639 -0.042359 0.576277
0.0271992 -0.0415044 0.576673
0.0277509 -0.0406467 0.576921
0.0282926 -0.0397863 0.577003
0.0288503 -0.0389285 0.577334
0.029403 -0.038069 0.577582
0.0299626 -0.0372097 0.577927
0.0305176 -0.0363491 0.578196
0.0310646 -0.0354869 0.578339
0.0316204 -0.034625 0.578607
0.0321736 -0.0337624 0.578832
0.0327279 -0.0328991 0.579067
0.0332806 -0.0320352 0.579275
0.033829 -0.031171 0.579419
0.0343734 -0.0303067 0.579503
0.0349268 -0.0294415 0.579711
0.035482 -0.0285758 0.579937
0.0360371 -0.0277095 0.580156
0.0366096 -0.0268408 0.580602
0.0371842 -0.0259705 0.581063
0.0377621 -0.0250987 0.581561
0.0383498 -0.024224 0.582169
0.0389377 -0.0233478 0.582767
0.0395162 -0.0224721 0.583236
0.0400908 -0.0215962 0.583647
0.040671 -0.020718 0.584118
0.041247 -0.0198397 0.58453
0.0418334 -0.0189579 0.585057
0.042411 -0.0180773 0.585469
0.0429738 -0.0172 0.585703
0.0435193 -0.0163275 0.585732
0.044062 -0.0154559 0.585729
0.0446005 -0.0145858 0.585678
0.0451621 -0.0137079 0.585889
0.0457434 -0.0128226 0.586314
0.0463429 -0.0119299 0.58693
0.0469593 -0.0110295 0.587719
0.0475779 -0.0101266 0.588516
0.0481927 -0.00922361 0.58926
0.0488034 -0.00832067 0.589945
0.0494076 -0.00741917 0.590552
0.0499833 -0.00652887 0.590852
0.0505695 -0.0056333 0.591255
0.0511334 -0.00474729 0.591425
0.0517032 -0.00385811 0.591652
0.0522673 -0.00297121 0.591816
0.0528361 -0.00208173 0.592028
0.053406 -0.0011914 0.592245
0.053996 -0.000290429 0.592654
0.0545831 0.000609384 0.593031
0.0551702 0.00151029 0.5934
0.0557684 0.00241768 0.593869
0.056355 0.00331942 0.594222
0.0569379 0.00422006 0.594533
0.0575266 0.0051241 0.594897
0.0581482 0.0060475 0.595555
0.0587595 0.00696624 0.59611
0.0593873 0.00789573 0.596805
0.0600506 0.00884717 0.597807
0.0607394 0.00981566 0.599022
0.0614135 0.0107775 0.600088
0.0620948 0.0117452 0.601201
0.0628161 0.0127401 0.602645
0.0635722 0.0137594 0.604366
0.0116283 -0.0656345 0.586314
0.0121692 -0.0647489 0.586156
0.0127227 -0.0638822 0.586354
0.0132884 -0.0630311 0.586873
0.0138658 -0.0621924 0.587675
0.0144349 -0.0613399 0.58823
0.0150004 -0.0604806 0.588672
0.0155551 -0.0596074 0.588829
0.0161034 -0.0587271 0.58883
0.0166318 -0.0578275 0.58836
0.0171477 -0.0569185 0.587625
0.0176526 -0.0560033 0.586671
0.018139 -0.0550771 0.58535
0.0186151 -0.0541487 0.583854
0.0190888 -0.0532248 0.582367
0.019574 -0.052315 0.581174
0.0200531 -0.0514063 0.579903
0.0205508 -0.0505139 0.579053
0.021054 -0.0496281 0.578341
0.0215685 -0.0487511 0.577877
0.0220831 -0.047876 0.577431
0.0225967 -0.0470022 0.576982
0.0230959 -0.046124 0.576283
0.023595 -0.0452484 0.575604
0.0241119 -0.0443815 0.575267
0.0246548 -0.0435246 0.575399
0.0252057 -0.0426697 0.575666
0.0257804 -0.0418203 0.576334
0.0263437 -0.0409662 0.57679
0.0268989 -0.0401089 0.577099
0.0274375 -0.0392476 0.57713
0.0279947 -0.0383893 0.577458
0.0285434 -0.0375289 0.577642
0.029102 -0.0366691 0.57798
0.0296528 -0.0358078 0.578188
0.0301958 -0.0349453 0.578271
0.0307469 -0.0340831 0.578476
0.0312954 -0.0332202 0.578637
0.0318484 -0.0323571 0.578861
0.0323966 -0.0314934 0.579009
0.0329481 -0.0306293 0.579201
0.0334964 -0.029765 0.579347
0.0340548 -0.0288995 0.579627
0.0346152 -0.0280332 0.579929
0.0351794 -0.0271656 0.580278
0.0357516 -0.0262962 0.580726
0.0363207 -0.0254262 0.581121
0.0368913 -0.024555 0.581528
0.0374632 -0.0236825 0.581944
0.0380346 -0.0228093 0.582343
0.0386108 -0.021934 0.582796
0.0391889 -0.0210573 0.583263
0.0397742 -0.0201777 0.58381
0.0403562 -0.0192978 0.584304
0.0409474 -0.0184142 0.5849
0.0415194 -0.0175349 0.585255
0.0420762 -0.0166594 0.585422
0.0426263 -0.0157857 0.585508
0.0431754 -0.0149123 0.585581
0.0437258 -0.0140383 0.585667
0.044304 -0.0131543 0.586069
0.044902 -0.0122622 0.586686
0.0455077 -0.0113658 0.587377
0.0461357 -0.0104593 0.588301
0.0467592 -0.00955253 0.58916
0.0473692 -0.00864983 0.589855
0.0479733 -0.007748 0.590473
0.0485709 -0.00684821 0.591015
0.0491398 -0.00596005 0.591244
0.0497133 -0.00506903 0.591514
0.0502752 -0.0041835 0.591664
0.0508386 -0.00329699 0.591827
0.0513963 -0.00241275 0.591927
0.0519589 -0.00152607 0.592076
0.0525344 -0.000632385 0.592351
0.0531186 0.00026589 0.592709
0.053706 0.00116696 0.593091
0.0542921 0.00206783 0.593456
0.0548892 0.00297538 0.593918
0.0554683 0.00387359 0.594205
0.0560567 0.00477776 0.594571
0.0566453 0.00568254 0.594938
0.0572664 0.00660689 0.5956
0.0578771 0.00752608 0.596155
0.0585044 0.00845646 0.596854
0.0591533 0.0094009 0.597738
0.0598326 0.0103657 0.598882
0.0605033 0.0113269 0.599933
0.0611815 0.0122946 0.601033
0.061944 0.0133184 0.602858
0.0627857 0.0143962 0.605347
0.0130393 -0.0617118 0.589124
0.0136087 -0.0608563 0.589672
0.0141703 -0.0599892 0.589994
0.0147181 -0.0591053 0.58995
0.0152601 -0.0582156 0.589766
0.0157818 -0.0573069 0.589097
0.0162886 -0.0563873 0.588101
0.0167844 -0.0554626 0.586893
0.0172621 -0.0545284 0.585322
0.0177349 -0.053597 0.583704
0.0182077 -0.0526725 0.582153
0.0186951 -0.0517645 0.580973
0.0191816 -0.0508609 0.579824
0.0196839 -0.0499716 0.579045
0.0201936 -0.0490895 0.578444
0.0207119 -0.0482143 0.578038
0.0212302 -0.0473408 0.577648
0.0217449 -0.0464671 0.577203
0.0222514 -0.0455918 0.576617
0.0227551 -0.0447176 0.576002
0.0232738 -0.0438508 0.575681
0.0238142 -0.0429923 0.575764
0.0243648 -0.0421365 0.576027
0.0249353 -0.0412851 0.576631
0.0254914 -0.0404285 0.576967
0.0260464 -0.0395708 0.577277
0.0265851 -0.0387092 0.577306
0.0271388 -0.0378499 0.577583
0.0276832 -0.0369885 0.577699
0.028241 -0.0361284 0.578028
0.0287877 -0.0352665 0.578175
0.0293306 -0.034404 0.578259
0.029881 -0.0335416 0.578457
0.0304292 -0.0326787 0.578616
0.0309815 -0.0318153 0.578834
0.0315301 -0.0309516 0.578992
0.0320815 -0.0300873 0.579186
0.0326302 -0.0292228 0.579338
0.0331888 -0.028357 0.579627
0.033753 -0.0274899 0.579987
0.0343223 -0.0266214 0.580411
0.0348905 -0.0257519 0.580811
0.0354547 -0.0248821 0.581147
0.0360188 -0.0240116 0.581474
0.0365751 -0.0231419 0.581692
0.0371313 -0.0222717 0.581904
0.0377013 -0.0213979 0.582289
0.0382736 -0.0205227 0.582695
0.0388535 -0.0196445 0.583189
0.0394442 -0.0187623 0.583807
0.0400395 -0.0178774 0.584469
0.0406155 -0.0169968 0.584882
0.041181 -0.0161189 0.585159
0.0417452 -0.0152407 0.585417
0.0423007 -0.014365 0.585568
0.0428628 -0.0134867 0.585793
0.0434523 -0.0125978 0.586329
0.0440557 -0.0117024 0.587015
0.0446669 -0.0108026 0.587775
0.0452997 -0.00989221 0.588764
0.0459288 -0.00898151 0.589693
0.0465383 -0.00807735 0.590388
0.0471407 -0.00717512 0.590994
0.047731 -0.00627697 0.591458
0.0482933 -0.00539101 0.591612
0.0488549 -0.00450527 0.59176
0.049411 -0.003622 0.591847
0.0499675 -0.00273836 0.591937
0.050519 -0.00185698 0.591973
0.0510755 -0.000973343 0.592063
0.0516565 -7.61868e-05 0.592395
0.0522407 0.000822724 0.592758
0.0528277 0.00172403 0.593141
0.0534132 0.00262527 0.593505
0.0540086 0.00353264 0.593957
0.0545746 0.00442401 0.594118
0.0551605 0.00532709 0.594468
0.0557483 0.00623166 0.594833
0.05637 0.00715756 0.595508
0.0569815 0.00807816 0.596078
0.0576204 0.0090166 0.596895
0.0582613 0.0099577 0.597716
0.0589374 0.0109225 0.598847
0.0596056 0.0118841 0.599886
0.060296 0.0128616 0.601112
0.0610895 0.0139089 0.603234
0.061997 0.0150351 0.606332
0.0122266 -0.0612524 0.591081
0.0127867 -0.0603807 0.591344
0.0133373 -0.0594964 0.591338
0.0138744 -0.058597 0.590976
0.0144062 -0.057694 0.590499
0.0149245 -0.0567797 0.5897
0.0154257 -0.0558531 0.588519
0.0159176 -0.0549234 0.587164
0.0163897 -0.0539832 0.585399
0.0168613 -0.0530504 0.583698
0.0173335 -0.0521252 0.58208
0.0178224 -0.0512183 0.5809
0.0183136 -0.0503179 0.579814
0.01882 -0.0494309 0.579098
0.0193308 -0.0485494 0.578501
0.0198521 -0.0476758 0.578144
0.0203735 -0.0468037 0.577803
0.0208915 -0.0459313 0.577406
0.0214079 -0.0450598 0.576994
0.0219196 -0.0441881 0.576506
0.0224434 -0.0433224 0.576262
0.0229817 -0.0424622 0.576298
0.0235291 -0.0416045 0.576501
0.0240925 -0.0407502 0.576983
0.0246449 -0.039892 0.577258
0.0251967 -0.0390329 0.577513
0.0257351 -0.0381709 0.577534
0.0262849 -0.0373104 0.577747
0.0268254 -0.0364484 0.577798
0.0273792 -0.0355875 0.578069
0.0279223 -0.0347252 0.578158
0.0284654 -0.0338626 0.578246
0.0290156 -0.0330001 0.578444
0.0295673 -0.032137 0.578662
0.0301202 -0.0312734 0.57889
0.0306691 -0.0304094 0.579053
0.031225 -0.0295446 0.579318
0.0317734 -0.0286798 0.579466
0.0323314 -0.0278136 0.57975
0.0328986 -0.0269456 0.580161
0.0334712 -0.0260759 0.580636
0.0340362 -0.0252062 0.580995
0.0346001 -0.0243359 0.58133
0.0351552 -0.0234665 0.581539
0.0357018 -0.0225986 0.58163
0.0362484 -0.0217304 0.581718
0.0368085 -0.0208588 0.581982
0.037371 -0.0199861 0.582271
0.0379451 -0.0191095 0.582704
0.0385377 -0.0182265 0.583363
0.0391317 -0.0173416 0.584024
0.0397122 -0.0164595 0.584504
0.0402869 -0.0155785 0.584903
0.0408656 -0.0146952 0.585344
0.0414274 -0.0138172 0.585572
0.0420053 -0.0129326 0.585987
0.04261 -0.0120369 0.586709
0.0432226 -0.0111364 0.587509
0.0438388 -0.0102328 0.588335
0.0444758 -0.00931865 0.58938
0.0450991 -0.00840844 0.590252
0.0457022 -0.00750553 0.590881
0.0462982 -0.00660488 0.591421
0.0468768 -0.00571118 0.591757
0.0474278 -0.00483023 0.591791
0.0479887 -0.00394452 0.59193
0.0485397 -0.00306346 0.591962
0.0490907 -0.00218249 0.591994
0.0496474 -0.00129816 0.592084
0.0502092 -0.00041152 0.592227
0.0507849 0.00048339 0.592508
0.0513743 0.0013859 0.592929
0.0519607 0.00228762 0.593311
0.05254 0.003186 0.593614
0.0531284 0.00409022 0.594002
0.0536932 0.00498115 0.594151
0.0542724 0.00588084 0.594439
0.0548597 0.00678577 0.594804
0.0554806 0.00771204 0.595483
0.0560922 0.00863391 0.596061
0.0567305 0.0095735 0.59688
0.0573693 0.0105145 0.597695
0.05805 0.0114842 0.598881
0.0587308 0.012456 0.60005
0.0594562 0.013459 0.601607
0.0602885 0.014537 0.604101
0.0114459 -0.060841 0.594156
0.011978 -0.0599255 0.593542
0.0125029 -0.0590043 0.592754
0.0130277 -0.058087 0.592004
0.0135499 -0.0571708 0.591225
0.0140677 -0.0562539 0.590367
0.0145661 -0.0553223 0.589052
0.0150529 -0.0543864 0.587511
0.0155221 -0.0534423 0.585602
0.015993 -0.052508 0.58382
0.0164648 -0.0515821 0.582137
0.0169578 -0.0506777 0.581006
0.0174535 -0.0497799 0.579985
0.017964 -0.0488951 0.57933
0.0184787 -0.0480154 0.578796
0.0190006 -0.0471415 0.578433
0.0195229 -0.0462692 0.578091
0.0200421 -0.045397 0.577701
0.0205628 -0.0445269 0.577358
0.0210792 -0.0436564 0.57694
0.0216071 -0.0427915 0.576763
0.0221458 -0.0419305 0.576798
0.0226926 -0.0410716 0.576984
0.0232489 -0.0402146 0.57734
0.0237949 -0.0393544 0.5775
0.0243427 -0.038494 0.577685
0.0248748 -0.0376307 0.577592
0.0254205 -0.0367695 0.577739
0.0259603 -0.0359074 0.577779
0.0265137 -0.0350462 0.578049
0.0270538 -0.0341837 0.578089
0.0276002 -0.0333213 0.578233
0.0281505 -0.0324586 0.578438
0.0287059 -0.0315953 0.578716
0.0292631 -0.0307312 0.579017
0.0298163 -0.0298666 0.579248
0.0303758 -0.029001 0.579569
0.0309278 -0.0281353 0.57977
0.0314849 -0.0272686 0.580042
0.0320552 -0.0263993 0.580501
0.0326312 -0.025528 0.581031
0.0332005 -0.0246567 0.581451
0.0337606 -0.0237862 0.581736
0.0343153 -0.0229162 0.581937
0.0348576 -0.0220486 0.581963
0.0354002 -0.0211811 0.581994
0.0359478 -0.0203122 0.582091
0.0365042 -0.0194406 0.582305
0.0370703 -0.0185657 0.58264
0.0376566 -0.0176839 0.58323
0.0382458 -0.0167998 0.583843
0.0388323 -0.0159154 0.584408
0.0394121 -0.0150321 0.584878
0.0399961 -0.0141463 0.585392
0.0405631 -0.013266 0.585687
0.0411465 -0.0123785 0.586174
0.0417606 -0.0114776 0.587018
0.0423777 -0.0105738 0.58788
0.0429976 -0.00966696 0.588758
0.0436334 -0.0087514 0.589803
0.0442608 -0.00783754 0.59073
0.0448584 -0.00693579 0.591302
0.0454537 -0.00603383 0.591835
0.0460263 -0.00514231 0.592108
0.0465826 -0.00425839 0.592195
0.0471393 -0.00337407 0.592286
0.0476908 -0.0024927 0.592322
0.0482422 -0.00161113 0.592355
0.0487988 -0.000726639 0.592442
0.0493559 0.000158211 0.592533
0.0499313 0.00105337 0.592814
0.0505267 0.00196045 0.593297
0.0511134 0.00286347 0.593682
0.0516983 0.00376611 0.59404
0.0522923 0.00467447 0.594489
0.0528521 0.00556297 0.594586
0.0534247 0.00645929 0.594812
0.0540114 0.00736486 0.595169
0.0546251 0.00828817 0.595784
0.0552298 0.00920674 0.596301
0.0558729 0.010151 0.597177
0.0565119 0.0110941 0.597998
0.0571998 0.012071 0.599265
0.0578938 0.013054 0.600571
0.0586365 0.0140726 0.602299
0.0595024 0.0151784 0.60513
0.0106479 -0.0604123 0.59697
0.0111589 -0.0594608 0.595614
0.0116686 -0.0585148 0.594294
0.0121823 -0.0575802 0.593155
0.0126988 -0.0566543 0.592156
0.0132138 -0.0557317 0.591163
0.0137078 -0.0547933 0.589663
0.0141907 -0.0538517 0.587942
0.01466 -0.0529063 0.585959
0.0151288 -0.0519691 0.584053
0.0156005 -0.0510421 0.5823
0.0160958 -0.0501389 0.581182
0.0165959 -0.0492436 0.580226
0.0171079 -0.0483592 0.579579
0.0176264 -0.0474812 0.579104
0.0181494 -0.0466073 0.578744
0.0186727 -0.045735 0.578409
0.0191932 -0.0448629 0.578029
0.0197178 -0.0439938 0.577748
0.0202387 -0.0431244 0.577402
0.0207675 -0.042259 0.577227
0.021303 -0.0413963 0.577191
0.0218489 -0.0405365 0.577359
0.022398 -0.0396769 0.57758
0.0229376 -0.0388149 0.577619
0.0234817 -0.0379536 0.577742
0.024014 -0.0370903 0.577646
0.024556 -0.0362285 0.577726
0.0250958 -0.0353664 0.577769
0.0256485 -0.034505 0.578033
0.0261886 -0.0336424 0.578074
0.0267383 -0.03278 0.578276
0.0272923 -0.031917 0.578544
0.0278481 -0.0310533 0.578835
0.0284089 -0.0301885 0.579195
0.0289656 -0.0293232 0.579483
0.0295213 -0.0284573 0.579749
0.0300732 -0.0275913 0.57995
0.0306338 -0.0267235 0.580279
0.0312083 -0.0258528 0.580803
0.0317888 -0.0249798 0.581407
0.0323658 -0.0241059 0.581944
0.0329299 -0.0232336 0.582282
0.0334885 -0.0223618 0.582536
0.0340313 -0.0214934 0.582561
0.0345744 -0.020625 0.582593
0.0351217 -0.0197553 0.58268
0.035669 -0.0188856 0.582767
0.0362249 -0.0180129 0.582965
0.036805 -0.0171319 0.58348
0.0373849 -0.0162499 0.583981
0.0379632 -0.0153675 0.584449
0.0385429 -0.0144836 0.584926
0.0391305 -0.0135956 0.585491
0.0397022 -0.0127129 0.585847
0.040291 -0.0118224 0.586408
0.0409098 -0.010918 0.58732
0.0415362 -0.0100085 0.588307
0.0421559 -0.0091 0.589192
0.0427861 -0.00818499 0.590183
0.0434124 -0.00726988 0.591109
0.0440088 -0.00636745 0.591671
0.0445988 -0.00546735 0.59215
0.0451718 -0.00457449 0.592425
0.0457284 -0.00369015 0.592516
0.0462855 -0.00280533 0.592609
0.0468377 -0.00192286 0.592646
0.04739 -0.00104045 0.592685
0.0479464 -0.000155725 0.592768
0.0485038 0.000729666 0.592862
0.0490797 0.0016259 0.593149
0.049681 0.00253758 0.593697
0.0502733 0.00344476 0.594141
0.0508707 0.00435596 0.594631
0.051466 0.0052663 0.595092
0.0520265 0.00615589 0.595194
0.0525935 0.00704978 0.595356
0.0531728 0.00795192 0.595641
0.0537726 0.00886753 0.596123
0.0543755 0.00978603 0.596627
0.0550183 0.010732 0.597507
0.0556635 0.0116809 0.598397
0.0563579 0.0126648 0.59974
0.0570607 0.0136569 0.601138
0.0578101 0.0146836 0.60295
0.0590522 0.016061 0.609296
0.00931364 -0.0609213 0.600801
0.00982574 -0.0599554 0.599263
0.0103221 -0.0589768 0.597321
0.0108186 -0.0580083 0.595488
0.0113234 -0.0570591 0.594003
0.0118307 -0.0561201 0.592672
0.0123402 -0.0551898 0.591469
0.0128321 -0.0542479 0.589841
0.0133153 -0.0533055 0.588059
0.0137894 -0.0523632 0.586124
0.0142636 -0.0514293 0.584278
0.0147409 -0.0505058 0.582597
0.0152408 -0.0496051 0.581546
0.0157476 -0.0487133 0.580707
0.0162589 -0.0478276 0.58001
0.0167783 -0.0469492 0.57953
0.0173024 -0.0460752 0.579176
0.0178293 -0.0452038 0.578899
0.0183538 -0.0443326 0.578583
0.0188821 -0.0434641 0.578362
0.0194064 -0.0425951 0.578064
0.0199333 -0.041728 0.57783
0.0204635 -0.0408626 0.577675
0.021003 -0.0400004 0.577711
0.0215457 -0.0391387 0.577807
0.022082 -0.0382757 0.577779
0.0226231 -0.0374135 0.577844
0.0231523 -0.0365497 0.577688
0.0236913 -0.0356875 0.577714
0.0242307 -0.0348253 0.577748
0.0247803 -0.0339636 0.577964
0.0253237 -0.0331013 0.578064
0.02588 -0.0322386 0.578382
0.0264375 -0.0313751 0.578713
0.0269968 -0.0305107 0.579065
0.0275572 -0.0296454 0.579423
0.0281133 -0.0287795 0.579706
0.0286651 -0.0279135 0.57991
0.0292207 -0.0270465 0.580171
0.0297896 -0.0261768 0.580631
0.0303732 -0.0253034 0.581302
0.0309587 -0.0244281 0.581984
0.031548 -0.0235503 0.582706
0.0321166 -0.0226757 0.583106
0.0326761 -0.0218024 0.583367
0.0332234 -0.0209317 0.583447
0.0337718 -0.0200607 0.583541
0.0343077 -0.0191933 0.58346
0.034842 -0.0183266 0.583359
0.0353839 -0.0174577 0.583364
0.0359497 -0.0165806 0.583691
0.0365166 -0.0157024 0.584025
0.0370967 -0.0148186 0.584525
0.0376795 -0.0139327 0.58505
0.0382657 -0.0130444 0.585606
0.0388415 -0.0121593 0.586019
0.0394392 -0.0112639 0.586697
0.0400537 -0.0103598 0.587569
0.0406801 -0.00944858 0.588568
0.0413038 -0.00853661 0.589514
0.0419329 -0.00762021 0.590505
0.0425539 -0.00670594 0.591379
0.0431548 -0.00580011 0.592001
0.0437452 -0.00489839 0.592485
0.044318 -0.00400552 0.592764
0.0448753 -0.00312006 0.592857
0.0454326 -0.00223452 0.592948
0.0459847 -0.00135196 0.592984
0.0465368 -0.000469236 0.593017
0.0470936 0.000415932 0.593104
0.0476513 0.00130203 0.593196
0.0482267 0.00219877 0.593476
0.0488336 0.0031152 0.594088
0.0494327 0.00402755 0.59461
0.0500435 0.00494813 0.595242
0.0506407 0.00586135 0.595723
0.0512079 0.00675597 0.595885
0.0517735 0.00764961 0.596033
0.0523507 0.00855151 0.596292
0.0529384 0.00946021 0.596656
0.0535468 0.0103838 0.597216
0.054195 0.0113356 0.598156
0.054847 0.0122915 0.599118
0.0555417 0.0132787 0.600475
0.05625 0.014278 0.601937
0.0569949 0.0153053 0.603725
0.0582036 0.0166713 0.609836
0.00795293 -0.0614202 0.604326
0.00846813 -0.0604426 0.602659
0.00898384 -0.0594752 0.601114
0.00947328 -0.0584797 0.598792
0.00996255 -0.0574963 0.596601
0.0104598 -0.0565337 0.59478
0.0109607 -0.0555844 0.593172
0.0114654 -0.0546471 0.591764
0.0119556 -0.0537019 0.590012
0.0124411 -0.0527604 0.588218
0.0129208 -0.0518218 0.586352
0.0133981 -0.0508896 0.584516
0.0138811 -0.0499695 0.58291
0.0143854 -0.0490711 0.581924
0.014894 -0.0481796 0.581091
0.0154063 -0.0472938 0.580385
0.0159265 -0.0464152 0.579898
0.0164489 -0.0455395 0.579483
0.0169764 -0.044668 0.579206
0.0175042 -0.0437977 0.578944
0.0180332 -0.0429289 0.578723
0.0185582 -0.0420596 0.578424
0.0190854 -0.0411921 0.578183
0.0196132 -0.0403256 0.577964
0.020147 -0.0394614 0.57788
0.0206866 -0.0385987 0.577913
0.0212227 -0.0377355 0.577876
0.0217613 -0.0368728 0.57789
0.0222936 -0.0360095 0.577788
0.0228328 -0.0351471 0.577816
0.0233724 -0.0342847 0.577852
0.0239186 -0.0334226 0.578008
0.024465 -0.0325601 0.578164
0.0250218 -0.031697 0.578496
0.0255797 -0.030833 0.578839
0.026139 -0.0299681 0.579197
0.0266981 -0.0291023 0.57954
0.0272499 -0.0282365 0.579754
0.0278011 -0.0273703 0.579953
0.0283641 -0.0265018 0.580338
0.0289448 -0.0256294 0.58099
0.0295373 -0.024753 0.581807
0.0301314 -0.0238745 0.58263
0.0307287 -0.0229931 0.583479
0.0313019 -0.0221159 0.583946
0.0318669 -0.0212398 0.584281
0.0324241 -0.0203653 0.584494
0.0329776 -0.0194914 0.58465
0.0335144 -0.0186225 0.584564
0.034049 -0.0177546 0.584452
0.0345871 -0.0168859 0.584391
0.0351395 -0.0160121 0.584527
0.0356958 -0.0151365 0.584714
0.0362657 -0.0142554 0.585079
0.0368381 -0.0133724 0.585468
0.0374149 -0.0124868 0.585907
0.0379952 -0.0115988 0.586381
0.0385975 -0.0107 0.587126
0.0392119 -0.00979418 0.588007
0.0398417 -0.00887928 0.589061
0.0404643 -0.00796594 0.590003
0.0410882 -0.00705011 0.590942
0.0417032 -0.00613704 0.591754
0.0423041 -0.00522986 0.592382
0.0428888 -0.00433034 0.592805
0.043462 -0.00343623 0.593087
0.0440191 -0.00255062 0.593178
0.0445813 -0.00166188 0.593322
0.0451394 -0.000775386 0.593418
0.0456973 0.000111174 0.593513
0.0462599 0.00100034 0.59366
0.0468228 0.00189023 0.593805
0.0473985 0.00278827 0.594087
0.048005 0.00370578 0.5947
0.0486052 0.00462031 0.595232
0.0492236 0.00554782 0.595945
0.0498279 0.00646701 0.5965
0.050401 0.00736624 0.596723
0.0509657 0.0082603 0.596853
0.0515435 0.0091633 0.597117
0.0521196 0.0100657 0.597357
0.0527226 0.0109873 0.597864
0.0533641 0.0119363 0.598748
0.0540222 0.012899 0.599775
0.05471 0.0138844 0.601077
0.0554276 0.0148935 0.602646
0.0561549 0.0159119 0.604283
0.0573328 0.0172676 0.610176
0.00706206 -0.0608774 0.604816
0.00757965 -0.0598998 0.603131
0.00810141 -0.0589381 0.601703
0.00859452 -0.0579436 0.599375
0.00908799 -0.0569619 0.5972
0.00958376 -0.0559944 0.59523
0.0100868 -0.0550452 0.593602
0.0105899 -0.054104 0.592065
0.0110827 -0.0531598 0.590308
0.0115712 -0.0522196 0.588516
0.0120559 -0.0512841 0.58671
0.0125367 -0.0503533 0.584884
0.0130249 -0.049436 0.58335
0.0135312 -0.0485381 0.582367
0.0140412 -0.0476465 0.581528
0.0145522 -0.046759 0.580749
0.0150732 -0.0458801 0.580256
0.0155936 -0.0450029 0.579771
0.0161217 -0.0441312 0.57949
0.0166501 -0.0432607 0.579227
0.01718 -0.0423918 0.579011
0.0177061 -0.0415224 0.578718
0.018231 -0.0406538 0.578415
0.0187564 -0.0397864 0.578133
0.0192874 -0.0389213 0.577981
0.0198242 -0.038058 0.577955
0.020358 -0.0371943 0.577869
0.0208967 -0.0363316 0.577888
0.0214298 -0.0354685 0.577795
0.0219687 -0.034606 0.577816
0.0225078 -0.0337436 0.577845
0.0230537 -0.0328813 0.577998
0.0236003 -0.0320187 0.578159
0.02416 -0.0311552 0.578553
0.0247184 -0.0302908 0.57891
0.025277 -0.0294256 0.579263
0.0258385 -0.028559 0.579654
0.0263929 -0.0276925 0.579916
0.0269444 -0.0268259 0.580121
0.0275147 -0.0259555 0.580629
0.0281029 -0.0250805 0.581414
0.0286995 -0.0242018 0.58231
0.0293009 -0.02332 0.583256
0.0299049 -0.0224351 0.584219
0.0304829 -0.0215552 0.584758
0.0310571 -0.0206751 0.585227
0.0316241 -0.0197961 0.585577
0.0321833 -0.018919 0.585804
0.0327254 -0.0180472 0.585779
0.0332651 -0.0171763 0.585719
0.0338034 -0.0163062 0.585644
0.034348 -0.0154339 0.585659
0.0348948 -0.0145607 0.585703
0.0354546 -0.0136821 0.585925
0.0360182 -0.0128015 0.586193
0.0365832 -0.0119198 0.586473
0.0371635 -0.0110305 0.58695
0.0377606 -0.0101324 0.587634
0.0383694 -0.00922745 0.588452
0.0389936 -0.00831323 0.589448
0.0396092 -0.00740154 0.590316
0.0402267 -0.00648725 0.591187
0.0408402 -0.00557342 0.591993
0.0414408 -0.00466522 0.592622
0.0420251 -0.00376468 0.593045
0.0426025 -0.00286784 0.59338
0.0431599 -0.00198141 0.593467
0.0437223 -0.00109222 0.593617
0.0442862 -0.000201885 0.593777
0.0448505 0.000688785 0.593943
0.0454146 0.00157973 0.594104
0.0459781 0.00247065 0.594253
0.0465584 0.00337218 0.594587
0.0471644 0.00429093 0.595196
0.0477703 0.00521091 0.595792
0.0483994 0.00614686 0.596629
0.0490095 0.00707153 0.597246
0.0495894 0.00797639 0.597536
0.0501609 0.008876 0.597731
0.0507408 0.00978191 0.598011
0.051312 0.010682 0.598197
0.0519147 0.0116047 0.5987
0.0525484 0.0125507 0.599507
0.0531999 0.0135105 0.600481
0.0538686 0.0144849 0.601606
0.0545654 0.0154821 0.602985
0.0552503 0.0164722 0.604227
0.0563706 0.0177954 0.609649
0.00617253 -0.0603386 0.60542
0.0066905 -0.0593573 0.603633
0.00721239 -0.0583924 0.602112
0.00770415 -0.057392 0.5996
0.00820404 -0.0564161 0.597532
0.00870526 -0.0554527 0.595638
0.00921542 -0.0545097 0.594156
0.00971584 -0.053563 0.592445
0.0102099 -0.0526181 0.590634
0.0106995 -0.0516772 0.588785
0.0111869 -0.0507428 0.586972
0.0116726 -0.0498151 0.585207
0.0121652 -0.0489002 0.583725
0.0126732 -0.0480023 0.582737
0.0131846 -0.0471109 0.581892
0.0136966 -0.0462233 0.581102
0.0142162 -0.045343 0.580548
0.0147352 -0.0444646 0.580001
0.0152614 -0.0435916 0.579658
0.0157902 -0.042721 0.579389
0.0163208 -0.0418522 0.579178
0.0168455 -0.0409822 0.578841
0.017371 -0.0401137 0.578537
0.0178965 -0.0392463 0.578246
0.0184249 -0.0383805 0.578029
0.018959 -0.0375166 0.577942
0.0194958 -0.0366535 0.577916
0.0200349 -0.0357908 0.57794
0.0205712 -0.0349279 0.577908
0.0211131 -0.0340654 0.577987
0.0216527 -0.0332027 0.57802
0.0221952 -0.0323401 0.578109
0.0227413 -0.0314772 0.578263
0.0232973 -0.0306134 0.578595
0.0238521 -0.0297489 0.578897
0.0244135 -0.028883 0.579306
0.0249781 -0.0280157 0.579761
0.0255363 -0.0271482 0.580091
0.026095 -0.0262798 0.580421
0.0266723 -0.0254071 0.581054
0.0272642 -0.0245299 0.581911
0.0278597 -0.0236498 0.582802
0.0284632 -0.0227656 0.583797
0.0290661 -0.0218793 0.584756
0.0296477 -0.0209969 0.585354
0.0302267 -0.0201141 0.585898
0.0308026 -0.019231 0.586381
0.0313673 -0.0183508 0.586685
0.0319186 -0.0174748 0.586782
0.0324637 -0.0166009 0.586787
0.0330042 -0.015729 0.586727
0.0335458 -0.0148566 0.586684
0.0340886 -0.0139841 0.586661
0.0346398 -0.0131079 0.586754
0.0351949 -0.0122298 0.5869
0.0357511 -0.0113511 0.587058
0.0363309 -0.0104607 0.587528
0.036923 -0.00956355 0.588151
0.0375262 -0.00865954 0.588906
0.0381437 -0.00774677 0.589828
0.0387529 -0.00683673 0.590625
0.0393639 -0.00592423 0.591425
0.0399713 -0.00501225 0.592166
0.0405659 -0.00410615 0.592731
0.0411495 -0.00320556 0.593151
0.0417318 -0.00230489 0.593546
0.0422895 -0.0014181 0.593639
0.0428577 -0.000525158 0.593856
0.0434275 0.00036956 0.594086
0.0439935 0.00126178 0.59427
0.0445588 0.00215406 0.594441
0.0451279 0.00304889 0.594655
0.0457086 0.00395164 0.594994
0.046314 0.00487149 0.595603
0.0469297 0.00579931 0.596311
0.0475627 0.00673993 0.597198
0.0481684 0.00766332 0.597769
0.0487601 0.00857729 0.598186
0.0493454 0.00948755 0.598524
0.0499215 0.0103918 0.598759
0.0504872 0.0112885 0.598884
0.0510931 0.0122153 0.59942
0.051719 0.0131576 0.60015
0.0523637 0.0141149 0.601062
0.053019 0.0150817 0.602065
0.0536943 0.0160653 0.603247
0.0543504 0.0170358 0.604218
0.00631344 -0.0578318 0.602175
0.00680911 -0.0568339 0.59967
0.00731809 -0.0558682 0.597824
