ply
format ascii 1.0
element vertex 1648
property float x
property float y
property float z
end_header
0.0924795 -0.105857 0.529452
0.093338 -0.106011 0.528819
0.0942115 -0.106187 0.528313
0.0950874 -0.106366 0.527834
0.0959515 -0.106532 0.527278
0.0968068 -0.106689 0.526671
0.097684 -0.106873 0.52623
0.098557 -0.107054 0.52577
0.0994835 -0.107299 0.525689
0.100412 -0.107545 0.52562
0.101365 -0.10782 0.525719
0.102319 -0.108097 0.525827
0.1033 -0.108402 0.526103
0.104257 -0.10868 0.526219
0.105214 -0.108958 0.526327
0.106135 -0.109194 0.526195
0.107017 -0.109388 0.525821
0.107818 -0.109496 0.524945
0.108551 -0.109531 0.523652
0.109239 -0.109521 0.52211
0.109878 -0.109462 0.520294
0.110488 -0.109378 0.518335
0.111095 -0.109294 0.516393
0.111713 -0.109227 0.514556
0.112353 -0.109187 0.512885
0.113067 -0.109228 0.511674
0.113824 -0.109314 0.510731
0.114638 -0.10946 0.510126
0.115474 -0.10963 0.509665
0.116298 -0.10979 0.509142
0.117102 -0.109929 0.508509
0.117914 -0.110079 0.507938
0.118939 -0.110439 0.508541
0.120673 -0.111489 0.512981
0.122537 -0.112655 0.518043
0.124372 -0.113782 0.522862
0.125987 -0.114687 0.526436
0.127108 -0.115115 0.527353
0.0911616 -0.104836 0.531893
0.0919677 -0.104921 0.530816
0.0927702 -0.105004 0.529735
0.0936265 -0.105156 0.529082
0.0945139 -0.105348 0.528676
0.0954073 -0.105549 0.528321
0.0962894 -0.105737 0.52789
0.0971751 -0.105929 0.527492
0.0980712 -0.106136 0.527177
0.0989464 -0.106319 0.52672
0.0998674 -0.106555 0.526588
0.100777 -0.106779 0.526383
0.101697 -0.107015 0.526249
0.102627 -0.107261 0.526177
0.1036 -0.107557 0.526398
0.104559 -0.107836 0.526519
0.105525 -0.108123 0.526682
0.106446 -0.108359 0.526548
0.107328 -0.108554 0.526173
0.108087 -0.108617 0.525025
0.108774 -0.108604 0.523444
0.109411 -0.108543 0.52159
0.11001 -0.108446 0.519535
0.110592 -0.108337 0.517423
0.111225 -0.108285 0.515648
0.111871 -0.108252 0.513992
0.112543 -0.108247 0.512508
0.113292 -0.108326 0.511511
0.114069 -0.108434 0.510682
0.114901 -0.1086 0.510186
0.115758 -0.108791 0.509841
0.11661 -0.108979 0.509471
0.117435 -0.10914 0.508956
0.118263 -0.109305 0.508464
0.119286 -0.109661 0.509052
0.121045 -0.110725 0.513609
0.124801 -0.113052 0.523758
0.126305 -0.113843 0.526725
0.127335 -0.114182 0.527161
0.128902 -0.116176 0.531756
0.130821 -0.117346 0.536729
0.130373 -0.116401 0.538014
0.0904448 -0.10487 0.533703
0.0907619 -0.104043 0.534196
0.0914677 -0.103999 0.532299
0.0922608 -0.104067 0.531116
0.0930543 -0.104141 0.529966
0.0939149 -0.104299 0.529343
0.0948195 -0.104512 0.529059
0.0957307 -0.104733 0.528828
0.0966299 -0.104942 0.528515
0.0975396 -0.105162 0.528281
0.0984307 -0.105362 0.52792
0.0993 -0.105537 0.527413
0.100212 -0.105762 0.527211
0.101097 -0.105957 0.526827
0.101982 -0.106153 0.526451
0.102893 -0.106377 0.526247
0.103847 -0.106652 0.526341
0.104791 -0.106914 0.52636
0.105757 -0.1072 0.526523
0.10667 -0.107428 0.526339
0.107528 -0.107597 0.525809
0.108258 -0.107631 0.524484
0.108914 -0.107589 0.52272
0.10952 -0.1075 0.520683
0.110106 -0.107394 0.518565
0.110695 -0.107297 0.516502
0.111355 -0.107277 0.514906
0.112039 -0.107287 0.513481
0.112747 -0.107323 0.512223
0.113517 -0.107424 0.511346
0.11432 -0.10756 0.510672
0.115162 -0.107736 0.510233
0.11603 -0.107939 0.509948
0.116904 -0.108148 0.509701
0.117754 -0.108333 0.509319
0.118601 -0.108518 0.508932
0.11961 -0.108857 0.509427
0.125096 -0.11219 0.523936
0.126442 -0.112828 0.52606
0.127546 -0.113236 0.526888
0.0853286 -0.103861 0.544625
0.0845745 -0.102609 0.544218
0.0855123 -0.10284 0.543994
0.0862133 -0.104019 0.543943
0.086392 -0.102992 0.543277
0.0872273 -0.103089 0.542208
0.0902636 -0.103123 0.535759
0.0910032 -0.103119 0.53409
0.0917341 -0.103109 0.532393
0.0925325 -0.103186 0.531252
0.0933314 -0.103268 0.530141
0.0941946 -0.10343 0.529535
0.0951084 -0.103654 0.529316
0.0960303 -0.103887 0.529159
0.0969457 -0.104114 0.528956
0.0978871 -0.104371 0.528942
0.0987872 -0.10458 0.528636
0.0996673 -0.104767 0.528196
0.100571 -0.104982 0.527928
0.10143 -0.105147 0.527355
0.10224 -0.10526 0.526467
0.103083 -0.10541 0.525814
0.104 -0.105643 0.525658
0.104924 -0.105885 0.525559
0.10586 -0.106139 0.525532
0.106773 -0.106367 0.525352
0.107641 -0.106548 0.524895
0.108342 -0.106556 0.523401
0.10897 -0.106489 0.521477
0.109579 -0.106408 0.51948
0.110174 -0.106317 0.517426
0.110772 -0.106234 0.515438
0.111467 -0.106256 0.514066
0.112198 -0.106314 0.512925
0.112937 -0.106384 0.511849
0.113735 -0.106515 0.511139
0.114562 -0.106676 0.510608
0.115414 -0.106863 0.510225
0.116293 -0.107076 0.509999
0.117197 -0.107315 0.509919
0.118079 -0.107531 0.509714
0.11896 -0.107748 0.509508
0.120226 -0.108331 0.511398
0.12572 -0.111634 0.525852
0.126835 -0.112052 0.526743
0.12779 -0.112319 0.526781
0.0832703 -0.102946 0.549812
0.0819572 -0.100917 0.544379
0.0828968 -0.101148 0.544161
0.0836463 -0.102394 0.544535
0.0838131 -0.101349 0.543743
0.0847413 -0.101566 0.543437
0.0856782 -0.101796 0.543212
0.0865608 -0.101955 0.542532
0.0873866 -0.102042 0.541394
0.0880602 -0.103186 0.541145
0.0882146 -0.102136 0.540302
0.0888196 -0.103192 0.539508
0.088987 -0.102162 0.538785
0.0895231 -0.103131 0.537462
0.0897307 -0.102157 0.537075
0.0904989 -0.102188 0.5356
0.0912627 -0.102216 0.534126
0.0920073 -0.102226 0.532537
0.0928056 -0.102305 0.531395
0.0936209 -0.102409 0.530408
0.0944935 -0.102582 0.529869
0.0954153 -0.102815 0.529703
0.096346 -0.103058 0.529603
0.0972636 -0.103287 0.529411
0.0982232 -0.103563 0.529518
0.0991339 -0.103784 0.529279
0.100016 -0.103973 0.528844
0.100888 -0.104152 0.528348
0.101721 -0.104288 0.527596
0.102456 -0.104319 0.526199
0.103218 -0.104382 0.525007
0.104061 -0.104538 0.524382
0.104932 -0.104723 0.523942
0.105824 -0.104932 0.523647
0.106734 -0.105159 0.523468
0.107607 -0.105349 0.52306
0.108328 -0.105382 0.521714
0.108994 -0.105361 0.520048
0.109644 -0.105327 0.518314
0.110267 -0.10527 0.516451
0.110902 -0.105229 0.514692
0.111624 -0.10528 0.513489
0.112383 -0.105369 0.512519
0.113144 -0.105464 0.511581
0.113963 -0.105616 0.510994
0.114799 -0.105787 0.510516
0.115658 -0.105981 0.510168
0.116572 -0.106229 0.510145
0.117536 -0.106524 0.510392
0.118449 -0.10677 0.510355
0.119529 -0.107173 0.511227
0.124804 -0.110262 0.524613
0.126121 -0.110866 0.526587
0.127076 -0.111133 0.526627
0.129105 -0.112379 0.532246
0.0787285 -0.100767 0.550389
0.0774689 -0.0987766 0.545087
0.078399 -0.0989932 0.544763
0.0791903 -0.100301 0.545548
0.0793341 -0.0992169 0.544491
0.0801139 -0.100507 0.545161
0.0802579 -0.0994253 0.54412
0.0810312 -0.100705 0.544725
0.0811802 -0.0996337 0.543746
0.0821064 -0.0998474 0.543413
0.0830434 -0.100077 0.543186
0.0839573 -0.100276 0.542758
0.084884 -0.100493 0.54245
0.0858142 -0.100716 0.54218
0.0866962 -0.100877 0.541509
0.0875248 -0.100972 0.54041
0.0883568 -0.101073 0.539364
0.0891441 -0.101122 0.537983
0.0899101 -0.101149 0.536465
0.0907005 -0.10121 0.535174
0.0914873 -0.101271 0.533888
0.0922572 -0.101315 0.532501
0.093067 -0.101409 0.531448
0.0939067 -0.101543 0.530644
0.0947882 -0.101727 0.530167
0.0957096 -0.101959 0.529994
0.0966393 -0.102201 0.529882
0.0975575 -0.102429 0.529688
0.0985203 -0.102709 0.529813
0.0994265 -0.102924 0.529537
0.100273 -0.103073 0.528852
0.101087 -0.10319 0.527961
0.101866 -0.103268 0.526846
0.102536 -0.103232 0.525019
0.103233 -0.103229 0.523417
0.10404 -0.103347 0.522564
0.104884 -0.103507 0.521967
0.105748 -0.10369 0.521515
0.106646 -0.103908 0.521284
0.107523 -0.104105 0.520921
0.108272 -0.104171 0.519766
0.108978 -0.104196 0.518372
0.109684 -0.104225 0.517002
0.110347 -0.104212 0.515394
0.111027 -0.10422 0.513919
0.111775 -0.1043 0.512878
0.112561 -0.104419 0.512078
0.113333 -0.104526 0.511209
0.114172 -0.104699 0.510737
0.115018 -0.104881 0.510316
0.115884 -0.105081 0.510015
0.116811 -0.105341 0.510059
0.117792 -0.105652 0.510402
0.118879 -0.106062 0.511323
0.120174 -0.106664 0.513358
0.125289 -0.109572 0.525802
0.127617 -0.111091 0.533089
0.0770516 -0.0993154 0.550493
0.0763813 -0.0981818 0.550946
0.0767361 -0.097553 0.544855
0.0776417 -0.0977347 0.544292
0.0785635 -0.0979405 0.543897
0.0794969 -0.0981633 0.54362
0.0804149 -0.0983659 0.543207
0.0813366 -0.0985751 0.54284
0.0822613 -0.0987884 0.542504
0.0831846 -0.0990017 0.542166
0.0840895 -0.0991912 0.541673
0.0850123 -0.0994057 0.541347
0.0859273 -0.0996105 0.54096
0.086801 -0.0997636 0.540235
0.0876268 -0.0998588 0.539132
0.0884435 -0.0999453 0.537979
0.0892291 -0.0999965 0.536603
0.0900025 -0.100037 0.535164
0.0908159 -0.10013 0.534075
0.0916343 -0.100233 0.533048
0.0924495 -0.100334 0.532021
0.0932977 -0.100476 0.531266
0.0941695 -0.100649 0.530706
0.095052 -0.100834 0.530235
0.0959714 -0.101064 0.530043
0.0968902 -0.101293 0.529851
0.0978008 -0.101513 0.529601
0.0987421 -0.101768 0.529573
0.0996402 -0.101975 0.529242
0.100458 -0.102094 0.52836
0.101227 -0.102163 0.527166
0.101949 -0.102184 0.525679
0.102587 -0.102117 0.523656
0.103239 -0.102072 0.52177
0.104009 -0.102154 0.520694
0.104829 -0.102292 0.519962
0.105666 -0.102449 0.519353
0.106543 -0.102649 0.519014
0.107424 -0.102854 0.518702
0.108217 -0.102969 0.517845
0.108972 -0.103048 0.516769
0.109728 -0.103131 0.515723
0.110438 -0.103169 0.514416
0.111162 -0.103225 0.513216
0.111919 -0.103315 0.512228
0.112722 -0.103452 0.511533
0.11352 -0.103586 0.510819
0.114377 -0.103779 0.510463
0.115242 -0.103979 0.510149
0.116117 -0.104189 0.509901
0.117168 -0.104565 0.510636
0.118163 -0.104888 0.511051
0.119328 -0.105367 0.512389
0.120871 -0.106192 0.515761
0.0757383 -0.0970884 0.551689
0.0760479 -0.0963935 0.545062
0.0769404 -0.096556 0.544361
0.0778301 -0.0967161 0.543649
0.0787433 -0.0969121 0.543183
0.0796756 -0.0971347 0.542905
0.0805912 -0.0973356 0.542479
0.0815114 -0.0975442 0.542106
0.0824351 -0.0977577 0.54177
0.0833443 -0.0979543 0.541318
0.08424 -0.0981339 0.540756
0.0851479 -0.0983301 0.540311
0.086041 -0.0985093 0.539752
0.0868985 -0.0986452 0.538908
0.087709 -0.098725 0.537696
0.0885039 -0.0987893 0.536387
0.0892882 -0.0988441 0.535024
0.0900732 -0.0989038 0.533701
0.0909081 -0.0990266 0.532798
0.0917574 -0.0991685 0.532028
0.0926183 -0.0993262 0.531363
0.0934976 -0.0995078 0.530852
0.0943999 -0.0997163 0.530523
0.0952831 -0.0999036 0.530059
0.0962014 -0.100132 0.52986
0.0971312 -0.100374 0.529747
0.0980483 -0.100601 0.529543
0.0989816 -0.100847 0.529457
0.0998704 -0.101045 0.529063
0.100663 -0.101138 0.528013
0.101361 -0.101133 0.526337
0.102025 -0.101095 0.524469
0.102621 -0.10099 0.522187
0.103243 -0.100917 0.520119
0.103991 -0.100982 0.518921
0.104808 -0.10112 0.518189
0.105625 -0.101259 0.517472
0.106491 -0.10145 0.517076
0.107386 -0.101671 0.516867
0.108206 -0.101817 0.516198
0.108989 -0.101928 0.515316
0.109782 -0.10205 0.514503
0.110527 -0.102127 0.513419
0.111277 -0.102212 0.512391
0.112043 -0.102313 0.511467
0.112854 -0.10246 0.510826
0.113676 -0.102618 0.510255
0.114552 -0.10283 0.510007
0.115428 -0.103042 0.509767
0.11645 -0.10339 0.510344
0.117666 -0.103917 0.511996
0.118834 -0.104396 0.513349
0.0745573 -0.0952068 0.546937
0.0754159 -0.0953157 0.545846
0.0762865 -0.0954453 0.544905
0.0771649 -0.0955884 0.544065
0.0780424 -0.0957337 0.543243
0.0789433 -0.0959131 0.542663
0.0798615 -0.0961186 0.542261
0.0807688 -0.0963097 0.541767
0.0816814 -0.0965092 0.541333
0.0826026 -0.096722 0.540987
0.0834981 -0.0969017 0.540421
0.0843856 -0.0970727 0.5398
0.0852773 -0.0972514 0.53923
0.0861542 -0.0974122 0.538547
0.0869954 -0.0975309 0.537584
0.0878094 -0.0976195 0.53642
0.088602 -0.0976852 0.535112
0.0893913 -0.0977495 0.533807
0.090188 -0.0978276 0.532593
0.0910357 -0.0979688 0.531806
0.0918985 -0.0981291 0.531152
0.0927829 -0.0983165 0.530677
0.0936862 -0.0985263 0.530354
0.0946053 -0.0987551 0.530155
0.0954966 -0.098953 0.529754
0.0964211 -0.0991885 0.529602
0.0973514 -0.0994313 0.529493
0.0982552 -0.0996445 0.529198
0.0991498 -0.0998484 0.528842
0.100009 -0.100016 0.528251
0.100764 -0.100072 0.526949
0.101433 -0.10004 0.525094
0.10208 -0.0999892 0.523128
0.102704 -0.0999183 0.521046
0.103351 -0.0998775 0.519164
0.104089 -0.0999345 0.517909
0.104883 -0.100052 0.517043
0.105704 -0.100198 0.516362
0.106551 -0.100371 0.515852
0.107428 -0.100575 0.515544
0.108286 -0.100762 0.515126
0.10911 -0.100915 0.514497
0.109927 -0.101063 0.513847
0.110698 -0.101168 0.512928
0.111465 -0.101271 0.512003
0.112232 -0.101375 0.511089
0.113034 -0.101516 0.510399
0.113857 -0.101676 0.50984
0.114734 -0.101889 0.509602
0.115748 -0.102229 0.510141
0.116928 -0.102722 0.511603
0.11832 -0.103407 0.514218
0.119671 -0.104048 0.516556
0.0737137 -0.0951241 0.54822
0.073138 -0.0941317 0.549674
0.073964 -0.0941864 0.54817
0.0748042 -0.0942659 0.546855
0.0756542 -0.0943648 0.54568
0.0765109 -0.0944765 0.544604
0.0773806 -0.0946094 0.543686
0.0782471 -0.0947411 0.542763
0.0791403 -0.0949127 0.542119
0.0800459 -0.095102 0.541606
0.0809522 -0.0952931 0.541111
0.081863 -0.0954927 0.54067
0.0827773 -0.0956975 0.540271
0.0836649 -0.0958687 0.539645
0.0845436 -0.0960312 0.538959
0.0854134 -0.0961839 0.538211
0.0862742 -0.0963278 0.537408
0.0870916 -0.0964208 0.536263
0.0879019 -0.0965085 0.535087
0.088686 -0.096568 0.533729
0.0894734 -0.0966356 0.53243
0.0902749 -0.0967221 0.531272
0.0911402 -0.096887 0.530638
0.0920104 -0.0970591 0.530056
0.092909 -0.0972643 0.529702
0.0938334 -0.0975 0.529548
0.094767 -0.0977467 0.529465
0.095659 -0.0979467 0.529077
0.0965853 -0.0981848 0.528943
0.0975161 -0.0984282 0.528844
0.0983967 -0.0986179 0.52839
0.0992535 -0.0987824 0.527777
0.100076 -0.0989119 0.526939
0.100811 -0.0989517 0.525523
0.10147 -0.0989136 0.523615
0.102122 -0.0988739 0.521703
0.102787 -0.0988516 0.519915
0.103474 -0.0988557 0.518307
0.104234 -0.0989389 0.517211
0.105053 -0.0990826 0.516507
0.10589 -0.099246 0.515931
0.106726 -0.0994099 0.515363
0.107591 -0.0996037 0.514984
0.108447 -0.0997897 0.514558
0.109261 -0.0999349 0.513879
0.110088 -0.100094 0.513287
0.110876 -0.100217 0.512477
0.11166 -0.100338 0.511657
0.112437 -0.100453 0.510805
0.11337 -0.100718 0.510879
0.114343 -0.101019 0.511184
0.115248 -0.101256 0.511088
0.116412 -0.101732 0.512463
0.117757 -0.10237 0.514819
0.119184 -0.103078 0.517593
0.120561 -0.103735 0.520039
0.121254 -0.104896 0.520123
0.122159 -0.104585 0.523646
0.123576 -0.105266 0.526211
0.0713973 -0.0939052 0.551866
0.0707215 -0.0927664 0.552336
0.0716315 -0.0929361 0.55163
0.0722774 -0.0940314 0.550858
0.0725109 -0.0930626 0.550619
0.0733695 -0.0931625 0.54942
0.0742032 -0.0932311 0.548003
0.0750428 -0.0933126 0.546687
0.0758871 -0.0934053 0.545458
0.0767301 -0.0935008 0.544255
0.077585 -0.0936154 0.543199
0.0784495 -0.093747 0.542265
0.0793419 -0.0939192 0.541621
0.0802458 -0.0941077 0.541098
0.0811462 -0.0942927 0.540556
0.0820504 -0.0944854 0.540064
0.0829641 -0.0946905 0.539666
0.0838438 -0.0948541 0.538979
0.0847085 -0.0950009 0.538181
0.085562 -0.0951363 0.537307
0.0864127 -0.0952696 0.536429
0.0872073 -0.095339 0.535111
0.0880093 -0.0954201 0.533884
0.0887916 -0.0954819 0.532529
0.0895853 -0.0955599 0.531296
0.0903872 -0.0956513 0.530158
0.0912587 -0.0958259 0.529587
0.0921278 -0.0959984 0.529009
0.093024 -0.0962034 0.528648
0.0939476 -0.0964394 0.5285
0.0948799 -0.0966857 0.528417
0.0957786 -0.0968946 0.528089
0.0967038 -0.0971333 0.527957
0.0976345 -0.0973779 0.527867
0.0985046 -0.0975577 0.527349
0.0993395 -0.0977014 0.526595
0.10014 -0.0978107 0.525621
0.10091 -0.0978903 0.524458
0.101607 -0.0978978 0.522826
0.102301 -0.097904 0.5212
0.103018 -0.0979397 0.51977
0.103736 -0.0979781 0.518367
0.10448 -0.0980456 0.517162
0.105289 -0.0981808 0.516397
0.106116 -0.0983362 0.515764
0.106935 -0.0984845 0.515089
0.107791 -0.09867 0.514655
0.108647 -0.0988566 0.51423
0.109471 -0.0990127 0.513615
0.110309 -0.0991835 0.513095
0.111116 -0.099326 0.512398
0.111919 -0.0994658 0.511691
0.112704 -0.0995904 0.510889
0.113814 -0.100018 0.511988
0.114959 -0.100475 0.513263
0.116043 -0.100874 0.514167
0.117385 -0.101506 0.51651
0.118841 -0.102236 0.519447
0.120177 -0.102852 0.521667
0.121543 -0.103489 0.524004
0.122959 -0.104167 0.526582
0.124214 -0.104697 0.528234
0.0700471 -0.0916288 0.552836
0.0709457 -0.0917801 0.551986
0.0718482 -0.0919406 0.551206
0.0727295 -0.0920728 0.550223
0.0735905 -0.0921789 0.549058
0.0744209 -0.0922464 0.547616
0.0752516 -0.0923183 0.546219
0.0760832 -0.0923963 0.544874
0.0769248 -0.0924922 0.543665
0.0777725 -0.0926009 0.542552
0.0786409 -0.0927401 0.541666
0.0795372 -0.0929186 0.541065
0.080441 -0.0931091 0.540551
0.0813413 -0.0932957 0.540014
0.0822512 -0.0934968 0.53958
0.0831583 -0.0936947 0.539128
0.0840307 -0.0938506 0.538385
0.0848869 -0.0939895 0.537523
0.0857188 -0.0941009 0.536476
0.086553 -0.0942175 0.535473
0.0873381 -0.0942789 0.53409
0.0881318 -0.0943545 0.532813
0.0889139 -0.0944196 0.531471
0.0897219 -0.0945179 0.530367
0.0905308 -0.0946203 0.529297
0.0914036 -0.0947984 0.528746
0.092278 -0.0949785 0.528218
0.0931722 -0.0951828 0.527851
0.0940864 -0.0954091 0.527639
0.0950165 -0.0956536 0.527548
0.0959285 -0.0958785 0.527326
0.0968457 -0.0961092 0.527144
0.0977729 -0.0963511 0.527036
0.0986384 -0.0965284 0.526496
0.0994606 -0.096661 0.525663
0.100236 -0.0967469 0.524526
0.101028 -0.0968525 0.523525
0.101762 -0.0969003 0.52215
0.102501 -0.0969578 0.520845
0.103266 -0.0970433 0.51973
0.104033 -0.0971331 0.518652
0.104792 -0.0972179 0.517545
0.105585 -0.0973381 0.516671
0.106395 -0.0974765 0.515923
0.107196 -0.0976079 0.515133
0.108035 -0.0977782 0.514595
0.108876 -0.0979504 0.514075
0.109709 -0.0981173 0.513521
0.110567 -0.0983071 0.513119
0.111402 -0.0984771 0.512592
0.112234 -0.0986454 0.512055
0.1132 -0.0989372 0.512303
0.114512 -0.0995465 0.514556
0.115865 -0.100188 0.516996
0.117164 -0.100775 0.519084
0.118657 -0.101533 0.522225
0.121165 -0.102604 0.525689
0.122355 -0.103078 0.527024
0.123582 -0.103582 0.528536
0.0693387 -0.0904395 0.552965
0.0702625 -0.090628 0.552381
0.0711508 -0.090767 0.551429
0.0720425 -0.0909142 0.550542
0.0729142 -0.0910353 0.54947
0.073764 -0.0911287 0.548203
0.0745996 -0.0912071 0.54683
0.0754345 -0.0912893 0.545492
0.0762654 -0.0913701 0.544154
0.0771063 -0.0914682 0.542951
0.0779579 -0.0915854 0.541889
0.0788267 -0.0917271 0.541017
0.0797229 -0.0919074 0.540425
0.0806271 -0.0920996 0.53992
0.0815316 -0.0922942 0.539433
0.0824412 -0.0924955 0.539001
0.0833463 -0.092693 0.538541
0.0842117 -0.0928428 0.537746
0.0850598 -0.0929734 0.536822
0.0858766 -0.0930697 0.535658
0.0867012 -0.093178 0.534588
0.0874782 -0.0932331 0.533152
0.0882706 -0.0933112 0.531879
0.0890653 -0.0933939 0.530652
0.0898874 -0.0935116 0.529672
0.090704 -0.0936255 0.528671
0.0915836 -0.0938126 0.52818
0.0924634 -0.0940001 0.527698
0.0933564 -0.094204 0.527328
0.0942694 -0.0944301 0.527112
0.0951918 -0.0946673 0.52697
0.0961089 -0.0948978 0.526789
0.0970171 -0.0951203 0.526548
0.097921 -0.0953382 0.52628
0.098761 -0.0954897 0.525567
0.0995648 -0.0956061 0.524619
0.100339 -0.0956933 0.523484
0.101148 -0.095819 0.52261
0.10193 -0.0959197 0.521573
0.102722 -0.096032 0.520624
0.103539 -0.0961718 0.519855
0.104342 -0.0962994 0.519013
0.105128 -0.0964111 0.518073
0.105921 -0.0965325 0.517197
0.106722 -0.0966626 0.516387
0.107511 -0.096784 0.515522
0.108339 -0.0969442 0.514913
0.109163 -0.0971003 0.514282
0.109998 -0.0972681 0.513732
0.110873 -0.0974751 0.513436
0.11173 -0.0976658 0.513032
0.112735 -0.0979924 0.513506
0.113916 -0.0984786 0.514997
0.115445 -0.0992765 0.518463
0.11851 -0.100857 0.525246
0.119963 -0.101567 0.528099
0.121107 -0.101997 0.529172
0.122035 -0.102236 0.52904
0.123035 -0.102539 0.529307
0.124067 -0.102868 0.52973
0.125708 -0.104865 0.534858
0.068677 -0.0893208 0.553638
0.069584 -0.0894833 0.552845
0.0704857 -0.0896404 0.552018
0.0713582 -0.0897589 0.5509
0.0722345 -0.0898861 0.549858
0.0730912 -0.0899889 0.54864
0.0739349 -0.0900785 0.547328
0.074774 -0.0901652 0.546006
0.0756075 -0.0902489 0.54467
0.0764375 -0.0903319 0.543337
0.0772835 -0.0904409 0.5422
0.0781419 -0.0905699 0.541216
0.0790173 -0.0907228 0.540417
0.0799201 -0.0909132 0.539894
0.0808299 -0.091114 0.539449
0.081734 -0.0913086 0.538962
0.0826367 -0.0915033 0.538476
0.0835344 -0.091693 0.537957
0.0843977 -0.0918421 0.537152
0.0852374 -0.0919658 0.536166
0.0860405 -0.092048 0.534896
0.0868568 -0.09215 0.533769
0.0876307 -0.0922056 0.532322
0.088422 -0.0922851 0.531051
0.0892243 -0.0923799 0.529898
0.0900599 -0.0925153 0.529034
0.0908903 -0.0926473 0.528151
0.0917759 -0.0928415 0.52771
0.0926545 -0.0930293 0.527225
0.0935472 -0.093234 0.526857
0.0944611 -0.0934618 0.526652
0.0953836 -0.0936992 0.526513
0.0963004 -0.0939305 0.526335
0.0972003 -0.0941445 0.526038
0.0980954 -0.0943541 0.525711
0.0989413 -0.0945141 0.525048
0.0997537 -0.0946404 0.524164
0.100544 -0.0947475 0.523149
0.101371 -0.0948927 0.522399
0.102177 -0.0950185 0.521524
0.102993 -0.0951572 0.520738
0.103829 -0.0953162 0.520093
0.104654 -0.0954658 0.519389
0.105468 -0.0956063 0.518628
0.106272 -0.0957388 0.517817
0.107065 -0.0958619 0.516951
0.107842 -0.0959731 0.516006
0.108652 -0.096115 0.515273
0.109446 -0.0962453 0.514465
0.110271 -0.0964046 0.513848
0.111137 -0.0966033 0.513497
0.112004 -0.0968033 0.513151
0.113201 -0.097302 0.514748
0.114628 -0.0980057 0.517652
0.116388 -0.0990001 0.522413
0.11815 -0.0999864 0.527098
0.119859 -0.100918 0.531399
0.121134 -0.101459 0.533188
0.122046 -0.101681 0.532931
0.122785 -0.101752 0.53172
0.123597 -0.101889 0.530927
0.124454 -0.102065 0.530395
0.0689179 -0.0883561 0.553464
0.069802 -0.0884872 0.552419
0.0706849 -0.0886191 0.55139
0.071544 -0.0887209 0.550139
0.0723963 -0.0888174 0.548854
0.0732465 -0.0889159 0.54759
0.0740884 -0.0890061 0.546276
0.0749251 -0.0890942 0.544951
0.0757514 -0.0891725 0.543562
0.0765798 -0.0892582 0.542235
0.0774311 -0.0893779 0.541168
0.0782952 -0.0895166 0.540253
0.0791765 -0.0896798 0.539525
0.0800856 -0.0898804 0.539073
0.0809995 -0.0900886 0.538677
0.0819035 -0.0902844 0.538198
0.082804 -0.0904782 0.537703
0.0837011 -0.0906684 0.537188
0.0845628 -0.0908181 0.536381
0.0854013 -0.0909429 0.535396
0.0862023 -0.0910266 0.534122
0.0870231 -0.0911367 0.533044
0.0878033 -0.0912033 0.53166
0.088601 -0.0912922 0.530449
0.0894163 -0.091405 0.52941
0.0902665 -0.0915587 0.528668
0.091098 -0.0916936 0.527798
0.0919824 -0.0918876 0.527352
0.0928675 -0.0920839 0.526921
0.0937676 -0.0922964 0.526609
0.0946767 -0.0925199 0.526371
0.0956001 -0.0927582 0.52624
0.0965234 -0.092997 0.52611
0.0974154 -0.093203 0.525757
0.098303 -0.0934059 0.525381
0.0991642 -0.0935825 0.524827
0.100001 -0.0937344 0.524111
0.100802 -0.0938548 0.523176
0.101647 -0.0940182 0.522545
0.102468 -0.0941615 0.521775
0.1033 -0.0943151 0.521085
0.104138 -0.0944768 0.520451
0.10498 -0.0946437 0.519855
0.105814 -0.0948031 0.519211
0.106621 -0.0949402 0.518418
0.107415 -0.0950651 0.517556
0.108194 -0.0951775 0.51661
0.108984 -0.0953025 0.515752
0.109751 -0.0954083 0.514774
0.110563 -0.0955563 0.514079
0.111593 -0.0959039 0.514702
0.112634 -0.0962592 0.51537
0.11404 -0.0969405 0.518166
0.115718 -0.0978567 0.522479
0.117553 -0.0989038 0.527616
0.119134 -0.099717 0.531208
0.120674 -0.100488 0.534503
0.121768 -0.100866 0.535251
0.122536 -0.100961 0.534171
0.123263 -0.101024 0.532887
0.124055 -0.101144 0.531984
0.125915 -0.102169 0.536846
0.0682789 -0.0872692 0.554418
0.0691532 -0.087384 0.553227
0.0700156 -0.087485 0.551943
0.0708772 -0.08759 0.550693
0.0717136 -0.0876631 0.549209
0.0725579 -0.0877528 0.547859
0.0734014 -0.0878458 0.546542
0.0742423 -0.0879388 0.545238
0.0750772 -0.0880289 0.543915
0.0759013 -0.0881081 0.542522
0.0767225 -0.0881882 0.541143
0.0775717 -0.0883085 0.540075
0.0784405 -0.088457 0.539223
0.0793267 -0.0886297 0.538556
0.0802353 -0.0888309 0.538111
0.0811479 -0.0890387 0.537715
0.0820556 -0.089242 0.537285
0.0829555 -0.0894362 0.536794
0.0838522 -0.0896281 0.536288
0.0847184 -0.0897862 0.535533
0.0855628 -0.0899205 0.534611
0.0863636 -0.0900072 0.533347
0.0871843 -0.0901197 0.532279
0.0879761 -0.0902025 0.531002
0.088781 -0.0903034 0.529861
0.0896117 -0.0904349 0.528951
0.0904764 -0.0906064 0.528329
0.0913217 -0.090758 0.52757
0.0922069 -0.0909535 0.527132
0.0931057 -0.0911648 0.526805
0.0940136 -0.0913865 0.526553
0.094931 -0.0916187 0.526374
0.0958626 -0.0918652 0.526301
0.0967931 -0.0921113 0.526221
0.0976851 -0.0923177 0.525866
0.0985805 -0.0925285 0.525542
0.0994511 -0.0927148 0.525051
0.100305 -0.0928859 0.524455
0.101126 -0.0930261 0.523648
0.10198 -0.0931998 0.523077
0.102812 -0.0933524 0.522366
0.103643 -0.0935062 0.521665
0.104472 -0.0936599 0.520968
0.105314 -0.0938267 0.520364
0.106154 -0.0939931 0.519761
0.106963 -0.0941315 0.51897
0.107776 -0.0942748 0.518219
0.108558 -0.0943909 0.517288
0.109325 -0.0944956 0.516285
0.110064 -0.0945771 0.51513
0.111028 -0.0948633 0.515349
0.112237 -0.0953677 0.517015
0.113498 -0.0959144 0.518956
0.115137 -0.0967926 0.523071
0.116946 -0.0978097 0.52808
0.118573 -0.0986599 0.53196
0.119961 -0.0992947 0.534405
0.1213 -0.0998817 0.536529
0.122237 -0.100123 0.536381
0.123013 -0.100225 0.535339
0.123771 -0.100315 0.534216
0.124546 -0.100421 0.533203
0.0673961 -0.0871464 0.55555
0.0667471 -0.0860461 0.556449
0.067656 -0.0862058 0.555591
0.0685391 -0.0863313 0.554464
0.0693951 -0.0864213 0.553066
0.0702343 -0.0864923 0.551529
0.0710699 -0.0865631 0.550003
0.0718929 -0.086622 0.548391
0.07272 -0.0866917 0.546874
0.0735573 -0.0867805 0.545512
0.0744014 -0.086882 0.544261
0.0752403 -0.0869811 0.542997
0.0760633 -0.087063 0.54161
0.0768829 -0.0871452 0.540233
0.0777296 -0.0872658 0.539156
0.0785958 -0.087413 0.538292
0.0794749 -0.087579 0.537572
0.0803754 -0.0877734 0.537069
0.0812872 -0.0879817 0.536678
0.0821987 -0.0881916 0.536296
0.0830981 -0.0883875 0.535814
0.084007 -0.0885958 0.535427
0.0848876 -0.088772 0.534805
0.0857449 -0.0889243 0.534005
0.086558 -0.0890277 0.532853
0.0873922 -0.0891571 0.531902
0.0881924 -0.0892526 0.530701
0.0890126 -0.0893718 0.529687
0.0898575 -0.0895206 0.528892
0.090724 -0.0896949 0.528285
0.091577 -0.0898556 0.527585
0.0924769 -0.0900678 0.527258
0.0933838 -0.090288 0.52699
0.0943011 -0.0905189 0.526804
0.0952338 -0.0907665 0.526733
0.0961742 -0.0910215 0.526717
0.0971049 -0.0912672 0.526632
0.0979974 -0.0914741 0.526275
0.0989015 -0.091693 0.526006
0.099782 -0.0918891 0.525577
0.100655 -0.092079 0.525104
0.101493 -0.0922361 0.524408
0.102358 -0.0924201 0.523902
0.10319 -0.0925732 0.523184
0.104014 -0.0927203 0.522427
0.104826 -0.0928579 0.52161
0.105649 -0.0930078 0.520879
0.106479 -0.0931646 0.520203
0.107295 -0.0933105 0.519453
0.108263 -0.0935964 0.519665
0.109223 -0.0938741 0.519818
0.110004 -0.0939901 0.518875
0.110909 -0.0942193 0.518699
0.112034 -0.0946452 0.519849
0.11329 -0.0951834 0.521746
0.114611 -0.0957742 0.523989
0.116466 -0.0968264 0.529293
0.118125 -0.0976987 0.533372
0.119539 -0.0983525 0.535971
0.120712 -0.0987939 0.537153
0.121875 -0.0992257 0.538265
0.122668 -0.0993426 0.537295
0.123458 -0.099458 0.53632
0.124241 -0.0995697 0.535328
0.0658415 -0.0858941 0.557378
0.0660863 -0.0849272 0.557233
0.0669898 -0.0850773 0.556281
0.0678989 -0.0852393 0.55543
0.0687795 -0.0853631 0.554278
0.069627 -0.0854442 0.552792
0.0704489 -0.0854936 0.55107
0.0712584 -0.0855329 0.549272
0.0720679 -0.0855781 0.547533
0.0728818 -0.085634 0.545895
0.0737164 -0.085723 0.544523
0.0745602 -0.085828 0.543287
0.0754097 -0.0859442 0.542146
0.0762383 -0.0860374 0.540832
0.0770625 -0.0861287 0.539513
0.0779019 -0.0862428 0.538378
0.0787586 -0.0863818 0.537439
0.0796294 -0.08654 0.536655
0.0805229 -0.0867281 0.536101
0.0814335 -0.086937 0.535712
0.0823494 -0.0871529 0.53538
0.0832543 -0.0873578 0.53496
0.0841704 -0.0875756 0.534644
0.0850715 -0.0877774 0.534209
0.0859435 -0.0879479 0.533538
0.0867713 -0.0880697 0.532516
0.087619 -0.0882167 0.531682
0.088433 -0.0883293 0.530596
0.0892608 -0.0884584 0.529645
0.0901148 -0.0886185 0.528923
0.0909882 -0.088801 0.528368
0.0918481 -0.0889703 0.527722
0.0927561 -0.0891903 0.527453
0.0936729 -0.0894209 0.527255
0.0945999 -0.0896615 0.527136
0.095542 -0.0899176 0.527127
0.0964902 -0.09018 0.527162
0.0974226 -0.0904265 0.527081
0.0983161 -0.0906342 0.526726
0.0992368 -0.0908693 0.526566
0.100135 -0.091082 0.52625
0.101018 -0.0912824 0.525845
0.101874 -0.0914563 0.525255
0.102756 -0.0916563 0.524853
0.103644 -0.0918629 0.5245
0.114576 -0.0951828 0.527829
0.115937 -0.0957974 0.530237
0.117625 -0.0966906 0.534505
0.119107 -0.0973973 0.537497
0.120315 -0.0978666 0.538877
0.121302 -0.0981466 0.538982
0.122278 -0.0984179 0.539026
0.12308 -0.0985422 0.538096
0.123869 -0.0986578 0.537113
0.125682 -0.0996197 0.541724
0.126046 -0.100531 0.539884
0.0653836 -0.0837458 0.557525
0.0663221 -0.0839468 0.556977
0.0672271 -0.0841013 0.55605
0.0681324 -0.0842591 0.555158
0.0690094 -0.0843805 0.553973
0.069842 -0.0844437 0.552328
0.0706512 -0.0844803 0.550479
0.0714412 -0.0844975 0.548485
0.0722361 -0.0845274 0.546608
0.0730363 -0.0845702 0.544846
0.0738695 -0.0846614 0.54348
0.0747173 -0.0847752 0.542304
0.075573 -0.0849026 0.54124
0.076408 -0.0850076 0.540007
0.0772377 -0.08511 0.538758
0.0780702 -0.0852181 0.537569
0.0789189 -0.0853505 0.536568
0.0797867 -0.0855076 0.53577
0.0806787 -0.0856953 0.535212
0.0815883 -0.0859047 0.534827
0.0825105 -0.0861301 0.534563
0.0834334 -0.0863564 0.534309
0.0843629 -0.0865907 0.534117
0.0852786 -0.0868101 0.533811
0.0861655 -0.0869983 0.53327
0.0870201 -0.0871524 0.532475
0.087883 -0.0873165 0.531766
0.0887119 -0.0874466 0.530799
0.0895538 -0.0875925 0.529959
0.0904211 -0.0877674 0.529338
0.0912953 -0.0879508 0.528783
0.0921628 -0.0881279 0.528189
0.0930855 -0.0883636 0.528025
0.0940129 -0.0886031 0.527897
0.0949506 -0.0888544 0.527848
0.0959098 -0.0891267 0.527954
0.0968676 -0.0893964 0.528045
0.0977952 -0.0896376 0.527919
0.0986905 -0.0898461 0.527565
0.0996279 -0.0900968 0.527511
0.100544 -0.0903266 0.527309
0.101432 -0.0905299 0.526921
0.102299 -0.090713 0.526391
0.103245 -0.0909726 0.526404
0.104133 -0.0911779 0.526035
0.10536 -0.0928437 0.529567
0.105975 -0.0922638 0.53189
0.107156 -0.0938885 0.535045
0.115899 -0.0951904 0.534097
0.117217 -0.0957578 0.53619
0.118724 -0.0964817 0.539334
0.120004 -0.0970083 0.541117
0.121013 -0.0973054 0.541332
0.121829 -0.0974392 0.540445
0.12265 -0.0975797 0.539606
0.123451 -0.0977046 0.538668
0.125249 -0.0986474 0.543211
0.0646625 -0.0825359 0.557597
0.065612 -0.0827534 0.557177
0.0665496 -0.0829545 0.556623
0.0674544 -0.0831108 0.555701
0.0683562 -0.0832666 0.554777
0.0692289 -0.083384 0.55355
0.0700549 -0.0834416 0.551843
0.070851 -0.0834657 0.549865
0.0716219 -0.0834619 0.547681
0.0723983 -0.0834722 0.545626
0.0731899 -0.0835083 0.543794
0.0740214 -0.0836014 0.54243
0.0748793 -0.0837323 0.541376
0.075747 -0.0838776 0.540449
0.0765933 -0.0840003 0.53934
0.0774297 -0.0841134 0.538168
0.0782611 -0.0842233 0.536979
0.0791083 -0.084356 0.535974
0.0799744 -0.0845128 0.535168
0.0808663 -0.0847024 0.534619
0.0817825 -0.0849214 0.534301
0.0827114 -0.0851549 0.5341
0.0836409 -0.085389 0.533908
0.0845769 -0.0856318 0.533777
0.0855063 -0.0858666 0.53359
0.0864139 -0.0860782 0.533224
0.087291 -0.0862577 0.532614
0.0881626 -0.0864324 0.531974
0.0890121 -0.0865851 0.531171
0.0898682 -0.0867474 0.53044
0.0907375 -0.0869242 0.529827
0.0916127 -0.0871089 0.529274
0.0925009 -0.087307 0.52883
0.0934332 -0.0875511 0.528729
0.0943778 -0.087808 0.528719
0.0953336 -0.0880758 0.528791
0.0963175 -0.0883702 0.529063
0.0972855 -0.088649 0.529213
0.0982231 -0.0888975 0.529141
0.0991282 -0.0891152 0.528842
0.100069 -0.0893664 0.528793
0.100996 -0.0896053 0.528652
0.101896 -0.0898189 0.528326
0.102805 -0.0900421 0.528071
0.103793 -0.0903373 0.528339
0.104746 -0.0906008 0.528374
0.106689 -0.091764 0.534846
0.119002 -0.0961193 0.545048
0.119428 -0.095923 0.541858
0.120524 -0.0962904 0.542558
0.121376 -0.0964546 0.54186
0.122223 -0.096616 0.541152
0.123039 -0.0967529 0.540276
0.124815 -0.0976714 0.544712
0.0648705 -0.081513 0.556991
0.0658201 -0.0817322 0.55658
0.0667673 -0.0819493 0.556154
0.0676722 -0.0821079 0.555242
0.0685738 -0.0822653 0.554325
0.0694421 -0.0823802 0.55306
0.0702614 -0.0824328 0.55129
0.0710389 -0.0824364 0.549124
0.07179 -0.0824121 0.546746
0.0725475 -0.0824031 0.544511
0.0733323 -0.082436 0.542634
0.0741677 -0.0825387 0.541334
0.0750367 -0.0826865 0.540409
0.0759152 -0.0828487 0.539606
0.0767673 -0.0829809 0.538568
0.0776137 -0.0831087 0.537504
0.0784498 -0.0832281 0.536373
0.079303 -0.0833694 0.535432
0.0801694 -0.083529 0.534638
0.0810674 -0.0837268 0.534151
0.08199 -0.0839537 0.533894
0.0829256 -0.0841953 0.533757
0.083862 -0.0844379 0.533628
0.0848047 -0.0846879 0.533555
0.085747 -0.0849372 0.533477
0.0866685 -0.0851639 0.533227
0.0875672 -0.0853673 0.532795
0.0884548 -0.0855602 0.532283
0.0893209 -0.0857308 0.531608
0.090192 -0.0859084 0.530989
0.0910694 -0.0860942 0.530433
0.0919469 -0.0862807 0.529888
0.0928445 -0.0864888 0.529509
0.0937931 -0.0867481 0.529519
0.0947417 -0.0870081 0.529529
0.095715 -0.0872913 0.529716
0.0967164 -0.0876007 0.5301
0.0976953 -0.0878877 0.530313
0.0986442 -0.0881463 0.530308
0.0995742 -0.0883864 0.530169
0.100517 -0.088638 0.530116
0.101463 -0.088893 0.530089
0.102398 -0.0891375 0.529986
0.103349 -0.0893968 0.529987
0.104362 -0.0897136 0.530405
0.105365 -0.0900182 0.530736
0.065066 -0.0804745 0.556235
0.0660167 -0.0806969 0.555849
0.0669717 -0.0809262 0.555528
0.0678808 -0.0810939 0.554679
0.0687774 -0.0812467 0.553715
0.0696445 -0.0813629 0.552449
0.0704566 -0.0814105 0.550617
0.0712199 -0.0814001 0.548313
0.0719569 -0.0813644 0.545807
0.072706 -0.0813504 0.543507
0.0734846 -0.0813811 0.541587
0.0743256 -0.081494 0.540361
0.0751999 -0.0816507 0.539505
0.0760781 -0.081815 0.538713
0.0769348 -0.0819555 0.537735
0.0777852 -0.082092 0.536725
0.0786266 -0.0822199 0.535658
0.0794857 -0.0823713 0.534783
0.0803708 -0.0825542 0.53417
0.0812813 -0.0827676 0.533802
0.0822106 -0.0830022 0.533608
0.0831526 -0.0832506 0.533527
0.0840951 -0.0835007 0.533453
0.0850381 -0.0837504 0.533381
0.0859871 -0.084007 0.53336
0.0869161 -0.0842423 0.533173
0.0878301 -0.0844619 0.532864
0.0887339 -0.0846721 0.532481
0.0896152 -0.084859 0.531925
0.0904953 -0.0850463 0.531372
0.0913815 -0.0852416 0.530879
0.0922675 -0.0854368 0.530395
0.0931813 -0.0856601 0.530129
0.0941409 -0.0859296 0.530213
0.0950997 -0.0861974 0.530286
0.0960822 -0.0864886 0.53053
0.0970872 -0.0868 0.530928
0.0980614 -0.0870808 0.531095
0.09902 -0.0873463 0.531146
0.0999765 -0.0876107 0.531181
0.100947 -0.0878868 0.531308
0.10193 -0.0881742 0.531516
0.102908 -0.0884572 0.531689
0.103907 -0.0887573 0.53199
0.104956 -0.0891025 0.532618
0.106021 -0.0894607 0.533334
0.0642941 -0.0791905 0.555654
0.0652601 -0.079436 0.555465
0.0662154 -0.0796669 0.555151
0.0671711 -0.0798985 0.554848
0.068084 -0.0800735 0.554056
0.0689854 -0.0802355 0.553159
0.0698374 -0.0803348 0.551736
0.0706366 -0.0803705 0.549779
0.0713898 -0.0803536 0.547389
0.0721181 -0.080312 0.544811
0.0728554 -0.0802895 0.542412
0.0736493 -0.080344 0.540674
0.0744949 -0.0804659 0.539511
0.0753743 -0.080632 0.538722
0.0762513 -0.0807968 0.537929
0.0771062 -0.0809382 0.536947
0.0779616 -0.0810825 0.535996
0.0788144 -0.0812264 0.535048
0.0796868 -0.0813953 0.534307
0.0805853 -0.0815953 0.533824
0.0815087 -0.0818233 0.533573
0.0824442 -0.0820646 0.533435
0.0833853 -0.0823131 0.533348
0.0843287 -0.0825631 0.533279
0.0852718 -0.0828132 0.53321
0.0862209 -0.0830702 0.533191
0.0871568 -0.0833129 0.53306
0.0880852 -0.0835474 0.532869
0.0889983 -0.0837671 0.532558
0.089895 -0.083971 0.532124
0.0907891 -0.0841725 0.531677
0.0916828 -0.0843752 0.531238
0.0925843 -0.0845862 0.530867
0.0935227 -0.0848333 0.530781
0.094493 -0.0851122 0.530935
0.0954605 -0.0853871 0.53106
0.096452 -0.0856843 0.531357
0.0974566 -0.0859934 0.531739
0.0984343 -0.0862758 0.531918
0.099411 -0.0865578 0.532086
0.100395 -0.0868452 0.5323
0.101389 -0.0871413 0.532571
0.102394 -0.0874465 0.532915
0.103413 -0.0877628 0.533338
0.104443 -0.0880892 0.53383
0.105522 -0.0884572 0.534629
0.106584 -0.0888088 0.535301
0.108071 -0.0906876 0.540402
0.107698 -0.0892043 0.536292
0.0644741 -0.0781339 0.554705
0.065448 -0.0783917 0.554627
0.0664129 -0.0786367 0.55444
0.0673702 -0.0788722 0.554168
0.0682921 -0.0790619 0.553494
0.0692027 -0.079238 0.552712
0.0700281 -0.0793071 0.551005
0.0708088 -0.0793233 0.548862
0.0715489 -0.0792956 0.546354
0.0722683 -0.0792494 0.543708
0.0729947 -0.07922 0.541221
0.0738095 -0.0793052 0.539721
0.0746658 -0.0794427 0.538683
0.0755492 -0.0796156 0.537946
0.0764293 -0.0797873 0.537199
0.0772893 -0.0799366 0.536277
0.0781495 -0.0800891 0.535383
0.0790155 -0.0802503 0.534568
0.0799009 -0.0804355 0.533954
0.0808069 -0.0806436 0.53354
0.0817368 -0.0808799 0.533352
0.0826785 -0.0811281 0.533268
0.0836202 -0.0813771 0.533188
0.0845629 -0.0816266 0.533113
0.0855058 -0.0818769 0.533042
0.0864549 -0.0821329 0.533021
0.0873973 -0.0823821 0.532943
0.0883331 -0.0826248 0.532813
0.0892473 -0.0828465 0.532512
0.0901512 -0.083058 0.532134
0.0910523 -0.0832673 0.531742
0.0919462 -0.0834696 0.531301
0.0928559 -0.0836891 0.530991
0.0938105 -0.0839519 0.531024
0.0947838 -0.0842322 0.531193
0.09576 -0.0845141 0.531376
0.0967574 -0.0848164 0.53171
0.0977625 -0.0851244 0.532088
0.0987396 -0.0854057 0.532257
0.0997409 -0.0857084 0.53259
0.100753 -0.0860203 0.532991
0.101778 -0.0863426 0.533466
0.102807 -0.0866672 0.533958
0.103879 -0.0870292 0.534728
0.104937 -0.087377 0.535384
0.105997 -0.087725 0.536038
0.107048 -0.088064 0.536619
0.108163 -0.0884575 0.5376
0.109827 -0.090476 0.543738
0.109286 -0.0888545 0.538607
0.0646754 -0.0771096 0.554027
0.0656509 -0.0773699 0.553977
0.0666182 -0.0776199 0.55383
0.0675729 -0.0778536 0.553537
0.0685001 -0.0780518 0.552936
0.0694197 -0.0782421 0.552268
0.070224 -0.0782876 0.550336
0.0709905 -0.0782911 0.548056
0.0717182 -0.0782541 0.545436
0.0724374 -0.0782139 0.542811
0.0731546 -0.0781798 0.540253
0.0739922 -0.0782954 0.539003
0.0748534 -0.078442 0.538028
0.0757347 -0.0786152 0.537283
0.0766091 -0.0787812 0.536488
0.0774732 -0.0789386 0.535619
0.0783405 -0.079101 0.534802
0.0792185 -0.0792779 0.534109
0.0801168 -0.0794779 0.533618
0.081029 -0.079694 0.533264
0.0819588 -0.0799302 0.533077
0.0828938 -0.0801717 0.532937
0.083829 -0.0804138 0.5328
0.0847649 -0.0806568 0.532672
0.0857071 -0.0809067 0.532598
0.0866554 -0.0811618 0.532574
0.0875973 -0.081411 0.532496
0.0885391 -0.0816601 0.532418
0.0894598 -0.0818887 0.532172
0.0903706 -0.0821076 0.531851
0.091278 -0.0823237 0.53151
0.0921929 -0.0825474 0.531233
0.093118 -0.0827821 0.53104
0.0940827 -0.0830533 0.531145
0.0950651 -0.0833416 0.531378
0.0960484 -0.0836298 0.531609
0.0970456 -0.0839301 0.531934
0.0980518 -0.084238 0.532314
0.0990381 -0.0845267 0.532543
0.100058 -0.0848452 0.533003
0.101097 -0.0851791 0.533575
0.10215 -0.0855247 0.534237
0.103199 -0.0858657 0.534854
0.1043 -0.0862492 0.535797
0.105352 -0.0865896 0.536402
0.106406 -0.0869296 0.536999
0.107459 -0.0872686 0.537583
0.10857 -0.0876545 0.538519
0.109656 -0.0880181 0.539281
0.111312 -0.0900152 0.545279
0.111624 -0.0891161 0.54556
0.063911 -0.0758393 0.553515
0.0648924 -0.0761084 0.553547
0.0658654 -0.076367 0.553476
0.0668312 -0.0766158 0.553318
0.0677766 -0.0768379 0.552923
0.0686988 -0.0770311 0.552273
0.0696029 -0.0772031 0.55144
0.0703877 -0.0772291 0.549313
0.0711441 -0.0772271 0.54695
0.0718728 -0.077198 0.544369
0.072602 -0.0771766 0.541876
0.0733355 -0.077167 0.539507
0.0741914 -0.077308 0.53846
0.0750519 -0.0774561 0.537488
0.0759327 -0.0776296 0.536744
0.0768006 -0.0777909 0.535897
0.07767 -0.0779562 0.535087
0.0785436 -0.0781279 0.534339
0.0794285 -0.0783129 0.533714
0.0803271 -0.0785148 0.533232
0.0812436 -0.0787372 0.532923
0.082172 -0.0789721 0.532725
0.0831002 -0.0792068 0.532528
0.0840345 -0.0794482 0.532387
0.0849692 -0.0796907 0.532252
0.0859105 -0.0799397 0.532175
0.086852 -0.0801888 0.532097
0.0877933 -0.0804378 0.53202
0.0887347 -0.0806868 0.531942
0.0896617 -0.0809219 0.531749
0.0905797 -0.0811481 0.53149
0.0914951 -0.0813725 0.531214
0.0924185 -0.0816054 0.531005
0.0933591 -0.0818541 0.530928
0.0943321 -0.0821333 0.531095
0.095315 -0.082421 0.531329
0.0963138 -0.0827227 0.531672
0.0973127 -0.0830234 0.532005
0.0983212 -0.0833319 0.532396
0.0993177 -0.0836288 0.532693
0.100348 -0.0839554 0.533218
0.101389 -0.0842893 0.533801
0.102467 -0.0846549 0.534624
0.103534 -0.0850087 0.535352
0.104645 -0.0854003 0.536361
0.105716 -0.085754 0.537075
0.106787 -0.0861069 0.53778
0.10786 -0.0864596 0.538475
0.108958 -0.086832 0.539314
0.110036 -0.0871863 0.540013
0.112027 -0.0882904 0.546409
0.0641263 -0.0748365 0.553011
0.0651058 -0.0751047 0.553029
0.0660735 -0.075356 0.552899
0.067031 -0.075595 0.55265
0.0679655 -0.0758044 0.552138
0.0688756 -0.075985 0.551365
0.0697609 -0.076137 0.55034
0.0705217 -0.0761393 0.547974
0.0712743 -0.0761384 0.545599
0.0720122 -0.0761266 0.543146
0.0727581 -0.076132 0.540857
0.0735041 -0.076143 0.538642
0.0743813 -0.0763104 0.537823
0.0752401 -0.0764596 0.536846
0.0761142 -0.076628 0.536048
0.0769854 -0.0767955 0.535244
0.0778667 -0.0769754 0.534557
0.0787518 -0.0771611 0.533925
0.0796436 -0.0773557 0.53337
0.0805471 -0.0775635 0.532936
0.0814563 -0.0777786 0.532565
0.082377 -0.0780056 0.532301
0.0832971 -0.0782329 0.532038
0.0842304 -0.0784739 0.531894
0.0851645 -0.0787158 0.531758
0.0861054 -0.0789647 0.53168
0.0870463 -0.0792136 0.531603
0.0879807 -0.0794564 0.531473
0.088921 -0.0797045 0.531391
0.0898476 -0.0799403 0.531202
0.0907665 -0.0801681 0.530954
0.0916906 -0.0804021 0.530752
0.0926294 -0.0806496 0.530664
0.0935856 -0.0809129 0.530708
0.0945678 -0.0812002 0.530943
0.0955654 -0.0815006 0.531283
0.096572 -0.0818084 0.53168
0.0975801 -0.082116 0.532076
0.0985996 -0.0824332 0.532542
0.0996221 -0.0827522 0.533017
0.100662 -0.083085 0.533601
0.101705 -0.0834192 0.534188
0.102783 -0.0837823 0.535003
0.103851 -0.084135 0.53573
0.104955 -0.0845178 0.536683
0.106029 -0.0848723 0.537412
0.10712 -0.0852395 0.538232
0.108204 -0.0855999 0.538993
0.109302 -0.0859696 0.539825
0.11038 -0.0863215 0.540509
0.11237 -0.0874127 0.54688
0.0643414 -0.0738361 0.552512
0.0653143 -0.0740952 0.552453
0.0662816 -0.0743477 0.552327
0.0672246 -0.0745688 0.551915
0.0681474 -0.0747651 0.55128
0.0690383 -0.0749242 0.550304
0.0699022 -0.0750536 0.54906
0.070658 -0.0750559 0.546668
0.0714194 -0.0750724 0.54442
0.0721728 -0.0750852 0.542159
0.072943 -0.0751238 0.540146
0.073706 -0.0751596 0.538123
0.0745811 -0.075327 0.537294
0.0754325 -0.07547 0.536252
0.0763049 -0.0756387 0.535447
0.0771753 -0.0758071 0.534644
0.0780623 -0.0759945 0.53402
0.078948 -0.0761827 0.5334
0.0798455 -0.0763846 0.532906
0.080748 -0.0765927 0.532468
0.0816556 -0.0768065 0.532087
0.0825748 -0.0770335 0.531817
0.0834948 -0.077261 0.531557
0.0844279 -0.0775027 0.531417
0.0853617 -0.0777448 0.531282
0.086302 -0.0779936 0.531205
0.0872425 -0.0782423 0.531127
0.0881694 -0.0784783 0.530941
0.0891083 -0.0787258 0.530853
0.0900413 -0.0789672 0.530718
0.0909608 -0.0791969 0.53048
0.091893 -0.0794383 0.530343
0.0928463 -0.0796999 0.53037
0.0938037 -0.0799639 0.530423
0.0947857 -0.0802506 0.530657
0.0957995 -0.0805648 0.531117
0.0968228 -0.0808858 0.531632
0.0978487 -0.0812085 0.532153
0.0988927 -0.081546 0.532789
0.0999322 -0.0818786 0.533378
0.100974 -0.0822114 0.533968
0.102018 -0.0825437 0.534552
0.103087 -0.0828978 0.535301
0.104148 -0.0832425 0.53597
0.105254 -0.0836236 0.536927
0.10634 -0.0839866 0.53773
0.107435 -0.0843555 0.538569
0.108522 -0.084716 0.539341
0.109611 -0.0850762 0.540106
0.11067 -0.0854111 0.540666
0.112607 -0.0864476 0.546688
0.0645502 -0.0728287 0.551936
0.0655232 -0.0730887 0.551887
0.0664885 -0.0733385 0.551742
0.0674169 -0.0735426 0.551168
0.0683209 -0.0737189 0.550333
0.0691869 -0.0738503 0.549092
0.0700252 -0.0739528 0.547586
0.070787 -0.073969 0.545295
0.0715657 -0.0740118 0.543262
0.0723391 -0.0740537 0.541239
0.0731335 -0.0741242 0.539497
0.0739177 -0.0741884 0.537707
0.0747799 -0.0743436 0.536755
0.0756236 -0.0744806 0.535648
0.076494 -0.0746487 0.534832
0.0773642 -0.0748185 0.534036
0.0782512 -0.0750087 0.533423
0.0791435 -0.0752048 0.532873
0.0800464 -0.0754132 0.532434
0.0809482 -0.0756218 0.531997
0.0818552 -0.0758362 0.531615
0.0827746 -0.0760641 0.531351
0.0836948 -0.0762929 0.5311
0.0846283 -0.076535 0.530966
0.0855621 -0.0767778 0.530835
0.086502 -0.0770264 0.530758
0.0874419 -0.0772751 0.53068
0.0883678 -0.0775098 0.530488
0.0893057 -0.0777571 0.530396
0.0902441 -0.0780039 0.530307
0.0911704 -0.0782408 0.530127
0.09211 -0.0784893 0.53005
0.0930701 -0.0787564 0.530128
0.0940344 -0.0790271 0.530235
0.0950166 -0.0793125 0.530468
0.0960394 -0.0796338 0.530992
0.0970797 -0.079969 0.531629
0.0981245 -0.0803067 0.532281
0.0991861 -0.0806576 0.533036
0.100243 -0.081003 0.533738
0.101294 -0.0813416 0.534382
0.102339 -0.0816737 0.53497
0.103394 -0.0820133 0.535609
0.104436 -0.0823408 0.53615
0.105533 -0.0827124 0.537038
0.10662 -0.0830741 0.537842
0.107711 -0.0834375 0.538648
0.108809 -0.0838045 0.539484
0.109899 -0.0841643 0.540252
0.110947 -0.0844894 0.540742
0.112806 -0.0854513 0.54625
0.0657465 -0.0721011 0.551498
0.0667006 -0.0723374 0.551224
0.0676128 -0.0725234 0.55047
0.068494 -0.0726746 0.549386
0.0693352 -0.0727808 0.547887
0.070145 -0.0728543 0.546092
0.0709147 -0.0728858 0.543918
0.0717107 -0.0729533 0.542099
0.0725021 -0.0730211 0.540291
0.0733137 -0.0731154 0.538747
0.0741174 -0.0732052 0.537172
0.0749667 -0.0733484 0.5361
0.0758087 -0.073486 0.534988
0.0766783 -0.0736559 0.534175
0.0775542 -0.073834 0.533445
0.078447 -0.0740313 0.532893
0.0793444 -0.0742345 0.532399
0.0802463 -0.0744428 0.531956
0.0811479 -0.0746525 0.531523
0.0820615 -0.0748743 0.531205
0.0829881 -0.0751094 0.531008
0.0839155 -0.0753456 0.530821
0.0848555 -0.0755943 0.530743
0.0857954 -0.0758429 0.530666
0.0867353 -0.0760916 0.530589
0.0876753 -0.0763402 0.530511
0.0886009 -0.0765756 0.530319
0.0895389 -0.0768228 0.530227
0.0904773 -0.0770697 0.530138
0.0913968 -0.0773005 0.529905
0.0923359 -0.0775483 0.529824
0.0932886 -0.0778089 0.529847
0.0942588 -0.0780846 0.529999
0.0952486 -0.0783764 0.530289
0.096294 -0.0787155 0.530976
0.0973534 -0.0790659 0.531746
0.0984168 -0.0794178 0.532525
0.0994825 -0.0797702 0.533301
0.10054 -0.0801144 0.534004
0.101585 -0.0804452 0.534593
0.102614 -0.0807637 0.535069
0.10366 -0.0810945 0.535646
0.104693 -0.0814126 0.536118
0.105779 -0.0817733 0.536929
0.106855 -0.0821248 0.537659
0.107946 -0.0824861 0.538467
0.109045 -0.0828526 0.539306
0.110136 -0.083212 0.540078
0.111193 -0.083542 0.540616
0.112231 -0.0838575 0.541029
0.0650292 -0.0708947 0.551552
0.0659852 -0.0711342 0.551298
0.0669251 -0.0713539 0.550859
0.0678209 -0.071522 0.549921
0.0686832 -0.0716525 0.548631
0.0695014 -0.0717359 0.546892
0.070299 -0.0717998 0.544984
0.0710731 -0.0718424 0.542885
0.0718696 -0.0719149 0.541093
0.072666 -0.0719923 0.539357
0.0734858 -0.0721002 0.537919
0.0742932 -0.0721972 0.536397
0.0751363 -0.0723369 0.535278
0.0759884 -0.0724883 0.534279
0.0768633 -0.0726652 0.533528
0.0777455 -0.0728516 0.532868
0.0786437 -0.0730561 0.532375
0.079546 -0.0732657 0.531933
0.0804471 -0.073474 0.531488
0.0813484 -0.0736846 0.531058
0.0822624 -0.0739071 0.530748
0.0831892 -0.0741431 0.530558
0.0841166 -0.07438 0.530375
0.0850561 -0.0746286 0.530297
0.0859956 -0.0748771 0.53022
0.0869415 -0.0751315 0.530195
0.087888 -0.0753869 0.530174
0.0888212 -0.0756298 0.530046
0.0897668 -0.0758832 0.530015
0.0907126 -0.0761373 0.529985
0.0916247 -0.0763613 0.529695
0.0925628 -0.0766086 0.529607
0.0935152 -0.0768688 0.529629
0.0944928 -0.0771499 0.529834
0.0954915 -0.0774494 0.530189
0.0965534 -0.0778013 0.530993
0.0976154 -0.0781519 0.531777
0.098688 -0.0785091 0.532616
0.0997547 -0.0788607 0.533394
0.100813 -0.0792033 0.534095
0.101858 -0.0795342 0.534684
0.102895 -0.0798572 0.535208
0.103934 -0.0801801 0.53573
0.104948 -0.0804831 0.536076
0.106015 -0.0808264 0.536758
0.107072 -0.0811603 0.537355
0.108152 -0.0815121 0.538092
0.109251 -0.081877 0.538933
0.110351 -0.0822417 0.539761
0.111401 -0.0825657 0.540258
0.113298 -0.0835365 0.545979
0.0640714 -0.0706545 0.551792
0.0633672 -0.069465 0.552023
0.064324 -0.0697043 0.551764
0.065273 -0.0699334 0.551413
0.066222 -0.0701638 0.551073
0.0671473 -0.0703674 0.550466
