ply
format ascii 1.0
element vertex 1647
property float x
property float y
property float z
end_header
0.0607417 0.0690047 0.414125
0.0604425 0.067893 0.413335
0.0601256 0.0667565 0.412345
0.059797 0.065605 0.411216
0.0594468 0.0644246 0.409842
0.0590985 0.0632502 0.408475
0.0587428 0.0620685 0.407014
0.0583934 0.0608997 0.40561
0.0580658 0.0597655 0.404435
0.0577674 0.0586756 0.403574
0.0574902 0.0576181 0.402944
0.0572511 0.0566154 0.402737
0.0570282 0.0556359 0.40271
0.0568146 0.0546694 0.402787
0.0565962 0.0536966 0.402808
0.0563729 0.0527177 0.402773
0.0561487 0.0517378 0.402725
0.0559246 0.0507586 0.402678
0.0556966 0.0497749 0.402583
0.0555032 0.0488361 0.40289
0.0553176 0.0479068 0.403289
0.0551386 0.0469854 0.403769
0.054963 0.0460672 0.404291
0.0548037 0.0451682 0.405011
0.054627 0.0442467 0.405529
0.0544516 0.0433258 0.406065
0.0542554 0.0423794 0.406354
0.0540358 0.0414052 0.406362
0.0537985 0.0404108 0.406152
0.0535476 0.0394018 0.405775
0.0533052 0.0384036 0.405496
0.0530885 0.0374351 0.40553
0.0528918 0.0364888 0.405811
0.0526953 0.0355423 0.406095
0.0525033 0.0346002 0.406436
0.0523034 0.0336494 0.406681
0.0513781 0.0289633 0.408872
0.0511557 0.0279884 0.408837
0.0509356 0.0270159 0.408829
0.050717 0.0260453 0.408839
0.0505138 0.025089 0.409051
0.0503123 0.0241339 0.409285
0.0501185 0.0231851 0.409621
0.0499061 0.0222203 0.409712
0.0497048 0.0212647 0.409951
0.0494879 0.0202963 0.409982
0.04928 0.0193353 0.410134
0.0490724 0.0183744 0.410288
0.0488721 0.0174192 0.410544
0.0486599 0.0164548 0.410635
0.0484432 0.0154874 0.410666
0.048226 0.0145199 0.410687
0.0479959 0.013544 0.410528
0.047765 0.0125684 0.410355
0.0475341 0.0115937 0.410178
0.0473125 0.0106257 0.41013
0.0470844 0.00965434 0.409986
0.0468679 0.00869056 0.410007
0.0466671 0.00773588 0.410251
0.0464762 0.00678623 0.410638
0.0462915 0.00583912 0.411118
0.0461147 0.0048951 0.411719
0.0459397 0.00395049 0.412351
0.0457483 0.00299695 0.412745
0.0455643 0.00204599 0.413252
0.0453735 0.00109108 0.41366
0.0451825 0.000135358 0.41407
0.0449901 -0.000821675 0.414461
0.0448121 -0.00177453 0.415074
0.0446322 -0.00272926 0.415662
0.0444619 -0.00368282 0.416403
0.0442984 -0.00463629 0.417256
0.044149 -0.00558796 0.418335
0.044004 -0.00654172 0.419494
0.0438803 -0.00749429 0.420999
0.0437962 -0.00844464 0.423147
0.0437173 -0.00939984 0.425398
0.0436219 -0.0103641 0.427412
0.0435092 -0.0113359 0.429171
0.0625222 0.0719612 0.415244
0.0622466 0.0708829 0.414735
0.0620005 0.0698509 0.414533
0.0617462 0.0688072 0.41424
0.0614579 0.0677139 0.413583
0.0611522 0.0665968 0.412734
0.0608332 0.0654624 0.411734
0.0604856 0.0642892 0.410417
0.0601277 0.0631044 0.408977
0.0597668 0.061919 0.407491
0.0594033 0.0607337 0.405964
0.0590678 0.0595915 0.404729
0.0587619 0.0584937 0.403808
0.0584825 0.0574347 0.403168
0.058238 0.0564251 0.402909
0.0580148 0.0554453 0.402883
0.0578017 0.0544794 0.402969
0.0575837 0.0535071 0.402998
0.0573655 0.0525349 0.403025
0.0571466 0.051562 0.403042
0.0569273 0.0505889 0.403054
0.0567029 0.0496096 0.403006
0.0565087 0.0486689 0.403304
0.0563174 0.0477313 0.403636
0.0561331 0.0468019 0.40405
0.0559576 0.0458824 0.404567
0.0558003 0.044984 0.405302
0.0556354 0.0440751 0.405952
0.0554719 0.0431667 0.406623
0.0552876 0.0422328 0.407053
0.0550787 0.0412702 0.407194
0.0548462 0.0402808 0.407053
0.0545899 0.0392657 0.406626
0.0543408 0.0382598 0.406278
0.0541171 0.0372828 0.406235
0.0539015 0.0363149 0.406286
0.0536907 0.0353523 0.406396
0.0534925 0.0344029 0.406661
0.0532862 0.0334449 0.406826
0.0521688 0.0278073 0.409345
0.0519515 0.0268369 0.40938
0.0517338 0.0258665 0.409408
0.0515259 0.024905 0.409561
0.051324 0.0239485 0.409791
0.0511303 0.0229988 0.410128
0.0509124 0.0220286 0.410152
0.0507019 0.0210647 0.410271
0.0504749 0.020088 0.410174
0.0502575 0.0191191 0.4102
0.0500406 0.0181511 0.410232
0.0498359 0.0171923 0.410427
0.0496232 0.0162277 0.410513
0.0494108 0.0152634 0.410604
0.0491982 0.0142991 0.410691
0.0489722 0.0133262 0.410596
0.0487451 0.0123532 0.410483
0.0485133 0.0113781 0.410302
0.0482905 0.0104093 0.410243
0.0480657 0.00943986 0.410153
0.0478538 0.00847836 0.410241
0.0476584 0.00752605 0.41056
0.0474766 0.00658026 0.411074
0.0472973 0.00563467 0.411628
0.0471217 0.0046897 0.412236
0.0469519 0.00374598 0.412933
0.0467648 0.00279304 0.413387
0.0465814 0.00184071 0.413899
0.0463905 0.000884413 0.414305
0.0461994 -7.26919e-05 0.414711
0.0460027 -0.00103258 0.415036
0.0458214 -0.00198795 0.415592
0.045638 -0.00294507 0.41612
0.0454641 -0.00390138 0.416799
0.0453013 -0.0048558 0.417646
0.0451533 -0.00580844 0.418725
0.0450179 -0.00676205 0.420009
0.0449125 -0.00771316 0.421765
0.0448282 -0.00866585 0.423862
0.0447434 -0.0096248 0.425975
0.0446399 -0.0105919 0.427817
0.0447184 -0.0115477 0.432532
0.0634718 0.0716761 0.414759
0.0632272 0.0706464 0.41458
0.0629874 0.0696246 0.414448
0.0627404 0.0685929 0.414239
0.0624677 0.0675245 0.413759
0.062173 0.0664257 0.413044
0.0618541 0.0652941 0.412067
0.061515 0.0641366 0.410868
0.061159 0.0629581 0.409479
0.0607844 0.0617573 0.407879
0.060417 0.0605706 0.406343
0.0600779 0.0594265 0.405095
0.0597644 0.0583206 0.404113
0.0594772 0.0572527 0.403406
0.0592358 0.0562477 0.403188
0.059012 0.0552671 0.403161
0.0588041 0.0543078 0.403306
0.0585913 0.0533421 0.403398
0.0583782 0.052376 0.403485
0.0581598 0.0514033 0.403512
0.057941 0.0504305 0.403535
0.0577169 0.0494515 0.403498
0.057523 0.0485098 0.403797
0.0573312 0.0475704 0.404122
0.0571469 0.0466396 0.404534
0.0569765 0.0457247 0.405106
0.0568255 0.0448316 0.405904
0.0566619 0.0439221 0.406562
0.0565054 0.0430195 0.407306
0.0563315 0.0420957 0.407854
0.0561294 0.0411396 0.408079
0.0559032 0.0401565 0.408022
0.0556517 0.0391465 0.407667
0.0554001 0.0381376 0.407306
0.0551783 0.0371615 0.407292
0.0549643 0.0361941 0.407372
0.0547416 0.0352178 0.407346
0.0545432 0.0342664 0.407609
0.0543415 0.0333117 0.407835
0.0541748 0.0323911 0.408485
0.05346 0.028651 0.410538
0.0531999 0.0276402 0.410052
0.0529854 0.0266714 0.410127
0.0527668 0.0256993 0.410151
0.052559 0.0247367 0.410308
0.0523479 0.0237712 0.410424
0.0521441 0.0228119 0.410634
0.051912 0.0218296 0.410481
0.0516869 0.0208538 0.410417
0.0514491 0.0198687 0.410187
0.0512264 0.018896 0.410149
0.0510042 0.0179241 0.410114
0.0507995 0.0169652 0.410307
0.0505865 0.0160005 0.410392
0.0503782 0.0150391 0.410538
0.050174 0.0140804 0.410738
0.049953 0.0131106 0.410714
0.0497304 0.0121405 0.410668
0.0495062 0.01117 0.410599
0.0492874 0.0102032 0.4106
0.0490626 0.00923348 0.410518
0.0488588 0.00827579 0.410722
0.0486724 0.007327 0.411163
0.0484961 0.00638251 0.411747
0.0483178 0.0054357 0.412308
0.0481425 0.0044892 0.412916
0.0479688 0.00354205 0.413551
0.0477778 0.00258596 0.413946
0.047591 0.00163101 0.414405
0.0474005 0.000673637 0.414814
0.0472097 -0.000284695 0.41522
0.0470132 -0.00124586 0.415549
0.0468324 -0.002202 0.416104
0.0466492 -0.00316103 0.416633
0.0464758 -0.00411769 0.417306
0.0463134 -0.00507339 0.418146
0.0461702 -0.00602746 0.419279
0.0460411 -0.00698134 0.420631
0.0459391 -0.0079339 0.422401
0.0458542 -0.00888942 0.424447
0.0457646 -0.00985118 0.426442
0.0456508 -0.0108215 0.428091
0.0642073 0.0704094 0.41442
0.0639659 0.0693861 0.414277
0.0637261 0.0683658 0.414147
0.0634671 0.0673186 0.413819
0.0631889 0.0662454 0.413289
0.0628806 0.0651313 0.412443
0.0625573 0.0639988 0.411433
0.0622043 0.062828 0.410105
0.0618264 0.0616264 0.408505
0.0614506 0.0604317 0.406912
0.0611086 0.0592866 0.405662
0.0607814 0.0581646 0.404557
0.0604862 0.0570876 0.403782
0.0602379 0.056074 0.403499
0.0600077 0.0550851 0.403409
0.0597947 0.0541187 0.4035
0.0595868 0.0531588 0.403646
0.0593788 0.0521989 0.403791
0.0591658 0.0512329 0.403883
0.0589526 0.0502665 0.40397
0.0587339 0.0492937 0.403997
0.0585358 0.0483461 0.404252
0.05834 0.0474008 0.404532
0.0581559 0.0464689 0.404942
0.0579914 0.0455592 0.405574
0.0578423 0.0446659 0.406383
0.0576847 0.0437615 0.407102
0.0575319 0.0428609 0.407881
0.0573627 0.0419407 0.408478
0.0571705 0.040994 0.408816
0.0569558 0.0400227 0.408898
0.0567142 0.0390231 0.408672
0.0564709 0.0380225 0.408421
0.056253 0.0370492 0.408462
0.0560387 0.03608 0.408545
0.0558371 0.0351235 0.408774
0.0542244 0.0274643 0.410644
0.0540076 0.0264927 0.410697
0.0537899 0.0255205 0.410736
0.0535812 0.0245562 0.410887
0.0533689 0.0235889 0.410992
0.0531558 0.0226212 0.411087
0.0529122 0.0216296 0.4108
0.0526801 0.0206482 0.410654
0.0524312 0.0196549 0.410293
0.0521984 0.0186749 0.410132
0.0519716 0.0176999 0.410044
0.0517671 0.0167409 0.410239
0.0515498 0.0157734 0.41027
0.0513458 0.0148147 0.410471
0.0511466 0.0138591 0.410736
0.0509348 0.0128952 0.410836
0.0507217 0.0119307 0.410919
0.0505073 0.0109656 0.410985
0.0502935 0.0100011 0.411058
0.0500764 0.00903498 0.411086
0.0498778 0.00807894 0.411361
0.0496964 0.00713131 0.411868
0.049521 0.00618557 0.412459
0.0493421 0.0052368 0.413006
0.0491615 0.00428615 0.413536
0.048983 0.00333523 0.414097
0.0487878 0.00237629 0.414433
0.0485976 0.00141875 0.414839
0.0484074 0.000460362 0.415249
0.0482163 -0.000499097 0.415649
0.0480203 -0.0014609 0.415983
0.0478403 -0.00241869 0.416546
0.0476623 -0.00337656 0.417138
0.0474895 -0.00433475 0.417811
0.047328 -0.00529215 0.418654
0.0471863 -0.00624722 0.419787
0.0470554 -0.00720319 0.421088
0.0469562 -0.00815757 0.422862
0.0468713 -0.00911451 0.424865
0.0467806 -0.0100785 0.426803
0.0466611 -0.011051 0.428333
0.0651855 0.0701699 0.414243
0.0649425 0.0691451 0.414089
0.0647059 0.0681301 0.413995
0.0644555 0.0670963 0.413761
0.0641886 0.0660406 0.413358
0.0638975 0.0649527 0.412704
0.0635907 0.0638453 0.411884
0.0632533 0.0626987 0.410743
0.0628842 0.0615126 0.409266
0.0625047 0.0603166 0.407669
0.0621539 0.0591624 0.406355
0.0618077 0.0580178 0.405079
0.0614986 0.0569244 0.404177
0.0612377 0.0558952 0.403772
0.0610014 0.0548986 0.403622
0.060783 0.0539251 0.403659
0.06058 0.0529712 0.403859
0.0603719 0.0520107 0.404004
0.0601638 0.0510503 0.40415
0.0599558 0.0500899 0.404296
0.0597428 0.0491235 0.404388
0.0595503 0.0481816 0.404703
0.0593598 0.0472414 0.405039
0.0591811 0.0463144 0.405508
0.0590185 0.0454049 0.406154
0.0588705 0.0445107 0.406968
0.0587087 0.0435993 0.407632
0.0585549 0.0426954 0.40839
0.0583843 0.0417718 0.408966
0.0582017 0.0408343 0.409411
0.057998 0.0398739 0.409622
0.0577671 0.0388851 0.409526
0.0575344 0.0378949 0.409407
0.0573221 0.0369261 0.409519
0.0571181 0.0359656 0.409726
0.056941 0.0350314 0.410241
0.0567691 0.0341012 0.410819
0.0555115 0.0282983 0.411694
0.0552388 0.0272771 0.411089
0.0550178 0.0263014 0.411096
0.0548048 0.0253326 0.411196
0.0545958 0.0243673 0.411344
0.0543823 0.0233984 0.41144
0.0541675 0.0224284 0.411516
0.0539175 0.0214321 0.411163
0.0536793 0.0204459 0.410951
0.0534234 0.0194479 0.410517
0.0531806 0.0184606 0.410238
0.0529441 0.0174789 0.410036
0.0527394 0.0165197 0.410227
0.0525223 0.0155521 0.410263
0.0523278 0.0145994 0.410585
0.0521388 0.0136496 0.410977
0.0519413 0.0126939 0.411262
0.0517387 0.0117348 0.411484
0.0515337 0.0107743 0.411677
0.0513248 0.00981131 0.411819
0.051113 0.00884685 0.411922
0.0509144 0.00788935 0.412199
0.0507291 0.00693796 0.41265
0.0505495 0.00598829 0.413181
0.0503615 0.00503376 0.413603
0.0501711 0.00407735 0.413997
0.0499829 0.00312117 0.414422
0.0497828 0.00215942 0.41469
0.0495884 0.0011995 0.415036
0.0494024 0.000241882 0.415499
0.0492159 -0.000716837 0.415958
0.0490248 -0.0016778 0.416357
0.0488503 -0.00263483 0.416986
0.0486776 -0.00359276 0.417647
0.0485055 -0.0045526 0.418323
0.04835 -0.00550963 0.419234
0.0482062 -0.00646735 0.42032
0.0480728 -0.00742572 0.421562
0.0479711 -0.00838216 0.423267
0.0478837 -0.00934198 0.425194
0.047788 -0.0103081 0.427019
0.0478671 -0.0112629 0.43139
0.0659298 0.0689195 0.414008
0.0656998 0.0679142 0.413984
0.0654576 0.0668926 0.413838
0.0652061 0.065859 0.413598
0.0649213 0.0647813 0.413021
0.064621 0.0636847 0.412285
0.0642886 0.0625474 0.411217
0.0639281 0.0613761 0.409857
0.0635454 0.0601794 0.40826
0.0631913 0.0590239 0.40694
0.0628403 0.0578759 0.405642
0.0625282 0.0567805 0.40473
0.062254 0.0557351 0.4042
0.0620111 0.0547303 0.403989
0.061786 0.0537484 0.403961
0.0615778 0.0527874 0.404107
0.0613644 0.05182 0.404198
0.0611667 0.0508715 0.404454
0.0609696 0.0499236 0.404717
0.0607728 0.0489756 0.404985
0.0605917 0.0480456 0.405421
0.0604113 0.0471154 0.405866
0.0602324 0.0461863 0.406329
0.06007 0.0452747 0.406974
0.0599087 0.0443631 0.407634
0.0597362 0.0434381 0.408177
0.0595719 0.0425208 0.408812
0.0593957 0.0415896 0.40932
0.0592091 0.0406467 0.409718
0.0590117 0.0396921 0.409999
0.0587873 0.0387097 0.409982
0.0585648 0.0377296 0.409984
0.0583589 0.0367663 0.410171
0.0581641 0.0358135 0.410481
0.0579991 0.0348891 0.411131
0.0578474 0.0339758 0.411935
0.0577107 0.0330747 0.412915
0.0560516 0.0303419 0.412822
0.0573194 0.03116 0.413544
0.0570351 0.0301236 0.412839
0.056771 0.0291072 0.412362
0.056497 0.028084 0.411764
0.0562379 0.0270751 0.411332
0.0560181 0.0261001 0.411358
0.0558043 0.0251303 0.411451
0.0555997 0.0241679 0.411653
0.0553907 0.0232019 0.411804
0.0551713 0.0222281 0.411831
0.0549258 0.0212352 0.411543
0.054682 0.0202449 0.411273
0.0544204 0.019243 0.410783
0.0541712 0.0182515 0.410437
0.0539324 0.0172684 0.410216
0.0537232 0.0163056 0.410351
0.0535103 0.0153406 0.410443
0.0533216 0.0143908 0.410834
0.0531389 0.0134439 0.411301
0.0529523 0.0124938 0.411722
0.0527594 0.0115393 0.412067
0.0525646 0.0105832 0.412391
0.0523602 0.00962151 0.412592
0.0521565 0.00865999 0.412805
0.0519625 0.00770312 0.413142
0.0517781 0.00675017 0.413605
0.0515934 0.00579622 0.414065
0.0513992 0.00483723 0.414407
0.0511991 0.0038751 0.414673
0.0510021 0.00291394 0.414981
0.0507972 0.00194916 0.415187
0.050602 0.000987882 0.415522
0.0504121 2.76688e-05 0.415928
0.050226 -0.000932031 0.416389
0.0500362 -0.0018936 0.416801
0.0498629 -0.00285152 0.417439
0.0496994 -0.00380895 0.418218
0.0495378 -0.00476748 0.419027
0.0493841 -0.00572581 0.41995
0.0492421 -0.00668493 0.421043
0.0491044 -0.00764591 0.422204
0.0489822 -0.00860822 0.423595
0.0488747 -0.00957226 0.425201
0.048763 -0.0105409 0.426763
0.0669202 0.0686978 0.413954
0.0666951 0.0676997 0.413982
0.0664658 0.066696 0.413967
0.0662219 0.0656732 0.413808
0.0659467 0.0646098 0.41334
0.0656567 0.0635284 0.412721
0.0653348 0.0624072 0.41178
0.0649725 0.0612366 0.41043
0.064592 0.0600463 0.408886
0.0642399 0.058896 0.407614
0.0638796 0.0577388 0.406249
0.0635593 0.056635 0.405275
0.0632818 0.0555866 0.404727
0.0630375 0.0545802 0.404511
0.0628007 0.0535837 0.404367
0.0625914 0.0526207 0.404504
0.0623771 0.0516519 0.40459
0.0621803 0.0507035 0.404855
0.0619849 0.0497566 0.405136
0.0617949 0.0488155 0.405474
0.0616152 0.0478854 0.405922
0.0614356 0.0469548 0.406372
0.0612571 0.0460246 0.406838
0.0610947 0.0451111 0.407475
0.0609329 0.0441971 0.408123
0.0607542 0.0432639 0.408595
0.0605846 0.0423393 0.409167
0.0604036 0.0414018 0.40962
0.0602132 0.040454 0.409974
0.0600166 0.0394994 0.410263
0.0598021 0.0385267 0.410358
0.0595909 0.0375572 0.410488
0.05939 0.0365978 0.410731
0.0591932 0.0356421 0.411021
0.0590194 0.0347075 0.411565
0.0588492 0.0337752 0.412155
0.0586811 0.0328436 0.412769
0.0584842 0.031885 0.413066
0.0582508 0.0308941 0.412954
0.057977 0.0298691 0.412383
0.0577265 0.0288656 0.41207
0.0574647 0.0278541 0.411623
0.0572171 0.0268557 0.411335
0.0570022 0.0258846 0.411418
0.0567928 0.0249181 0.411565
0.0565933 0.0239592 0.411827
0.0563899 0.0229971 0.412044
0.0561765 0.0220272 0.412144
0.055937 0.0210388 0.411937
0.0556986 0.0200522 0.411741
0.0554403 0.0190528 0.411306
0.0551887 0.0180595 0.410945
0.0549439 0.0170721 0.41066
0.0547286 0.0161047 0.410727
0.0545153 0.0151388 0.410816
0.054328 0.0141888 0.411221
0.0541466 0.0132415 0.4117
0.0539659 0.0122936 0.412189
0.053778 0.0113408 0.412594
0.0535924 0.0103884 0.413031
0.0533925 0.00942789 0.413292
0.0531984 0.00846987 0.413627
0.0530093 0.00751379 0.414027
0.0528243 0.0065588 0.41448
0.0526302 0.00559876 0.414819
0.0524306 0.00463593 0.415092
0.052221 0.00366868 0.415238
0.0520152 0.00270287 0.415434
0.0518056 0.00173556 0.415581
0.0516104 0.000773216 0.415912
0.0514161 -0.000189424 0.41626
0.0512313 -0.00114967 0.416731
0.0510501 -0.00210993 0.417254
0.0508865 -0.0030668 0.418014
0.0507381 -0.00402114 0.41898
0.0505918 -0.00497814 0.419984
0.0504446 -0.00593786 0.420981
0.0502988 -0.00689999 0.422009
0.0501479 -0.00786572 0.422976
0.049994 -0.00883432 0.42391
0.0500315 -0.00978208 0.427467
0.0500969 -0.0107382 0.431444
0.0677295 0.0675365 0.41435
0.0674999 0.0665323 0.414336
0.0672647 0.0655212 0.414268
0.0670038 0.0644772 0.41395
0.0667059 0.0633867 0.41327
0.0663764 0.0622577 0.412275
0.0660225 0.0611008 0.411034
0.0656391 0.0599102 0.409493
0.0652845 0.0587592 0.408222
0.0649223 0.0576026 0.406866
0.0645993 0.0564973 0.405888
0.0643158 0.0554423 0.405293
0.0640695 0.0544335 0.405065
0.0638251 0.0534279 0.404854
0.0636148 0.052463 0.404983
0.0633999 0.0514929 0.405065
0.0632035 0.0505441 0.405336
0.0630091 0.0495972 0.405626
0.0628214 0.0486574 0.405987
0.0626376 0.0477214 0.406389
0.0624531 0.046784 0.406788
0.0622738 0.0458516 0.407241
0.0621061 0.0449308 0.407817
0.0619332 0.0440034 0.408342
0.0617535 0.043068 0.408799
0.0615834 0.0421415 0.40936
0.0613976 0.0411982 0.409758
0.0612076 0.04025 0.410113
0.0610162 0.0392999 0.410455
0.0608064 0.0383315 0.410604
0.0606002 0.0373664 0.41079
0.0603943 0.0364015 0.410979
0.0601917 0.0354396 0.411205
0.0600107 0.0344973 0.411665
0.059826 0.0335508 0.412088
0.0596392 0.0326017 0.412491
0.059429 0.0316315 0.412638
0.0591945 0.0306405 0.412517
0.0589312 0.0296259 0.412073
0.0586852 0.0286273 0.411818
0.058426 0.027619 0.411411
0.0581903 0.026631 0.411264
0.0579706 0.0256562 0.411296
0.0577661 0.0246935 0.411498
0.0575726 0.0237388 0.411826
0.0573854 0.0227882 0.412226
0.0571842 0.0218269 0.41247
0.056965 0.0208527 0.412506
0.0567366 0.0198725 0.412434
0.0564875 0.018879 0.412121
0.05623 0.0178812 0.411705
0.0559837 0.0168923 0.411416
0.0557578 0.0159171 0.411363
0.0555389 0.0149468 0.41139
0.0553507 0.013995 0.411782
0.0551695 0.0130463 0.41226
0.0549935 0.0120997 0.412803
0.0548105 0.0111481 0.413265
0.0546299 0.0101968 0.41376
0.0544356 0.00923771 0.41409
0.0542518 0.00828316 0.414551
0.0540638 0.00732564 0.414963
0.0538751 0.00636712 0.415369
0.0536751 0.005403 0.415638
0.0534652 0.00443426 0.415783
0.0532456 0.00346193 0.415809
0.0530308 0.00249169 0.415894
0.0528162 0.00152161 0.41598
0.0526165 0.000556836 0.416254
0.052422 -0.000406666 0.416595
0.052242 -0.0013665 0.417125
0.0520705 -0.00232533 0.417766
0.0519271 -0.00327792 0.418777
0.0517999 -0.00422971 0.420005
0.051666 -0.00518629 0.421157
0.0515211 -0.00614822 0.422175
0.0513702 -0.00711417 0.423122
0.0513681 -0.00805866 0.426046
0.0513702 -0.00901182 0.429055
0.0686018 0.0664543 0.415331
0.0683678 0.0654438 0.415281
0.0681059 0.0643983 0.414965
0.0677916 0.0632877 0.414145
0.067446 0.0621404 0.413019
0.0670831 0.0609744 0.411716
0.0666907 0.0597759 0.410119
0.0663275 0.0586171 0.408791
0.0659631 0.0574606 0.407441
0.0656387 0.0563553 0.406469
0.065348 0.0552928 0.40582
0.0651008 0.0542829 0.405591
0.0648614 0.0532832 0.405438
0.064651 0.0523174 0.405569
0.0644356 0.0513459 0.40565
0.0642448 0.0504021 0.405976
0.0640552 0.0494594 0.406316
0.0638666 0.0485171 0.406667
0.0636878 0.0475849 0.407119
0.0635083 0.0466513 0.407567
0.063324 0.0457117 0.407966
0.0631454 0.0447776 0.408428
0.0629609 0.0438365 0.40883
0.0627705 0.0428887 0.409174
0.0625895 0.0419499 0.409617
0.0623981 0.041 0.409954
0.0622014 0.0400444 0.410238
0.0620146 0.039098 0.410626
0.0618051 0.0381294 0.410777
0.0615996 0.0371646 0.410971
0.0613946 0.0362 0.411171
0.0611957 0.035241 0.411436
0.060998 0.0342827 0.411714
0.0608048 0.0333279 0.412043
0.0606001 0.0323628 0.412248
0.0603732 0.0313785 0.412214
0.0601394 0.0303889 0.412103
0.059889 0.0293864 0.411811
0.0596494 0.0283938 0.411631
0.0594065 0.0273995 0.411414
0.0591855 0.0264232 0.411435
0.0589655 0.025448 0.411466
0.0587613 0.024485 0.411672
0.0585736 0.0235339 0.412063
0.0583931 0.0225873 0.412536
0.0582032 0.0216332 0.412907
0.0579953 0.0206661 0.413074
0.0577727 0.0196891 0.413076
0.0575282 0.0186981 0.412826
0.057275 0.0177028 0.412474
0.0570284 0.016713 0.412193
0.0568015 0.0157362 0.412136
0.0565855 0.0147665 0.412203
0.0564009 0.0138151 0.412638
0.0562201 0.0128649 0.413118
0.0560439 0.0119162 0.413655
0.0558655 0.0109652 0.41417
0.0556904 0.0100148 0.414727
0.0554976 0.00905458 0.415078
0.0553161 0.00809905 0.415564
0.0551239 0.00713779 0.415926
0.0549253 0.00617297 0.416211
0.0547142 0.00520262 0.416347
0.0544934 0.00422843 0.416364
0.0542636 0.00325123 0.416269
0.0540428 0.00227801 0.416285
0.0538224 0.00130527 0.416303
0.0536216 0.000339303 0.416563
0.0534274 -0.000625014 0.416907
0.0532578 -0.00158277 0.41756
0.0530977 -0.0025398 0.418339
0.0529716 -0.00348996 0.419553
0.0528629 -0.00444006 0.420999
0.0527373 -0.005397 0.422239
0.0525938 -0.00636102 0.423263
0.0526049 -0.00730222 0.426289
0.0527879 -0.0082265 0.431567
0.0697525 0.0664327 0.416743
0.069507 0.0654063 0.416594
0.0692421 0.0643566 0.416263
0.0689189 0.0632356 0.415381
0.0685689 0.0620842 0.414238
0.0681887 0.0608992 0.4128
0.0677841 0.0596885 0.411118
0.0673994 0.0585062 0.409614
0.0670248 0.0573398 0.408192
0.0666918 0.0562261 0.40716
0.066405 0.0551689 0.406564
0.066152 0.0541522 0.406288
0.0659123 0.0531518 0.40614
0.0656965 0.0521789 0.406222
0.0654814 0.0512069 0.40631
0.0652899 0.050261 0.406629
0.0651111 0.0493286 0.407076
0.0649275 0.0483901 0.407476
0.0647483 0.0474557 0.407923
0.0645622 0.0465133 0.408302
0.0643707 0.0455648 0.40863
0.0641809 0.0446174 0.408976
0.0639859 0.0436643 0.409271
0.0637946 0.0427146 0.409605
0.0636016 0.0417626 0.409923
0.0634041 0.0408058 0.410196
0.0632012 0.0398436 0.410415
0.0630143 0.0388963 0.4108
0.0628054 0.0379278 0.410958
0.0626064 0.0369684 0.41122
0.0624022 0.0360041 0.411428
0.0621983 0.0350398 0.41164
0.0619892 0.0340708 0.411798
0.0617844 0.0331055 0.412001
0.0615626 0.0321256 0.412026
0.0613294 0.0311365 0.411928
0.0610955 0.0301476 0.411821
0.0608564 0.0291551 0.411655
0.0606283 0.0281722 0.411606
0.0604062 0.0271945 0.411619
0.0601957 0.0262259 0.411758
0.0599859 0.0252579 0.411903
0.059787 0.0242979 0.412168
0.0596047 0.0233494 0.412616
0.0594306 0.0224059 0.413157
0.0592414 0.0214508 0.413534
0.059039 0.0204863 0.413766
0.0588207 0.0195113 0.413823
0.0585813 0.0185229 0.413642
0.0583332 0.0175301 0.413359
0.058096 0.016545 0.413196
0.0578686 0.0155667 0.413143
0.0576568 0.014598 0.413265
0.057468 0.0136421 0.413649
0.0572823 0.0126871 0.414072
0.0571021 0.0117342 0.41456
0.056924 0.0107815 0.415077
0.0567449 0.00982713 0.415584
0.0565576 0.00886783 0.415998
0.0563816 0.00791292 0.416547
0.0561898 0.00694995 0.416914
0.0559838 0.00598031 0.417116
0.0557658 0.00500567 0.417174
0.0555331 0.00402556 0.417055
0.0552919 0.00304319 0.416833
0.0550647 0.00206682 0.416776
0.0548429 0.00109284 0.416782
0.0546368 0.00012417 0.416977
0.0544473 -0.000839703 0.417378
0.0542841 -0.00179708 0.418102
0.0541374 -0.00275207 0.419035
0.0540298 -0.00370013 0.420461
0.053939 -0.00464844 0.422108
0.0538205 -0.00560704 0.423422
0.0536729 -0.00657453 0.424381
0.0538614 -0.00749082 0.429593
0.0529729 -0.00916643 0.436921
0.0542402 -0.00839662 0.437265
0.0708923 0.0663898 0.418008
0.0706416 0.0653563 0.417822
0.0703747 0.0643035 0.417484
0.0700688 0.0632044 0.416782
0.0697211 0.062057 0.415686
0.0693296 0.0608603 0.414174
0.0689182 0.0596441 0.412463
0.0685141 0.0584412 0.410808
0.0681147 0.0572479 0.409182
0.0677589 0.0561093 0.407957
0.0674631 0.0550423 0.407291
0.0672028 0.0540175 0.406956
0.0669636 0.0530172 0.40682
0.0667536 0.0520498 0.406961
0.0665442 0.051083 0.407108
0.0663467 0.0501292 0.40737
0.0661634 0.0491902 0.407771
0.0659749 0.0482451 0.408124
0.0657907 0.0473037 0.408518
0.0655984 0.0463536 0.408837
0.0654063 0.0454032 0.409158
0.0652153 0.0444534 0.409491
0.0650189 0.0434978 0.409773
0.0648271 0.0425464 0.4101
0.0646282 0.0415876 0.410359
0.0644238 0.0406233 0.410563
0.0642201 0.0396596 0.410775
0.0640342 0.038712 0.411167
0.063826 0.0377436 0.411335
0.0636341 0.0367897 0.411669
0.0634296 0.0358242 0.411875
0.0632205 0.0348545 0.412035
0.0630054 0.0338796 0.412132
0.0627946 0.0329086 0.412275
0.0625665 0.0319231 0.412237
0.0623369 0.030937 0.412183
0.0621077 0.0299517 0.41213
0.0618739 0.0289633 0.412028
0.061652 0.0279848 0.412049
0.0614365 0.0270115 0.412137
0.0612269 0.0260429 0.412288
0.0610229 0.0250781 0.412498
0.0608297 0.024121 0.412825
0.0606482 0.0231715 0.413279
0.0604738 0.022226 0.413813
0.0602893 0.0212728 0.414241
0.0600859 0.0203063 0.414464
0.0598732 0.0193337 0.414585
0.0596432 0.0183504 0.414518
0.0594047 0.0173626 0.414354
0.059173 0.0163797 0.414262
0.0589513 0.0154032 0.41428
0.0587451 0.0144358 0.414471
0.0585576 0.0134783 0.414871
0.0583726 0.0125215 0.415303
0.058193 0.0115666 0.415797
0.0580144 0.0106111 0.416307
0.0578303 0.00965203 0.416755
0.0576429 0.00869051 0.417169
0.0574611 0.00773067 0.41765
0.0572579 0.00676074 0.417886
0.0570353 0.00578263 0.417898
0.0568095 0.00480358 0.41787
0.05657 0.00382003 0.417681
0.056328 0.0028366 0.41746
0.0561059 0.00186101 0.417471
0.0558927 0.000888624 0.417584
0.0556811 -8.31222e-05 0.417719
0.0554969 -0.001047 0.418181
0.055336 -0.00200567 0.418925
0.0551963 -0.00296126 0.419934
0.0551017 -0.0039084 0.421495
0.055018 -0.00485815 0.423203
0.0549007 -0.0058194 0.424515
0.0547531 -0.0067893 0.425463
0.0720353 0.0663442 0.41926
0.0717877 0.0653135 0.419112
0.0715238 0.0642639 0.418814
0.0712221 0.06317 0.418168
0.0708681 0.0620163 0.41704
0.0704713 0.0608154 0.415509
0.0700541 0.0595949 0.413778
0.0696363 0.0583784 0.412029
0.0692186 0.0571669 0.410268
0.0688494 0.0560147 0.408943
0.0685431 0.0549365 0.408195
0.0682691 0.0538961 0.407744
0.0680291 0.0528945 0.407607
0.067824 0.0519313 0.407798
0.0676137 0.0509624 0.407941
0.0674169 0.0500078 0.408212
0.0672408 0.0490745 0.40868
0.0670535 0.0481288 0.409044
0.066871 0.0471875 0.409455
0.0666784 0.0462354 0.409773
0.0664852 0.0452821 0.410084
0.066282 0.0443185 0.410299
0.066074 0.0433503 0.410469
0.0658758 0.0423912 0.410734
0.0656699 0.0414246 0.410925
0.0654599 0.0404541 0.411075
0.0652616 0.0394943 0.411342
0.0650771 0.0385468 0.411747
0.0648693 0.0375776 0.41192
0.0646772 0.0366223 0.412251
0.064472 0.0356552 0.412453
0.0642559 0.0346786 0.412545
0.0640342 0.0336974 0.412579
0.0638171 0.0327203 0.41266
0.0635822 0.031729 0.412557
0.0633522 0.0307423 0.412504
0.0631223 0.0297562 0.412449
0.0628941 0.028772 0.412411
0.0626836 0.0278016 0.412554
0.0624799 0.0268363 0.41277
0.0622776 0.0258718 0.413
0.0620856 0.0249144 0.413338
0.0619039 0.0239637 0.413787
0.0617233 0.0230128 0.414249
0.0615488 0.0220652 0.414779
0.0613634 0.0211093 0.415196
0.0611585 0.0201403 0.415407
0.0609454 0.019166 0.415529
0.0607158 0.0181817 0.415474
0.0604774 0.0171929 0.415321
0.06025 0.0162112 0.415285
0.0600335 0.0152361 0.415367
0.0598291 0.0142678 0.415582
0.0596478 0.0133116 0.416051
0.0594684 0.0123553 0.416544
0.0592873 0.0113973 0.417022
0.059104 0.0104372 0.417477
0.0589137 0.00947296 0.417857
0.0587195 0.0085063 0.418195
0.0585316 0.00754173 0.418604
0.0583224 0.00656763 0.418776
0.0580934 0.00558559 0.418721
0.0578664 0.00460495 0.418687
0.0576258 0.00361989 0.418496
0.0573837 0.00263531 0.418285
0.0571627 0.00165877 0.418315
0.056956 0.000687034 0.41851
0.0567451 -0.000286108 0.418657
0.056571 -0.0012491 0.419236
0.0564151 -0.00220872 0.420033
0.0562866 -0.00316404 0.421162
0.0561935 -0.00411445 0.42272
0.0561116 -0.00506709 0.424425
0.0559856 -0.00603244 0.425614
0.0558372 -0.007005 0.426543
0.0728939 0.0652164 0.420004
0.0726344 0.0641717 0.419755
0.0723476 0.063096 0.419259
0.0720113 0.0619642 0.418313
0.0716131 0.0607638 0.4168
0.0711992 0.0595497 0.415134
0.0707779 0.0583317 0.413387
0.0703488 0.0571099 0.411556
0.0699557 0.0559327 0.41004
0.0696381 0.0548424 0.409206
0.0693474 0.053784 0.408615
0.0690994 0.0527731 0.408412
0.0688896 0.0518036 0.408562
0.0686849 0.0508395 0.40876
0.0684878 0.0498831 0.409029
0.068317 0.0489534 0.409545
0.0681368 0.0480132 0.409977
0.0679607 0.0470763 0.410448
0.0677755 0.0461296 0.410836
0.0675826 0.0451748 0.411153
0.0673726 0.0442031 0.411306
0.067163 0.0432317 0.411464
0.0669586 0.0422652 0.411672
0.0667474 0.0412923 0.411816
0.0665365 0.0403194 0.41196
0.0663386 0.0393585 0.412233
0.0661479 0.0384036 0.412576
0.0659404 0.0374335 0.412756
0.0657474 0.0364757 0.413079
0.0655408 0.035506 0.413269
0.0653234 0.0345272 0.413353
0.0650941 0.0335388 0.413317
0.0648697 0.0325548 0.413329
0.0646221 0.0315526 0.413106
0.0643802 0.030556 0.412938
0.0641391 0.029561 0.412776
0.0639107 0.0285763 0.412741
0.0637063 0.0276098 0.412948
0.0635149 0.0266525 0.41329
0.0633296 0.0256991 0.413696
0.0631557 0.0247529 0.414221
0.0629814 0.0238053 0.414745
0.0628022 0.0228534 0.415221
0.062622 0.0219 0.41569
0.0624296 0.0209378 0.416032
0.062219 0.0199637 0.416185
0.0620064 0.0189885 0.416318
0.0617774 0.0180036 0.416276
0.0615488 0.0170194 0.416235
0.0613259 0.0160391 0.416256
0.0611145 0.0150653 0.416398
0.0609209 0.014101 0.416732
0.06074 0.0131427 0.417205
0.0605551 0.0121814 0.417638
0.0603679 0.0112183 0.418048
0.0601779 0.0102529 0.418429
0.0599716 0.00927965 0.418632
0.0597714 0.00830881 0.418904
0.0595826 0.00734245 0.419303
0.0593674 0.00636469 0.419411
0.0591386 0.00538176 0.419365
0.058917 0.00440212 0.419399
0.0586866 0.00341969 0.419333
0.0584514 0.00243633 0.419211
0.0582416 0.0014618 0.419374
0.0580463 0.000491669 0.419704
0.0578409 -0.00048194 0.41992
0.0576676 -0.00144725 0.420506
0.0575116 -0.00240956 0.421296
0.0573834 -0.00336771 0.422414
0.0572816 -0.00432326 0.423852
0.0571918 -0.00528025 0.425438
0.0570608 -0.0062494 0.426555
0.0569133 -0.00722376 0.427483
0.073951 0.0650566 0.420435
0.0737036 0.0640263 0.420301
0.0734288 0.0629651 0.419923
0.0731209 0.0618673 0.419247
0.0727346 0.0606829 0.417869
0.072338 0.0594908 0.416389
0.0719159 0.0582744 0.414668
0.0714846 0.0570527 0.412852
0.0710817 0.0558667 0.411278
0.0707525 0.0547645 0.410359
0.0704524 0.0536958 0.409696
0.0701903 0.0526694 0.409376
0.0699736 0.0516914 0.409466
0.0697628 0.0507196 0.409611
0.0695589 0.0497547 0.409819
0.0693813 0.0488162 0.41027
0.0692063 0.0478795 0.410749
0.0690316 0.0469421 0.411231
0.068848 0.0459955 0.411634
0.0686616 0.0450452 0.412011
0.068451 0.0440717 0.412163
0.0682406 0.0430982 0.412317
0.0680414 0.0421351 0.412576
0.0678365 0.0411665 0.412783
0.0676317 0.0401978 0.412991
0.06744 0.0392406 0.413325
0.0672426 0.0382778 0.413605
0.0670275 0.0372996 0.413716
0.0668209 0.0363286 0.413908
0.0666021 0.0353474 0.413983
0.0663723 0.0343574 0.413949
0.0661422 0.0333675 0.41391
0.0659108 0.0323773 0.413858
0.0656606 0.0313729 0.413618
0.0654168 0.0303745 0.413439
0.0651743 0.0293781 0.413271
0.0649454 0.0283924 0.413236
0.0647466 0.027429 0.413502
0.0645617 0.0264751 0.413907
0.0643841 0.0255256 0.41439
0.064223 0.0245864 0.415042
0.0640616 0.0236455 0.415694
0.0638834 0.0226923 0.41618
0.0637033 0.0217368 0.416647
0.0635045 0.0207689 0.416924
0.0632925 0.0197926 0.417068
0.0630749 0.018813 0.417152
0.0628459 0.0178269 0.417117
0.0626169 0.0168414 0.41708
0.0623974 0.0158617 0.417143
0.0621801 0.0148833 0.417226
0.0619918 0.0139201 0.417617
0.0618064 0.0129578 0.418041
0.061615 0.0119916 0.418403
0.0614211 0.0110236 0.418739
0.0612245 0.0100538 0.419048
0.0610071 0.00907459 0.419135
0.0608069 0.00810265 0.419407
0.0606186 0.00713521 0.419809
0.0604036 0.00615662 0.419921
0.0601811 0.00517535 0.419951
0.059966 0.00419705 0.420062
0.0597426 0.00321607 0.42008
0.0595168 0.00223464 0.420072
0.0593124 0.00126034 0.4203
0.0591224 0.000289878 0.420691
0.0589175 -0.000685324 0.420915
0.0587502 -0.00165115 0.421565
0.0585902 -0.00261658 0.422303
0.0584682 -0.00357591 0.42348
0.0583634 -0.00453465 0.424861
0.0582704 -0.00549549 0.426391
0.058139 -0.00646691 0.427488
0.0580031 -0.0074416 0.42854
0.0752922 0.0652227 0.423306
0.0747341 0.0638336 0.420491
0.0744748 0.0627907 0.420256
0.0741858 0.0617154 0.41976
0.0738262 0.0605633 0.418641
0.0734555 0.0594022 0.417414
0.0730575 0.0582147 0.415938
0.0726364 0.0570066 0.414247
0.0722241 0.0558124 0.41262
0.07188 0.0546948 0.41159
0.0715682 0.053614 0.41084
0.0712976 0.052578 0.410453
0.071074 0.0515916 0.410488
0.0708568 0.0506117 0.410577
0.0706446 0.0496371 0.410713
0.070453 0.0486829 0.411036
0.0702712 0.0477377 0.41145
0.0700913 0.0467937 0.411884
0.0699149 0.0458522 0.412351
0.0697295 0.0449014 0.412737
0.0695181 0.043926 0.412885
0.0693068 0.0429506 0.413033
0.0691081 0.0419866 0.413298
0.0689104 0.0410231 0.413574
0.0687132 0.0400598 0.413856
0.0685276 0.0391062 0.414249
0.0683291 0.0381408 0.41452
0.0681115 0.0371591 0.41461
0.0678979 0.0361809 0.41474
0.0676784 0.035198 0.414812
0.0674482 0.0342067 0.41478
0.0672121 0.0332112 0.414691
0.0669736 0.0322146 0.414577
0.0667212 0.031208 0.414326
0.0664753 0.0302074 0.414135
0.0662309 0.0292089 0.413956
0.0660067 0.0282258 0.413973
0.0658138 0.0272652 0.414298
0.0656298 0.0263102 0.414712
0.0654536 0.0253599 0.415205
0.0652939 0.0244195 0.415867
0.0651341 0.0234776 0.416531
0.06495 0.0225188 0.416954
0.0647639 0.0215579 0.41736
0.0645638 0.0205878 0.417625
0.0643514 0.0196101 0.417767
0.0641332 0.0186291 0.41785
0.0639038 0.0176418 0.417817
0.0636733 0.0166545 0.417772
0.0634536 0.0156736 0.417836
0.0632356 0.0146937 0.417917
0.0630427 0.0137267 0.418259
0.0628568 0.0127626 0.418676
0.0626594 0.0117923 0.418974
0.0624524 0.0108171 0.419173
0.0622496 0.00984363 0.419415
0.0620318 0.00886342 0.4195
0.0618275 0.00788896 0.419727
0.0616401 0.00692098 0.420138
0.0614306 0.00594385 0.420311
0.0612133 0.00496381 0.420402
0.0610048 0.00398699 0.420587
0.0607986 0.00301079 0.420797
0.0605888 0.0020333 0.420969
0.0603892 0.00105875 0.421252
0.0601982 8.61941e-05 0.421632
0.0599974 -0.000889666 0.421905
0.0598308 -0.00185741 0.422559
0.0596722 -0.00282479 0.423307
0.0595585 -0.00378488 0.424561
0.0594511 -0.00474726 0.425897
0.0593541 -0.0057108 0.427359
0.0592237 -0.00668415 0.428454
0.0590999 -0.00766011 0.429633
0.0759843 0.0638866 0.422551
0.075499 0.06259 0.42039
0.0752333 0.0615416 0.420105
0.074901 0.0604215 0.419241
0.0745513 0.0592852 0.41822
0.0741774 0.0581259 0.41698
0.0737723 0.0569371 0.415459
0.0733692 0.0557546 0.413943
0.0730226 0.0546351 0.412912
0.0727089 0.0535524 0.412165
0.0724217 0.0524988 0.411645
0.072183 0.0514958 0.411551
0.0719503 0.0504992 0.411508
0.0717177 0.0495031 0.411465
0.0715116 0.0485333 0.411658
0.0713221 0.0475792 0.412001
0.0711294 0.0466217 0.412317
0.070941 0.0456678 0.412673
0.0707613 0.0447212 0.413109
0.0705498 0.043745 0.413257
0.0703391 0.0427694 0.413412
0.0701475 0.0418108 0.413743
0.0699631 0.0408581 0.414143
0.0697743 0.0399008 0.414503
0.0695904 0.0389469 0.414908
0.069392 0.0379805 0.415182
0.0691788 0.0370015 0.415318
0.0689581 0.0360165 0.415384
0.0687383 0.0350324 0.415457
0.0685139 0.0340448 0.415486
0.0682834 0.0330529 0.415457
0.0680389 0.0320508 0.415292
0.0677859 0.0310434 0.415045
0.0675323 0.0300366 0.414789
0.0672816 0.0290329 0.414557
0.0670511 0.0280446 0.414519
0.0668644 0.0270871 0.414903
0.0666867 0.0261351 0.415377
0.066517 0.0251873 0.415932
0.0663579 0.0242454 0.416593
0.066197 0.0233008 0.417241
0.0660064 0.0223364 0.417599
0.065814 0.0213702 0.41794
0.0656077 0.0203953 0.418145
0.0653949 0.0194164 0.418286
0.0651757 0.0184339 0.418361
0.064946 0.0174459 0.418331
0.0647142 0.0164572 0.418278
0.0644944 0.0154753 0.418345
0.064276 0.0144945 0.418426
0.0640778 0.0135238 0.418713
0.0638863 0.0125558 0.41907
0.0636769 0.011579 0.419244
0.0634576 0.0105977 0.419316
0.0632424 0.00961839 0.41943
0.0630188 0.00863565 0.419456
0.0628156 0.00766145 0.419693
0.0626347 0.00669552 0.420167
0.0624306 0.00572014 0.420398
0.0622237 0.00474353 0.420601
0.0620208 0.00376797 0.420846
0.0618261 0.00279491 0.42118
0.0616178 0.00181706 0.42137
0.0614237 0.000843177 0.421712
0.0612324 -0.000130572 0.422086
0.0610406 -0.00110508 0.422457
0.0608807 -0.0020728 0.423178
0.0607411 -0.00303766 0.424125
0.0606419 -0.00399698 0.425524
0.0605368 -0.00496134 0.426868
0.0604406 -0.00592746 0.428318
0.0603112 -0.00690322 0.429412
0.0601956 -0.00787994 0.430668
0.0770452 0.0637205 0.422953
0.0765071 0.0623705 0.42038
0.0762681 0.0613518 0.420328
0.0759605 0.0602601 0.41969
0.0756331 0.0591492 0.418878
0.0752736 0.0580071 0.417784
0.0749055 0.0568591 0.416607
0.0745067 0.055683 0.415159
0.0741514 0.0545553 0.414075
0.0738341 0.0534691 0.413312
0.0735299 0.0523984 0.412659
0.0732621 0.0513656 0.412317
0.073014 0.0503532 0.412145
0.072766 0.0493418 0.411972
0.0725381 0.0483504 0.411975
0.0723337 0.0473814 0.412184
0.0721198 0.0464034 0.41231
0.071917 0.0454356 0.412535
0.071731 0.0444829 0.41291
0.0715259 0.0435125 0.413115
0.0713227 0.0425436 0.413338
0.0711514 0.0416022 0.413851
0.0709817 0.0406612 0.41438
0.0708069 0.0397149 0.414865
0.0706245 0.0387613 0.415283
0.0704328 0.0377994 0.415618
0.0702201 0.03682 0.41576
0.0700065 0.0358399 0.415894
0.0697875 0.0348557 0.41598
0.0695692 0.0338722 0.416069
0.0693443 0.0328839 0.416097
0.0691049 0.031885 0.415988
0.0688514 0.0308768 0.415746
0.0686045 0.0298741 0.415561
0.0683594 0.0288738 0.415393
0.0681289 0.0278844 0.41536
0.0679427 0.0269256 0.415749
0.0677653 0.0259718 0.416225
0.0675957 0.0250223 0.416777
0.0674304 0.0240743 0.417375
0.0672567 0.0231197 0.417894
0.0670578 0.0221488 0.41817
0.0668582 0.0211771 0.418441
0.0666462 0.0201979 0.418591
0.0664337 0.0192184 0.418737
0.0662208 0.0182386 0.418878
0.06599 0.0172493 0.418843
0.0657581 0.0162599 0.418794
0.0655373 0.0152767 0.418855
0.065313 0.0142921 0.41888
0.0651088 0.0133175 0.419107
0.0649111 0.0123456 0.419399
0.0646886 0.0113622 0.419442
0.0644568 0.0103751 0.419388
0.0642345 0.00939246 0.419431
0.0640044 0.00840707 0.419393
0.0638008 0.00743259 0.419627
0.0636208 0.0064666 0.420105
0.0634227 0.00549317 0.420396
0.0632158 0.00451628 0.420599
0.0630187 0.00354245 0.420903
0.0628247 0.00256902 0.421242
0.0626283 0.00159442 0.421556
0.0624422 0.000622117 0.421982
0.0622631 -0.00034922 0.422482
0.0620832 -0.0013218 0.422979
0.0619355 -0.00228808 0.423823
0.0618051 -0.0032529 0.424859
0.0617096 -0.00421338 0.426277
0.0616063 -0.00517939 0.427622
0.0615109 -0.00614829 0.429064
0.0613931 -0.00712408 0.430271
0.0613841 -0.00808915 0.43268
0.0778062 0.0616973 0.424751
0.0773297 0.0604231 0.422722
0.0768545 0.0591558 0.420689
0.0763676 0.057882 0.418543
0.0760093 0.0567458 0.417473
0.0756213 0.0555827 0.416141
0.0752505 0.0544405 0.414946
0.0749237 0.0533455 0.414119
0.0746012 0.0522572 0.413323
0.0743155 0.0512069 0.412836
0.0740381 0.0501664 0.412418
0.0737742 0.0491401 0.412114
0.0735189 0.048123 0.41188
0.0732979 0.0471385 0.411944
0.0730613 0.0461401 0.411871
0.0728433 0.0451589 0.411959
0.0726434 0.044194 0.412207
0.0724452 0.0432303 0.41247
0.0722509 0.0422696 0.41277
0.0720957 0.041342 0.413419
0.0719474 0.0404186 0.414132
0.0717928 0.0394885 0.414793
0.0716246 0.038546 0.415335
0.0714405 0.0375897 0.415737
0.0712411 0.0366205 0.416001
0.0710354 0.0356461 0.416209
0.0708241 0.0346673 0.416367
0.0706128 0.0336885 0.416523
0.0703998 0.0327083 0.416664
0.0701667 0.0317136 0.41662
0.069926 0.030714 0.416505
0.0696913 0.0297193 0.416443
0.0694526 0.0287224 0.416342
0.0692215 0.0277314 0.416311
0.0690407 0.0267741 0.416751
0.0688576 0.0258146 0.41717
0.0686826 0.0248595 0.41767
0.0685173 0.0239095 0.418264
0.0683365 0.0229487 0.418712
0.0681298 0.0219716 0.418917
0.0679292 0.020998 0.419179
0.0677172 0.0200175 0.419333
0.0675055 0.0190371 0.419488
0.0672933 0.0180565 0.41964
0.06705 0.0170595 0.419488
0.0668049 0.0160625 0.419318
0.0665712 0.0150721 0.419255
0.0663342 0.0140807 0.41916
0.0661169 0.0130993 0.419257
0.0659179 0.0121263 0.419535
0.0656881 0.0111394 0.419508
0.0654493 0.0101492 0.419389
0.0652199 0.00916365 0.419362
0.0649881 0.00817768 0.41931
0.0647778 0.00720047 0.419475
0.0645929 0.00623243 0.419896
0.0643959 0.00525939 0.420197
0.064184 0.00428087 0.420346
0.063981 0.00330523 0.420588
0.0637871 0.00233201 0.420924
0.0635977 0.00135953 0.421307
0.06342 0.000389425 0.421815
0.0632545 -0.000578614 0.422451
0.0630954 -0.00154665 0.42316
0.0629677 -0.00250953 0.424203
0.0628515 -0.0034727 0.425375
0.0627584 -0.00443475 0.4268
0.0626501 -0.00540369 0.428074
0.0625443 -0.00637572 0.429384
0.0625204 -0.0073397 0.431581
0.0626227 -0.00829536 0.435156
0.0783157 0.0630127 0.427042
0.0794287 0.0621121 0.429745
0.0780615 0.0591395 0.422327
0.0774219 0.057713 0.418948
0.0770847 0.0565998 0.418072
0.0767098 0.0554517 0.416873
0.076335 0.0543073 0.415667
0.0759903 0.0531957 0.414705
0.0756495 0.0520907 0.413769
0.0753466 0.0510247 0.413149
0.0750528 0.0499693 0.412601
0.0747672 0.0489233 0.412118
0.0744888 0.0478855 0.411691
0.074245 0.0468807 0.411561
0.0739784 0.0458562 0.411231
0.0737388 0.0448567 0.41113
0.073531 0.0438856 0.411306
0.0733407 0.0429295 0.411634
0.0731613 0.0419823 0.412059
0.0730238 0.0410692 0.412853
0.0728979 0.040164 0.413756
0.0727591 0.0392462 0.414548
0.0725982 0.0383091 0.415148
0.0724214 0.0373581 0.415611
0.0722424 0.0364046 0.416056
0.0720515 0.0354411 0.416395
0.071855 0.034473 0.416687
0.0716643 0.0335088 0.417031
0.0714644 0.0325372 0.417293
0.0712509 0.0315556 0.417433
0.0710243 0.0305651 0.417454
0.070804 0.0295791 0.41753
0.070565 0.0285807 0.417435
0.0703316 0.0275866 0.417389
0.0701437 0.0266228 0.417763
0.0699541 0.0256571 0.418123
0.0697737 0.0246966 0.41857
0.069603 0.0237412 0.419111
0.0694155 0.0227746 0.419495
0.0692019 0.0217921 0.419636
0.0690008 0.0208168 0.419895
0.0687901 0.0198358 0.420063
0.0685789 0.0188546 0.420228
0.068366 0.0178723 0.420376
0.0681143 0.0168701 0.420152
0.0678607 0.015868 0.419907
0.0676124 0.0148698 0.41971
0.0673669 0.0138738 0.419538
0.067136 0.0128855 0.419505
0.0669237 0.0119059 0.419653
0.066681 0.0109132 0.419502
0.0664354 0.00992044 0.419322
0.0661938 0.00893008 0.419177
0.0659549 0.00794167 0.419058
0.065738 0.0069622 0.419155
0.0655469 0.00599202 0.41951
0.0653502 0.00501929 0.419811
0.0651387 0.00404139 0.419964
0.0649366 0.00306629 0.420212
0.0647471 0.0020946 0.420588
0.0645634 0.00112379 0.421024
0.0643923 0.000155367 0.421592
0.0642376 -0.000810261 0.422331
0.0640872 -0.00177668 0.42312
0.0639743 -0.00273722 0.424301
0.0638663 -0.00370001 0.425541
0.063769 -0.00466414 0.426902
0.0637542 -0.00561858 0.429136
0.0637296 -0.00658115 0.431284
0.0638119 -0.00753576 0.434574
0.0640284 -0.00848486 0.43931
0.0630457 -0.00922812 0.44223
0.0643894 -0.00943458 0.445621
0.0785795 0.057645 0.420185
0.0781184 0.0564096 0.418307
0.0777731 0.0552927 0.417373
0.0774023 0.0541541 0.416221
0.0770474 0.0530341 0.415193
0.0766894 0.0519142 0.41413
0.0763626 0.0508267 0.413322
0.0760383 0.049744 0.412528
0.0757231 0.048672 0.411804
0.0754138 0.0476078 0.411125
0.0751479 0.0465844 0.410809
0.0748645 0.0455468 0.41034
0.0746045 0.0445313 0.410068
0.0743893 0.0435551 0.410177
0.0741992 0.0426002 0.4105
0.0740284 0.0416609 0.410992
0.0739011 0.0407564 0.411863
0.0737994 0.0398706 0.41296
0.0736765 0.0389653 0.413879
0.0735377 0.0380455 0.414665
0.0733756 0.0371059 0.41525
0.0732179 0.0361684 0.415877
0.0730485 0.0352208 0.416405
0.0728745 0.0342688 0.416893
0.0727054 0.0333194 0.417428
0.0725406 0.0323719 0.418003
0.072356 0.0314095 0.418405
0.0721518 0.030433 0.418633
0.0719461 0.029455 0.418846
0.0717117 0.0284581 0.418801
0.0714759 0.0274607 0.418742
0.0712798 0.0264892 0.419043
0.0710772 0.0255131 0.419285
0.0708903 0.0245463 0.419673
0.0707122 0.0235842 0.420143
0.0705123 0.0226085 0.420414
0.0702984 0.0216243 0.420557
0.0701047 0.0206515 0.420887
0.0698949 0.0196693 0.421066
0.0696834 0.0186862 0.421231
0.0694621 0.017698 0.421305
0.0691945 0.0166867 0.42094
0.0689245 0.0156758 0.42055
0.0686553 0.0146669 0.420162
0.0683889 0.0136608 0.419797
0.0681433 0.0126655 0.419628
0.0679117 0.0116773 0.419591
0.0676556 0.0106793 0.419318
0.0674094 0.00968662 0.419135
0.0671617 0.00869431 0.418936
0.0669165 0.00770397 0.418759
0.0666985 0.00672443 0.418846
0.0665007 0.005752 0.419132
0.0662979 0.00477755 0.419368
0.0660857 0.00379987 0.419513
0.0658837 0.00282524 0.419758
0.0656892 0.00185242 0.420079
0.0654991 0.000880315 0.420447
0.065334 -8.62406e-05 0.421066
0.0651802 -0.00105149 0.421803
0.0650207 -0.00201981 0.422487
0.0648927 -0.00298338 0.423495
0.0648959 -0.00392445 0.425849
0.0649037 -0.00487214 0.428269
0.0650118 -0.00581074 0.431736
0.0650938 -0.00676373 0.434962
0.0652909 -0.00771182 0.439404
0.0654999 -0.00867217 0.444003
0.0657108 -0.00964701 0.448658
0.0647807 -0.0104017 0.452304
0.0659186 -0.0106363 0.453315
0.0651455 -0.0113909 0.458755
0.0794076 0.0592564 0.425055
0.0803098 0.0609565 0.430498
0.0808703 0.0594776 0.428647
0.0798689 0.0577011 0.422453
0.0792546 0.0563176 0.419366
0.078822 0.0551174 0.417738
0.0784427 0.0539727 0.416537
0.0780643 0.0528322 0.415333
0.0776817 0.0516915 0.414086
0.0773227 0.050576 0.413025
0.0769597 0.0494603 0.411923
0.0766261 0.0483742 0.411058
0.0762938 0.0472919 0.410196
0.0760111 0.0462558 0.409743
0.07572 0.045214 0.409216
0.0754582 0.044199 0.408931
0.0752309 0.043214 0.408934
0.0750406 0.0422602 0.40925
0.0748773 0.041328 0.409797
0.0747581 0.0404302 0.410722
0.074667 0.0395527 0.411894
0.0745673 0.0386656 0.412998
0.0744586 0.0377688 0.414031
0.074326 0.0368515 0.414864
0.0741923 0.0359316 0.415692
0.0740524 0.0350051 0.416469
0.0739012 0.0340688 0.417153
0.0737617 0.0331393 0.417942
0.0736413 0.0322213 0.418904
0.0734961 0.0312841 0.419653
0.0733164 0.0303219 0.420101
0.0731313 0.0293553 0.420502
0.0728939 0.0283541 0.420439
0.072642 0.0273443 0.420245
0.0724385 0.0263656 0.420483
0.072235 0.0253867 0.420722
0.0720411 0.0244133 0.421048
0.0718675 0.0234511 0.421559
0.0716656 0.0224718 0.421816
0.0714581 0.021489 0.422021
0.0712797 0.0205219 0.422494
0.0710771 0.0195411 0.422747
0.0708584 0.0185516 0.422851
0.070614 0.0175493 0.422718
0.0703094 0.0165183 0.422023
0.0699914 0.0154833 0.421197
0.0696876 0.0144577 0.420497
0.0693874 0.0134364 0.419825
0.0691205 0.012432 0.41946
0.0688743 0.0114378 0.419288
0.0686104 0.0104374 0.418946
0.0683576 0.00944285 0.418705
0.0681096 0.00845122 0.418508
0.0678643 0.00746163 0.418334
0.0676461 0.00648249 0.418419
0.0674419 0.0055083 0.418639
0.0672374 0.00453382 0.418856
0.0670256 0.00355682 0.419003
0.0668182 0.00258105 0.419193
0.0666128 0.00160575 0.419402
0.0664275 0.000635607 0.41981
0.0662565 -0.000331924 0.420363
0.0660964 -0.00129817 0.421026
0.0659291 -0.0022676 0.42162
0.0657692 -0.00323696 0.422292
0.0658643 -0.00416093 0.425528
0.0659786 -0.00509163 0.428982
0.0662059 -0.00601573 0.433603
0.0664012 -0.00695823 0.437935
0.0667269 -0.00789871 0.443627
0.0669215 -0.00887014 0.448022
0.0671069 -0.00985593 0.452353
0.0813462 0.0579293 0.426159
0.0805497 0.056373 0.421666
0.0799691 0.0550331 0.418881
0.0795712 0.0538718 0.417551
0.0790749 0.0526235 0.415415
0.078587 0.051389 0.413333
0.0782221 0.0502713 0.412238
0.0778393 0.0491411 0.41099
0.0774877 0.048042 0.409987
0.0771525 0.0469605 0.409114
0.0768621 0.0459201 0.408603
0.0765709 0.0448808 0.408081
0.0763089 0.0438677 0.407797
0.0760755 0.0428794 0.407748
0.0758707 0.041915 0.407937
0.0757 0.0409777 0.408412
0.0755737 0.0400747 0.409263
0.0754913 0.0392041 0.410489
0.0754093 0.0383306 0.411725
0.075339 0.0374631 0.413068
0.0752462 0.0365756 0.414227
0.0751521 0.0356842 0.415382
0.0750505 0.0347847 0.416479
0.0749359 0.0338733 0.41747
0.0748548 0.0329829 0.418756
0.0747902 0.0321005 0.420193
0.0746869 0.0311885 0.421302
0.0745518 0.0302529 0.42214
0.0743994 0.0293041 0.422832
0.0741407 0.0282862 0.422593
0.0738855 0.0272715 0.422383
0.0736749 0.0262851 0.422564
0.0734514 0.025291 0.422632
0.0732348 0.0243011 0.42276
0.0730589 0.0233345 0.423252
0.0728492 0.0223481 0.423442
0.0726494 0.021367 0.423723
0.0724795 0.0204013 0.424274
0.0722777 0.019418 0.424539
0.0720439 0.0184181 0.424514
0.0717625 0.0173952 0.424053
0.071419 0.0163443 0.42302
0.0710553 0.0152875 0.421793
0.0707077 0.0142421 0.420705
0.0703773 0.0132078 0.419768
