ply
format ascii 1.0
element vertex 1603
property float x
property float y
property float z
end_header
-0.100685 -0.0682186 0.875741
-0.100689 -0.0696801 0.876042
-0.100729 -0.0711579 0.876606
-0.100884 -0.0726907 0.878061
-0.101241 -0.0743229 0.881063
-0.101576 -0.0759548 0.883894
-0.102078 -0.0776793 0.888011
-0.10254 -0.0793984 0.891832
-0.103004 -0.0811308 0.895656
-0.103234 -0.0827527 0.8977
-0.103471 -0.0843853 0.899795
-0.103562 -0.085943 0.900761
-0.103554 -0.0874483 0.900977
-0.103405 -0.0888713 0.900101
-0.103216 -0.0902676 0.898917
-0.10298 -0.0916311 0.897369
-0.102714 -0.0929709 0.895591
-0.102502 -0.0943394 0.894231
-0.102316 -0.0957207 0.893071
-0.102179 -0.0971304 0.892284
-0.102111 -0.0985844 0.892028
-0.102122 -0.100093 0.892392
-0.102174 -0.101631 0.89306
-0.102284 -0.103215 0.894183
-0.102384 -0.104794 0.895221
-0.102469 -0.106366 0.896153
-0.102484 -0.107889 0.896543
-0.102463 -0.109385 0.896656
-0.102365 -0.110821 0.89616
-0.102282 -0.112268 0.895792
-0.102178 -0.113697 0.895268
-0.1021 -0.115145 0.894932
-0.102034 -0.116604 0.894702
-0.101991 -0.11808 0.894641
-0.101948 -0.119557 0.894579
-0.101915 -0.121043 0.894598
-0.101884 -0.122529 0.894623
-0.101863 -0.124027 0.894739
-0.101832 -0.125515 0.894773
-0.101823 -0.127024 0.894974
-0.101826 -0.128546 0.895273
-0.101844 -0.130083 0.895683
-0.101851 -0.131611 0.896011
-0.101877 -0.133159 0.896487
-0.101912 -0.134718 0.897036
-0.101929 -0.136261 0.897442
-0.101948 -0.137808 0.897867
-0.101975 -0.139365 0.898354
-0.102011 -0.140933 0.898912
-0.102062 -0.142519 0.89958
-0.102139 -0.144137 0.90046
-0.102232 -0.145774 0.901457
-0.102367 -0.147462 0.902785
-0.102504 -0.149157 0.904129
-0.102598 -0.150807 0.905136
-0.102719 -0.152495 0.906365
-0.102863 -0.154211 0.907764
-0.103026 -0.155956 0.909315
-0.10322 -0.157742 0.911101
-0.10347 -0.159604 0.913336
-0.103719 -0.161473 0.915563
-0.103968 -0.163349 0.917794
-0.104195 -0.165206 0.91985
-0.104386 -0.167024 0.921625
-0.104572 -0.168843 0.923361
-0.104782 -0.170699 0.925288
-0.104953 -0.172512 0.926915
-0.105045 -0.174226 0.927924
-0.105111 -0.17591 0.928724
-0.105073 -0.177456 0.928709
-0.104961 -0.178906 0.928132
-0.104889 -0.180404 0.927849
-0.104844 -0.181942 0.927787
-0.104791 -0.183469 0.927666
-0.104781 -0.185054 0.927872
-0.10477 -0.186638 0.928068
-0.104703 -0.188145 0.927836
-0.104683 -0.189718 0.927965
-0.104698 -0.191343 0.928372
-0.104706 -0.192961 0.928722
-0.104704 -0.194565 0.929
-0.104719 -0.196196 0.929413
-0.104698 -0.197772 0.929532
-0.104653 -0.199313 0.929468
-0.104619 -0.200871 0.929491
-0.104586 -0.202431 0.929522
-0.104542 -0.203974 0.929466
-0.106995 -0.207058 0.93683
-0.104462 -0.205459 0.929124
-0.101877 -0.044052 0.891565
-0.101749 -0.0455003 0.890848
-0.101581 -0.0469377 0.889822
-0.101404 -0.0483694 0.888723
-0.101186 -0.0497876 0.887311
-0.100948 -0.0511958 0.885739
-0.100699 -0.0525959 0.884085
-0.10048 -0.0539994 0.882664
-0.100256 -0.0553965 0.881195
-0.100076 -0.0568028 0.880071
-0.0999126 -0.0582106 0.879067
-0.0997899 -0.0596295 0.878386
-0.0996271 -0.0610319 0.877393
-0.0994619 -0.0624303 0.876379
-0.0993044 -0.0638281 0.875421
-0.0991585 -0.0652279 0.874559
-0.0990278 -0.066631 0.873814
-0.0989924 -0.0680716 0.873802
-0.0989838 -0.0695241 0.874
-0.0989683 -0.0709745 0.874148
-0.0990421 -0.0724666 0.874989
-0.0993026 -0.0740504 0.877281
-0.0995246 -0.0756232 0.879272
-0.099907 -0.0772839 0.88252
-0.100334 -0.0789781 0.886109
-0.100796 -0.0807036 0.889976
-0.101169 -0.0823942 0.893152
-0.101566 -0.0841092 0.896513
-0.10183 -0.0857613 0.898852
-0.101945 -0.087334 0.900015
-0.101886 -0.0888082 0.899831
-0.10165 -0.0901748 0.89827
-0.101366 -0.0915064 0.896334
-0.101023 -0.0927934 0.893928
-0.100766 -0.0941292 0.892203
-0.100566 -0.0954968 0.890922
-0.100417 -0.0968936 0.890028
-0.10035 -0.0983439 0.889773
-0.100395 -0.0998733 0.890407
-0.100505 -0.101451 0.891544
-0.100677 -0.103077 0.893155
-0.100847 -0.104709 0.894765
-0.101001 -0.106333 0.896242
-0.101053 -0.107885 0.896932
-0.101046 -0.109392 0.897145
-0.100944 -0.110826 0.896629
-0.100848 -0.112263 0.896152
-0.10072 -0.113672 0.895427
-0.10063 -0.11511 0.894994
-0.100554 -0.116559 0.894673
-0.10051 -0.118036 0.894612
-0.100467 -0.119512 0.89455
-0.100445 -0.121008 0.894656
-0.100425 -0.122506 0.894778
-0.100418 -0.124016 0.894997
-0.100399 -0.125517 0.89513
-0.100401 -0.127038 0.895427
-0.100413 -0.128569 0.895799
-0.100431 -0.130107 0.896213
-0.100437 -0.131636 0.896542
-0.100462 -0.133185 0.897017
-0.100485 -0.134734 0.897475
-0.10048 -0.136256 0.897714
-0.100473 -0.137778 0.897946
-0.100475 -0.139309 0.89824
-0.100476 -0.14084 0.898522
-0.10051 -0.142409 0.899078
-0.100562 -0.144 0.899772
-0.100641 -0.145622 0.900665
-0.100762 -0.147295 0.901903
-0.100904 -0.148998 0.90331
-0.101007 -0.15066 0.904408
-0.101152 -0.152375 0.905834
-0.101318 -0.15412 0.907427
-0.101501 -0.155891 0.909156
-0.101701 -0.157689 0.911021
-0.101935 -0.159536 0.913163
-0.10217 -0.161391 0.915307
-0.102416 -0.163268 0.917537
-0.102675 -0.165168 0.919874
-0.102903 -0.167039 0.921972
-0.103151 -0.168942 0.924223
-0.10342 -0.170881 0.926651
-0.103615 -0.172731 0.92848
-0.103703 -0.174446 0.929476
-0.103765 -0.176128 0.930254
-0.103714 -0.177661 0.930147
-0.103582 -0.179082 0.929393
-0.103496 -0.180566 0.929006
-0.103427 -0.182071 0.92875
-0.10335 -0.183563 0.928432
-0.103314 -0.185114 0.928436
-0.103289 -0.186682 0.928537
-0.103223 -0.188189 0.9283
-0.103202 -0.189764 0.928434
-0.103204 -0.191371 0.928741
-0.103199 -0.192971 0.928994
-0.103182 -0.194553 0.929156
-0.103186 -0.196167 0.929473
-0.103152 -0.197726 0.929502
-0.103107 -0.199266 0.929438
-0.103062 -0.200807 0.929373
-0.103017 -0.202348 0.929309
-0.102971 -0.203889 0.929244
-0.102904 -0.205394 0.928999
-0.100489 -0.0440245 0.892197
-0.100291 -0.0454587 0.890918
-0.100082 -0.0468866 0.889558
-0.099902 -0.0483169 0.888424
-0.0996775 -0.0497323 0.886934
-0.0994313 -0.0511373 0.885283
-0.0991845 -0.0525364 0.883617
-0.098967 -0.0539389 0.882186
-0.0987439 -0.0553349 0.88071
-0.0985868 -0.0567474 0.879755
-0.098415 -0.0581515 0.878674
-0.0982824 -0.0595659 0.877905
-0.098099 -0.0609596 0.876737
-0.0979014 -0.0623445 0.875459
-0.0977125 -0.0637283 0.874243
-0.097556 -0.0651213 0.873287
-0.0974073 -0.0665142 0.872386
-0.0973528 -0.0679443 0.872225
-0.0973415 -0.0693934 0.872409
-0.0973244 -0.0708407 0.872549
-0.0973473 -0.0723071 0.873001
-0.0975116 -0.0738431 0.874564
-0.0976267 -0.0753604 0.875742
-0.097893 -0.0769583 0.878111
-0.0982198 -0.078596 0.880957
-0.0986759 -0.0803128 0.884826
-0.0991074 -0.0820298 0.888508
-0.0995909 -0.0837887 0.8926
-0.0999288 -0.0854781 0.895545
-0.100107 -0.087084 0.897229
-0.100058 -0.0885593 0.897121
-0.0998414 -0.0899318 0.895694
-0.0995754 -0.091268 0.893869
-0.09923 -0.0925473 0.891414
-0.0989749 -0.0938778 0.889678
-0.0987879 -0.0952485 0.888482
-0.0986532 -0.0966502 0.887691
-0.0985988 -0.0981057 0.887539
-0.0986775 -0.0996551 0.888438
-0.0988321 -0.101263 0.889944
-0.0990501 -0.102923 0.891951
-0.0992689 -0.104591 0.893961
-0.09948 -0.106259 0.895913
-0.0995744 -0.107845 0.896948
-0.0995773 -0.109361 0.89725
-0.0994853 -0.110803 0.896804
-0.0993876 -0.112238 0.896309
-0.0992487 -0.113637 0.895489
-0.0991478 -0.115066 0.89497
-0.0990717 -0.116515 0.894644
-0.0990284 -0.117991 0.894583
-0.0989852 -0.119468 0.894521
-0.0989641 -0.120964 0.894637
-0.0989563 -0.122473 0.894853
-0.0989624 -0.123996 0.895183
-0.098956 -0.125509 0.895418
-0.0989775 -0.12705 0.895874
-0.0989998 -0.128593 0.896336
-0.0990165 -0.130132 0.896745
-0.0990231 -0.131663 0.897084
-0.0990469 -0.133213 0.897558
-0.0990584 -0.134752 0.897933
-0.0990396 -0.136261 0.898067
-0.0990199 -0.13777 0.898194
-0.0989976 -0.139277 0.898305
-0.0989738 -0.140782 0.898399
-0.0989745 -0.142315 0.898691
-0.0990119 -0.14389 0.899275
-0.0990649 -0.145485 0.899981
-0.0991691 -0.14714 0.901101
-0.0993076 -0.148839 0.902493
-0.0994189 -0.150513 0.903674
-0.0995644 -0.15223 0.905124
-0.0997399 -0.153989 0.906819
-0.0999193 -0.155758 0.908545
-0.100104 -0.157539 0.910308
-0.100309 -0.159354 0.912251
-0.100516 -0.161177 0.914196
-0.100735 -0.163022 0.916243
-0.101035 -0.164979 0.918942
-0.101323 -0.166929 0.921547
-0.101657 -0.16895 0.924528
-0.102002 -0.170994 0.927586
-0.102261 -0.172937 0.929972
-0.102348 -0.174655 0.930971
-0.102405 -0.176334 0.931717
-0.102339 -0.177851 0.931493
-0.102207 -0.179272 0.93073
-0.102113 -0.180744 0.930265
-0.102031 -0.182233 0.929907
-0.101929 -0.183692 0.929381
-0.101869 -0.18521 0.9292
-0.101821 -0.186745 0.929111
-0.101744 -0.188239 0.928792
-0.101712 -0.189796 0.928828
-0.1017 -0.191385 0.929031
-0.101681 -0.192964 0.929175
-0.10165 -0.194527 0.929229
-0.101641 -0.196122 0.929449
-0.101606 -0.197679 0.929472
-0.101561 -0.19922 0.929407
-0.101516 -0.200761 0.929343
-0.101471 -0.202302 0.929278
-0.101426 -0.203843 0.929214
-0.10137 -0.205366 0.929062
-0.10378 -0.208433 0.936292
-0.101291 -0.206851 0.928724
-0.0992846 -0.0425551 0.894009
-0.0991151 -0.0439999 0.892944
-0.0988879 -0.045429 0.891424
-0.0986483 -0.0468504 0.889804
-0.0984567 -0.0482778 0.888558
-0.0982233 -0.0496907 0.886982
-0.097969 -0.0510931 0.885247
-0.0977034 -0.0524862 0.88341
-0.097477 -0.0538851 0.881891
-0.0972559 -0.0552807 0.880411
-0.0970942 -0.0566904 0.8794
-0.0969141 -0.0580911 0.87825
-0.0967719 -0.0595008 0.877388
-0.0965737 -0.0608878 0.876088
-0.0963548 -0.0622629 0.874625
-0.0961462 -0.0636368 0.873234
-0.0959899 -0.0650278 0.872271
-0.0958431 -0.0664192 0.871372
-0.0957803 -0.0678441 0.871146
-0.0957699 -0.0692919 0.87134
-0.0957545 -0.0707382 0.871494
-0.0957783 -0.0722034 0.871951
-0.09583 -0.0736846 0.872645
-0.0958246 -0.0751391 0.872873
-0.0959958 -0.0766856 0.874516
-0.0962175 -0.0782643 0.876562
-0.096579 -0.0799262 0.879731
-0.0970472 -0.0816581 0.883754
-0.0975698 -0.0834344 0.888207
-0.0979453 -0.085141 0.89149
-0.0981804 -0.0867756 0.893655
-0.0981703 -0.0882689 0.893862
-0.0979775 -0.0896489 0.8926
-0.097736 -0.0909936 0.890946
-0.0974176 -0.0922837 0.888685
-0.0971831 -0.0936209 0.887082
-0.0970245 -0.0950052 0.8861
-0.0969165 -0.0964208 0.885515
-0.0968863 -0.0978889 0.885548
-0.0969747 -0.0994436 0.886543
-0.0971777 -0.101085 0.888453
-0.0974275 -0.102769 0.89074
-0.0976876 -0.104469 0.893119
-0.0979386 -0.10617 0.895416
-0.0980732 -0.107787 0.896786
-0.0980776 -0.109305 0.897105
-0.0979972 -0.110755 0.896748
-0.0979013 -0.112191 0.896262
-0.0977651 -0.113592 0.895451
-0.0976759 -0.11503 0.895016
-0.0976113 -0.116488 0.894783
-0.0975786 -0.117975 0.894812
-0.097546 -0.119462 0.894837
-0.0975348 -0.120968 0.895033
-0.0975277 -0.122478 0.895256
-0.0975425 -0.124012 0.895669
-0.0975485 -0.125537 0.896001
-0.0975716 -0.127081 0.896473
-0.0975936 -0.128626 0.896945
-0.0976084 -0.130165 0.897348
-0.0976042 -0.131688 0.897607
-0.0976165 -0.133227 0.897994
-0.097627 -0.134767 0.898366
-0.0975966 -0.136264 0.89841
-0.0975646 -0.137761 0.898442
-0.097531 -0.139256 0.898454
-0.097485 -0.140738 0.898376
-0.097453 -0.142235 0.898404
-0.0974755 -0.143795 0.898881
-0.0975047 -0.145362 0.899402
-0.0975851 -0.146992 0.900343
-0.097719 -0.148688 0.901725
-0.097839 -0.150372 0.902989
-0.0979833 -0.15209 0.904451
-0.0981681 -0.153862 0.906245
-0.0983333 -0.155616 0.907877
-0.098499 -0.157378 0.90952
-0.098676 -0.159159 0.911252
-0.0988431 -0.160934 0.912902
-0.0990099 -0.162716 0.914561
-0.0993892 -0.164778 0.917944
-0.0997603 -0.16684 0.921254
-0.100185 -0.168988 0.925015
-0.100612 -0.171151 0.928792
-0.100957 -0.173216 0.931903
-0.101018 -0.174905 0.9327
-0.101049 -0.176555 0.933263
-0.100974 -0.178059 0.932952
-0.100843 -0.179484 0.93219
-0.100736 -0.18094 0.931619
-0.100642 -0.182413 0.931158
-0.100516 -0.183838 0.930433
-0.100433 -0.185324 0.930056
-0.100361 -0.186826 0.929776
-0.100273 -0.1883 0.929354
-0.100227 -0.189841 0.929292
-0.100204 -0.191415 0.929407
-0.100171 -0.192973 0.929438
-0.100128 -0.194516 0.92939
-0.100105 -0.196092 0.929506
-0.10006 -0.197633 0.929442
-0.100015 -0.199173 0.929377
-0.0999698 -0.200714 0.929313
-0.0999247 -0.202255 0.929248
-0.0998796 -0.203796 0.929184
-0.0998345 -0.205337 0.929119
-0.0997893 -0.206877 0.929056
-0.0980634 -0.0410776 0.895738
-0.0978563 -0.0425197 0.89436
-0.0976762 -0.0439625 0.893193
-0.0974552 -0.0453931 0.891704
-0.0972252 -0.0468165 0.890137
-0.0970253 -0.0482424 0.888815
-0.096773 -0.0496503 0.887069
-0.0965193 -0.0510522 0.885309
-0.0962331 -0.052439 0.883287
-0.0959997 -0.0538348 0.881689
-0.0957731 -0.0552277 0.880144
-0.0956133 -0.0566372 0.879135
-0.0954252 -0.0580341 0.877903
-0.0952814 -0.0594425 0.877024
-0.0950736 -0.0608247 0.875631
-0.0948469 -0.0621948 0.874075
-0.0946276 -0.0635632 0.872589
-0.0944834 -0.0649571 0.871703
-0.0943384 -0.0663481 0.870814
-0.0942774 -0.0677727 0.870597
-0.0942769 -0.0692243 0.870875
-0.0942698 -0.0706736 0.871094
-0.0942933 -0.0721388 0.871565
-0.0943558 -0.0736248 0.872348
-0.0943618 -0.0750853 0.872678
-0.0944432 -0.0765861 0.873616
-0.0945667 -0.0781128 0.874894
-0.0948216 -0.0797161 0.877241
-0.0951971 -0.0813953 0.880564
-0.0956243 -0.0831159 0.884312
-0.0959875 -0.0848121 0.887545
-0.0962505 -0.0864588 0.889961
-0.0962728 -0.0879655 0.890427
-0.096115 -0.0893611 0.88944
-0.0959294 -0.0907347 0.888215
-0.0956761 -0.0920601 0.886445
-0.0954907 -0.0934254 0.885226
-0.0953812 -0.0948388 0.884623
-0.0953097 -0.0962766 0.884325
-0.0952908 -0.0977519 0.884462
-0.0954053 -0.0993248 0.885682
-0.0956359 -0.100988 0.887839
-0.0959015 -0.102685 0.89029
-0.0961792 -0.104401 0.892844
-0.0964452 -0.106116 0.895296
-0.0965787 -0.107734 0.896672
-0.0965624 -0.109236 0.896831
-0.0964853 -0.110688 0.896499
-0.096392 -0.112125 0.896028
-0.09627 -0.113536 0.89532
-0.0961833 -0.114976 0.894904
-0.0961408 -0.116454 0.894852
-0.0961205 -0.117952 0.894978
-0.0961002 -0.11945 0.895103
-0.0960987 -0.120966 0.895382
-0.0960988 -0.122485 0.895675
-0.0961119 -0.124018 0.896075
-0.0961275 -0.125555 0.896495
-0.096152 -0.127101 0.896985
-0.0961748 -0.128649 0.897469
-0.0961895 -0.130189 0.897875
-0.096182 -0.131709 0.898107
-0.096172 -0.133227 0.898319
-0.0961808 -0.134767 0.898686
-0.0961405 -0.136255 0.898652
-0.0960995 -0.137743 0.898611
-0.0960536 -0.139225 0.898528
-0.0960069 -0.140706 0.898437
-0.0959617 -0.142189 0.898366
-0.0959736 -0.143736 0.898755
-0.0959886 -0.14529 0.899177
-0.0960476 -0.146896 0.899956
-0.0961584 -0.148567 0.901165
-0.0962659 -0.150237 0.902344
-0.0963969 -0.151941 0.903716
-0.0965675 -0.153698 0.905416
-0.0967272 -0.155448 0.907032
-0.0968885 -0.157206 0.908662
-0.0970392 -0.158956 0.910196
-0.0971668 -0.160683 0.911553
-0.0972822 -0.162399 0.912805
-0.0976323 -0.164427 0.915995
-0.0980817 -0.166598 0.920004
-0.0986067 -0.168886 0.924641
-0.0991499 -0.171214 0.929428
-0.0996061 -0.17344 0.933504
-0.0996585 -0.175122 0.934248
-0.0996796 -0.176762 0.934728
-0.0996044 -0.178267 0.934414
-0.0994767 -0.179698 0.93367
-0.0993484 -0.181125 0.932917
-0.0992409 -0.18258 0.932342
-0.099091 -0.18397 0.931408
-0.0989812 -0.185418 0.930813
-0.0988757 -0.186869 0.930245
-0.0987847 -0.188341 0.9298
-0.0987179 -0.189849 0.929553
-0.0986824 -0.191404 0.929573
-0.0986382 -0.192945 0.929511
-0.0985939 -0.194488 0.929453
-0.0985592 -0.196045 0.929476
-0.0985037 -0.197569 0.929324
-0.0984578 -0.199109 0.929253
-0.0984118 -0.200648 0.929186
-0.0983675 -0.20219 0.929124
-0.0983232 -0.203732 0.929066
-0.0982885 -0.205291 0.929089
-0.0982546 -0.206851 0.929119
-0.0964936 -0.0410166 0.894957
-0.0963262 -0.0424646 0.893883
-0.0961571 -0.0439089 0.892798
-0.0959523 -0.0453419 0.891421
-0.0957427 -0.0467692 0.889996
-0.0955657 -0.0481999 0.888842
-0.0953063 -0.0496054 0.887012
-0.0950603 -0.0510088 0.8853
-0.0947856 -0.052398 0.88334
-0.0945442 -0.0537909 0.881656
-0.0943295 -0.0551869 0.880192
-0.0941899 -0.0566027 0.879334
-0.0940029 -0.0579997 0.878096
-0.0938502 -0.0594049 0.877132
-0.0936369 -0.0607843 0.87567
-0.0934021 -0.0621509 0.874038
-0.0931784 -0.0635163 0.872489
-0.0930351 -0.0649102 0.871604
-0.0928929 -0.0663015 0.87072
-0.0928409 -0.06773 0.870581
-0.0928405 -0.0691815 0.870855
-0.0928316 -0.0706306 0.87107
-0.0928533 -0.0720954 0.871535
-0.0929238 -0.073586 0.872395
-0.0929504 -0.0750576 0.872901
-0.0930364 -0.0765622 0.873892
-0.0931711 -0.0780966 0.875281
-0.0933387 -0.0796543 0.876944
-0.0936151 -0.0812798 0.879501
-0.0939284 -0.0829358 0.882364
-0.0941985 -0.084576 0.884871
-0.0943809 -0.0861715 0.886661
-0.0944279 -0.0876889 0.887342
-0.0943209 -0.0891102 0.886751
-0.0941975 -0.0905187 0.886022
-0.0940181 -0.0918878 0.884834
-0.0938906 -0.0932885 0.884075
-0.0938347 -0.0947369 0.883909
-0.0937838 -0.0961881 0.88378
-0.0937757 -0.0976701 0.884004
-0.0939081 -0.0992566 0.885384
-0.0941552 -0.100935 0.887715
-0.0944185 -0.102634 0.890185
-0.0946948 -0.104351 0.892755
-0.0949518 -0.106063 0.895176
-0.0950701 -0.10767 0.896448
-0.0950334 -0.109155 0.896438
-0.0949679 -0.110616 0.896196
-0.0948853 -0.112061 0.895809
-0.0947758 -0.113482 0.895195
-0.0946907 -0.114922 0.89479
-0.0946606 -0.116411 0.894836
-0.0946427 -0.117911 0.894986
-0.0946239 -0.119411 0.895128
-0.0946134 -0.120919 0.895333
-0.0946109 -0.122437 0.895613
-0.0946223 -0.123968 0.896002
-0.0946361 -0.125504 0.896417
-0.0946622 -0.127053 0.896924
-0.0946937 -0.12861 0.897489
-0.0947049 -0.130149 0.897881
-0.0946949 -0.131667 0.898096
-0.0946832 -0.133183 0.898296
-0.0947017 -0.134733 0.898744
-0.0946622 -0.136223 0.89872
-0.094622 -0.137711 0.898684
-0.0945753 -0.139193 0.898596
-0.0945278 -0.140673 0.898495
-0.0944721 -0.142144 0.898337
-0.094483 -0.143692 0.898726
-0.0944971 -0.145245 0.899148
-0.0945445 -0.146838 0.899839
-0.0946412 -0.148495 0.900949
-0.0947347 -0.15015 0.902024
-0.0948497 -0.151837 0.903291
-0.0949963 -0.153567 0.904815
-0.0951322 -0.15529 0.906255
-0.0952793 -0.157032 0.907785
-0.0954051 -0.158753 0.909144
-0.0954994 -0.160436 0.910233
-0.0955757 -0.162101 0.911179
-0.0958716 -0.164062 0.913961
-0.0963693 -0.166304 0.918429
-0.0969584 -0.168686 0.923666
-0.0975647 -0.171111 0.929056
-0.0980989 -0.173454 0.933837
-0.0982389 -0.175262 0.935331
-0.0982596 -0.176905 0.935818
-0.0981981 -0.178432 0.935619
-0.0980827 -0.179881 0.934966
-0.0979545 -0.181308 0.934206
-0.0978246 -0.182732 0.933433
-0.0976604 -0.1841 0.932368
-0.0975283 -0.185514 0.931576
-0.0973979 -0.186929 0.930796
-0.0972941 -0.18838 0.93024
-0.0972154 -0.189869 0.929887
-0.097159 -0.191392 0.929727
-0.0971035 -0.192917 0.929575
-0.0970584 -0.194458 0.92951
-0.0970133 -0.195999 0.929446
-0.0969569 -0.197521 0.929287
-0.0969101 -0.19906 0.929213
-0.0968642 -0.200599 0.929143
-0.0968199 -0.202142 0.929084
-0.0967765 -0.203684 0.929029
-0.0967426 -0.205244 0.929059
-0.0967086 -0.206804 0.929092
-0.09918 -0.21005 0.937134
-0.096709 -0.208425 0.929413
-0.0946698 -0.0438617 0.892653
-0.0944728 -0.0452957 0.891321
-0.094291 -0.046729 0.890109
-0.0941191 -0.048161 0.888987
-0.0938627 -0.049567 0.88716
-0.0936197 -0.0509706 0.885441
-0.0933462 -0.0523596 0.883467
-0.0930994 -0.0537504 0.881716
-0.0928875 -0.0551467 0.880256
-0.092749 -0.0565625 0.879393
-0.0925723 -0.0579627 0.878222
-0.0924231 -0.0593688 0.877274
-0.0922142 -0.0607494 0.875833
-0.0919931 -0.0621207 0.87429
-0.0917813 -0.0634905 0.87282
-0.0916399 -0.0648852 0.871939
-0.0914994 -0.0662775 0.871063
-0.0914492 -0.0677074 0.870934
-0.0914452 -0.0691585 0.871192
-0.0914363 -0.070608 0.871402
-0.0914563 -0.0720726 0.871854
-0.0915266 -0.0735646 0.872728
-0.0915818 -0.0750521 0.87348
-0.0916873 -0.0765692 0.874652
-0.0918323 -0.0781121 0.876149
-0.0920308 -0.0796898 0.878088
-0.0922167 -0.0812676 0.879929
-0.0924089 -0.0828561 0.881828
-0.0925376 -0.0844123 0.883194
-0.0926283 -0.0859501 0.884244
-0.0925997 -0.0874159 0.884298
-0.0925562 -0.0888725 0.884228
-0.0924995 -0.0903208 0.884054
-0.0924248 -0.0917563 0.883726
-0.0923617 -0.0931984 0.88349
-0.0923379 -0.0946682 0.883588
-0.0923157 -0.0961399 0.883703
-0.0923346 -0.0976417 0.884153
-0.0924862 -0.0992449 0.885718
-0.0927442 -0.100935 0.888171
-0.0930092 -0.102639 0.890691
-0.0932692 -0.104348 0.893166
-0.0934995 -0.106042 0.89539
-0.0935911 -0.10763 0.896462
-0.0935316 -0.109095 0.896259
-0.0934645 -0.110554 0.896
-0.093382 -0.111999 0.895609
-0.0932823 -0.113428 0.895078
-0.0931991 -0.114869 0.894678
-0.0931779 -0.116366 0.894802
-0.0931592 -0.117865 0.894943
-0.093151 -0.119375 0.895175
-0.0931305 -0.120875 0.895307
-0.093128 -0.122392 0.895587
-0.0931376 -0.123923 0.89597
-0.0931505 -0.125459 0.896382
-0.0931648 -0.126998 0.896809
-0.0931955 -0.128555 0.897369
-0.0932049 -0.130092 0.897753
-0.0931949 -0.131609 0.897967
-0.0931832 -0.133127 0.898174
-0.0932014 -0.134678 0.898635
-0.0931824 -0.136189 0.898772
-0.093142 -0.137678 0.898743
-0.0930962 -0.13916 0.898657
-0.0930576 -0.140651 0.898636
-0.0930035 -0.142124 0.898487
-0.0930045 -0.143661 0.898803
-0.0930194 -0.145216 0.899232
-0.0930625 -0.146806 0.899897
-0.0931354 -0.148436 0.900822
-0.0932027 -0.150061 0.901694
-0.0932932 -0.151719 0.902768
-0.0934142 -0.15342 0.904103
-0.0935158 -0.155101 0.905271
-0.0936391 -0.156814 0.906622
-0.0937621 -0.158532 0.90798
-0.093844 -0.160201 0.908984
-0.0938896 -0.161824 0.909674
-0.0941195 -0.163699 0.911938
-0.094665 -0.166013 0.916877
-0.0959404 -0.170952 0.928338
-0.0965518 -0.173415 0.933854
-0.0967776 -0.175348 0.936089
-0.0967876 -0.176979 0.936498
-0.096751 -0.178543 0.936508
-0.0966582 -0.180025 0.936041
-0.0965318 -0.181455 0.935283
-0.0964117 -0.182893 0.934583
-0.0962364 -0.184245 0.933413
-0.096083 -0.185625 0.932423
-0.0959311 -0.187005 0.93145
-0.0958059 -0.188424 0.930701
-0.0957038 -0.189877 0.930153
-0.0956346 -0.191381 0.929886
-0.095567 -0.192887 0.929633
-0.0955124 -0.194411 0.92948
-0.0954673 -0.195952 0.929416
-0.0954101 -0.197474 0.929254
-0.0953643 -0.199013 0.929177
-0.0953167 -0.20055 0.929098
-0.0952741 -0.202094 0.929048
-0.0952297 -0.203637 0.928996
-0.0951967 -0.205198 0.929028
-0.0951618 -0.206757 0.929059
-0.0951716 -0.208395 0.929465
-0.0932961 -0.0423603 0.893163
-0.0931319 -0.0438037 0.892083
-0.0929792 -0.0452465 0.891105
-0.0928293 -0.0466866 0.890142
-0.0926652 -0.0481201 0.889066
-0.0924241 -0.0495297 0.887345
-0.0921981 -0.0509378 0.885746
-0.0919283 -0.0523276 0.883777
-0.0916844 -0.0537191 0.882026
-0.0914771 -0.0551167 0.880581
-0.0913303 -0.0565302 0.879646
-0.0911754 -0.0579378 0.878639
-0.0910289 -0.0593451 0.877702
-0.0908228 -0.060727 0.876268
-0.0906045 -0.0620992 0.874727
-0.0904021 -0.0634728 0.873317
-0.0902544 -0.0648649 0.872365
-0.0901158 -0.0662581 0.871491
-0.0900646 -0.0676886 0.87136
-0.0900615 -0.0691406 0.871621
-0.0900507 -0.0705906 0.871828
-0.0900697 -0.072056 0.872281
-0.090138 -0.0735489 0.873156
-0.0902121 -0.0750473 0.874072
-0.0903165 -0.0765657 0.875247
-0.0904585 -0.0781095 0.876745
-0.0906137 -0.0796657 0.87835
-0.090772 -0.0812296 0.879982
-0.0909184 -0.0827927 0.881525
-0.0910148 -0.0843298 0.882633
-0.0910731 -0.0858478 0.88343
-0.09106 -0.0873225 0.883619
-0.0910167 -0.0887778 0.883546
-0.0909617 -0.090226 0.883384
-0.0909199 -0.0916826 0.88333
-0.0908806 -0.0931405 0.883293
-0.0908879 -0.0946324 0.883657
-0.0909067 -0.0961339 0.884116
-0.0909744 -0.097674 0.884993
-0.0911493 -0.0992981 0.886776
-0.0914164 -0.101 0.889344
-0.0916587 -0.102692 0.891706
-0.0918802 -0.104375 0.893895
-0.0920543 -0.106028 0.895678
-0.0921008 -0.10758 0.896378
-0.092028 -0.109035 0.896071
-0.0919612 -0.110492 0.895802
-0.0918787 -0.111937 0.895412
-0.0917906 -0.113375 0.894969
-0.0917164 -0.114824 0.894643
-0.0917034 -0.116328 0.894836
-0.0916829 -0.117826 0.894967
-0.091682 -0.119344 0.895264
-0.0916606 -0.120843 0.895392
-0.091658 -0.122361 0.895676
-0.0916578 -0.123883 0.89598
-0.0916696 -0.125419 0.896393
-0.0916629 -0.126936 0.89664
-0.0916821 -0.128482 0.89711
-0.0916799 -0.130008 0.897407
-0.0916617 -0.131517 0.897557
-0.0916515 -0.133036 0.89778
-0.0916704 -0.134588 0.898252
-0.0916619 -0.13611 0.898483
-0.0916419 -0.137621 0.898622
-0.0916065 -0.139115 0.89863
-0.0915792 -0.140619 0.898707
-0.0915462 -0.142117 0.898737
-0.0915471 -0.143655 0.899055
-0.0915512 -0.145199 0.899402
-0.0915812 -0.146776 0.89997
-0.0916304 -0.148378 0.900704
-0.0916731 -0.149975 0.901384
-0.0917496 -0.151618 0.902354
-0.0918462 -0.153289 0.903495
-0.0919338 -0.154953 0.904557
-0.0920309 -0.156633 0.905706
-0.0921392 -0.158333 0.906951
-0.0922103 -0.159988 0.90788
-0.0922564 -0.161612 0.908591
-0.0924222 -0.163403 0.910334
-0.0928989 -0.16563 0.914751
-0.0934031 -0.167912 0.919414
-0.0940884 -0.170468 0.925638
-0.0947352 -0.17299 0.931538
-0.095067 -0.175078 0.934728
-0.0951756 -0.176851 0.935991
-0.0952505 -0.178579 0.936963
-0.0951706 -0.18008 0.9366
-0.0950483 -0.181516 0.935871
-0.0949396 -0.182971 0.935262
-0.0947783 -0.184342 0.934191
-0.0946353 -0.185739 0.933286
-0.0944765 -0.187108 0.932239
-0.0943506 -0.188525 0.931473
-0.094235 -0.189957 0.930805
-0.0941436 -0.191424 0.930338
-0.0940547 -0.192894 0.929889
-0.0939872 -0.194399 0.929633
-0.0939308 -0.195922 0.929473
-0.0938651 -0.197428 0.929227
-0.0938182 -0.198967 0.929153
-0.0937628 -0.20049 0.928995
-0.0937178 -0.20203 0.92893
-0.0936735 -0.203571 0.928872
-0.0936395 -0.205132 0.928904
-0.0936056 -0.206691 0.928935
-0.093624 -0.208346 0.929425
-0.0961451 -0.211743 0.938125
-0.0936805 -0.210072 0.930246
-0.0914318 -0.0451847 0.890427
-0.0913301 -0.0466351 0.889864
-0.0911863 -0.0480731 0.888942
-0.0909745 -0.0494898 0.887446
-0.0907704 -0.0509037 0.886012
-0.0905416 -0.0523056 0.884367
-0.0903097 -0.053701 0.882693
-0.0901051 -0.0551 0.881255
-0.0899602 -0.0565149 0.880322
-0.0898261 -0.0579306 0.87948
-0.0896823 -0.0593398 0.87855
-0.08947 -0.0607198 0.877039
-0.0892784 -0.0621032 0.875707
-0.089078 -0.0634783 0.874292
-0.0889213 -0.064868 0.873258
-0.0887846 -0.0662628 0.872384
-0.0887408 -0.0676982 0.872315
-0.0887094 -0.0691392 0.872347
-0.0886987 -0.0705904 0.872553
-0.0887192 -0.0720581 0.873023
-0.0887864 -0.0735522 0.873899
-0.0888675 -0.0750568 0.874894
-0.08896 -0.0765714 0.875989
-0.0890993 -0.0781159 0.877479
-0.0892292 -0.079661 0.8789
-0.0893542 -0.0812076 0.88027
-0.0894585 -0.0827468 0.881467
-0.0895282 -0.0842693 0.882375
-0.0895562 -0.0857676 0.882913
-0.0895332 -0.0872353 0.883021
-0.0894988 -0.0886962 0.883032
-0.0894562 -0.0901515 0.88297
-0.089443 -0.0916272 0.88316
-0.0894331 -0.0931064 0.883383
-0.0894819 -0.0946292 0.884112
-0.0895437 -0.0961642 0.884951
-0.0896759 -0.0977546 0.886387
-0.0898819 -0.0994082 0.888474
-0.0901269 -0.101099 0.890891
-0.0903294 -0.102765 0.89294
-0.090499 -0.104411 0.894714
-0.0905967 -0.106004 0.895869
-0.0905934 -0.107516 0.896148
-0.0905207 -0.108969 0.895834
-0.0904539 -0.110427 0.895568
-0.0903748 -0.111873 0.8952
-0.0902991 -0.113321 0.894853
-0.0902346 -0.114779 0.894614
-0.0902215 -0.116283 0.894807
-0.0901904 -0.117772 0.894851
-0.0901779 -0.11928 0.89506
-0.0901461 -0.120768 0.895093
-0.0901337 -0.122277 0.895298
-0.0901123 -0.123777 0.895425
-0.0901136 -0.125301 0.895747
-0.0900936 -0.126805 0.895893
-0.0901014 -0.128338 0.89627
-0.0900986 -0.129862 0.896557
-0.0900883 -0.131379 0.896786
-0.090099 -0.13292 0.897195
-0.0901284 -0.134484 0.897763
-0.0901391 -0.136028 0.89817
-0.0901296 -0.137551 0.8984
-0.0901168 -0.139071 0.898603
-0.0901007 -0.140589 0.898783
-0.0900887 -0.142112 0.898995
-0.0900903 -0.143652 0.899324
-0.0900911 -0.145193 0.899648
-0.0901096 -0.146756 0.900122
-0.0901368 -0.148334 0.900679
-0.0901592 -0.149906 0.901191
-0.0902217 -0.151533 0.902057
-0.0902954 -0.153177 0.903015
-0.0903595 -0.154811 0.903887
-0.0904401 -0.156472 0.904915
-0.0905433 -0.158166 0.906131
-0.0906117 -0.159818 0.907052
-0.0906793 -0.161472 0.90796
-0.0907619 -0.163151 0.909009
-0.0911347 -0.16524 0.912584
-0.0915544 -0.16741 0.916576
-0.0922146 -0.169939 0.922676
-0.0928511 -0.172455 0.928568
-0.0933085 -0.17473 0.932904
-0.0935393 -0.176684 0.935251
-0.0936792 -0.178513 0.936816
-0.0936139 -0.180034 0.936573
-0.093515 -0.181503 0.936037
-0.0934312 -0.182996 0.935639
-0.0932845 -0.184388 0.934683
-0.0931672 -0.185825 0.933993
-0.0930311 -0.187227 0.933127
-0.0929157 -0.188662 0.932447
-0.0927916 -0.190079 0.93169
-0.0926771 -0.19151 0.931014
-0.0925634 -0.192941 0.930353
-0.0924729 -0.194407 0.929889
-0.0923951 -0.195894 0.929538
-0.0923199 -0.197383 0.929204
-0.0922636 -0.198906 0.929045
-0.0921971 -0.200408 0.92879
-0.0921505 -0.201946 0.928709
-0.0921053 -0.203486 0.928646
-0.0920722 -0.205047 0.928684
-0.0920381 -0.206608 0.928723
-0.0920659 -0.20828 0.9293
-0.0921103 -0.209985 0.930023
-0.0937646 -0.21185 0.93131
-0.092172 -0.211725 0.930903
-0.0897065 -0.0480257 0.888808
-0.0895423 -0.0494547 0.887698
-0.089369 -0.0508775 0.886515
-0.089177 -0.0522906 0.88516
-0.088966 -0.0536933 0.883646
-0.0887816 -0.0551001 0.882361
-0.0886394 -0.0565171 0.881434
-0.0885261 -0.0579418 0.880759
-0.0883914 -0.0593564 0.879902
-0.0881719 -0.0607352 0.878312
-0.0879906 -0.0621239 0.877044
-0.0877821 -0.0634973 0.875547
-0.0876002 -0.0648773 0.874274
-0.0874528 -0.0662689 0.873305
-0.0874074 -0.0677048 0.873215
-0.0873571 -0.0691383 0.873084
-0.0873462 -0.0705912 0.873298
-0.0873747 -0.0720649 0.873848
-0.0874318 -0.0735559 0.874651
-0.0875118 -0.0750621 0.875648
-0.0875925 -0.0765724 0.876657
-0.0877199 -0.0781127 0.878066
-0.087828 -0.0796474 0.87932
-0.0879379 -0.0811873 0.880582
-0.0880181 -0.0827134 0.881587
-0.0880762 -0.0842291 0.882399
-0.0880925 -0.0857212 0.882852
-0.0880605 -0.0871834 0.882887
-0.0880268 -0.0886445 0.882904
-0.0879843 -0.0900996 0.882842
-0.0879889 -0.0915883 0.883196
-0.0880092 -0.0930891 0.883679
-0.0881084 -0.0946503 0.884857
-0.0882229 -0.0962273 0.88617
-0.0884188 -0.097871 0.888191
-0.0886177 -0.0995246 0.890243
-0.088818 -0.101187 0.892308
-0.0889637 -0.102811 0.893896
-0.089062 -0.104403 0.895069
-0.0890861 -0.105937 0.895602
-0.0890624 -0.107431 0.895708
-0.0889996 -0.108892 0.895478
-0.0889362 -0.110351 0.895233
-0.088871 -0.111809 0.89498
-0.0888067 -0.113267 0.894733
-0.0887545 -0.114735 0.894591
-0.0887324 -0.116232 0.894715
-0.0886914 -0.117712 0.89468
-0.0886701 -0.11921 0.894808
-0.088626 -0.120687 0.89474
-0.0886022 -0.122183 0.894846
-0.0885695 -0.123672 0.894874
-0.0885586 -0.125183 0.895096
-0.0885274 -0.126674 0.895143
-0.0885229 -0.128194 0.89542
-0.0885183 -0.129715 0.8957
-0.0885169 -0.131241 0.896009
-0.0885461 -0.132802 0.896586
-0.0885858 -0.134377 0.897253
-0.0886165 -0.135945 0.897849
-0.0886271 -0.137491 0.898257
-0.0886343 -0.139035 0.898644
-0.0886327 -0.14057 0.89895
-0.0886311 -0.142107 0.899255
-0.0886309 -0.143646 0.899579
-0.0886291 -0.145185 0.899886
-0.0886459 -0.146749 0.900355
-0.0886633 -0.148315 0.900833
-0.0886741 -0.149875 0.901257
-0.0887349 -0.151501 0.902114
-0.0887866 -0.153118 0.902896
-0.0888295 -0.154727 0.903597
-0.0888882 -0.15636 0.904446
-0.0889861 -0.15805 0.90564
-0.089052 -0.159698 0.906543
-0.0891385 -0.16138 0.907637
-0.0892425 -0.163091 0.908885
-0.0895165 -0.165049 0.911648
-0.0898408 -0.167088 0.914848
-0.0903683 -0.169437 0.919863
-0.0909495 -0.171882 0.92536
-0.0914833 -0.174275 0.930434
-0.0918082 -0.176373 0.933658
-0.0920165 -0.178305 0.935846
-0.0920213 -0.179933 0.936228
-0.0919441 -0.181434 0.935876
-0.0918963 -0.182981 0.93579
-0.0917943 -0.184443 0.935225
-0.0917148 -0.185938 0.934854
-0.0916137 -0.187398 0.934294
-0.091512 -0.188854 0.933726
-0.0913872 -0.190272 0.932953
-0.0912521 -0.19167 0.93209
-0.0911069 -0.193047 0.931132
-0.0909816 -0.194454 0.930353
-0.0908801 -0.195901 0.929787
-0.0907938 -0.19737 0.929348
-0.0907281 -0.198876 0.929102
-0.0906504 -0.20036 0.92875
-0.0906014 -0.201893 0.92865
-0.0905548 -0.20343 0.928568
-0.0905137 -0.204977 0.928537
-0.090482 -0.206542 0.928596
-0.090519 -0.208234 0.92927
-0.0905514 -0.209918 0.929896
-0.0906097 -0.211653 0.930756
-0.0931058 -0.215088 0.939485
-0.0906772 -0.213412 0.931707
-0.0881412 -0.0494284 0.888235
-0.0879873 -0.0508573 0.887196
-0.0878152 -0.0522772 0.886003
-0.0876515 -0.053696 0.88488
-0.0874789 -0.0551082 0.883679
-0.0873375 -0.0565276 0.882756
-0.0872252 -0.0579545 0.882079
-0.0871013 -0.0593752 0.881308
-0.0868757 -0.0607526 0.879632
-0.0866961 -0.062144 0.878372
-0.0864896 -0.0635195 0.876869
-0.0863005 -0.0648979 0.875519
-0.0861419 -0.0662857 0.874435
-0.0860949 -0.0677225 0.874325
-0.0860339 -0.0691528 0.8741
-0.0860229 -0.0706074 0.874313
-0.0860495 -0.0720826 0.874859
-0.0860957 -0.0735703 0.875579
-0.0861639 -0.0750727 0.876491
-0.0862336 -0.0765796 0.877422
-0.0863401 -0.0781104 0.878669
-0.0864283 -0.0796356 0.879765
-0.0865165 -0.0811644 0.880856
-0.0865753 -0.0826785 0.881686
-0.0866199 -0.0841876 0.882402
-0.0866271 -0.0856742 0.88278
-0.0865969 -0.0871366 0.882821
-0.0865721 -0.0886043 0.882924
-0.0865377 -0.0900651 0.882932
-0.0865618 -0.0915684 0.883465
-0.0866192 -0.093098 0.884291
-0.0867595 -0.0946923 0.88585
-0.086925 -0.0963108 0.887627
-0.0871582 -0.0979895 0.890019
-0.0873363 -0.099632 0.891913
-0.0874807 -0.101254 0.893514
-0.087565 -0.102833 0.894583
-0.0875964 -0.104372 0.895183
-0.0875603 -0.105855 0.895191
-0.0875269 -0.10734 0.89521
-0.0874738 -0.108809 0.895068
-0.0874209 -0.110278 0.894918
-0.087368 -0.111746 0.894766
-0.0873151 -0.113213 0.894618
-0.0872726 -0.114691 0.894565
-0.0872602 -0.116197 0.894773
-0.0872209 -0.117678 0.894752
-0.0871979 -0.119175 0.894866
-0.0871521 -0.120651 0.894786
-0.0871153 -0.122135 0.894783
-0.0870633 -0.123603 0.894639
-0.0870393 -0.125101 0.894753
-0.0869986 -0.126581 0.894707
-0.0869738 -0.128079 0.894813
-0.0869683 -0.129599 0.895089
-0.0869669 -0.131124 0.8954
-0.0870064 -0.132697 0.89608
-0.0870475 -0.134275 0.896773
-0.0870974 -0.135864 0.897541
-0.0871263 -0.137433 0.898126
-0.0871534 -0.139002 0.898698
-0.0871621 -0.14055 0.899103
-0.0871715 -0.142101 0.899516
-0.0871697 -0.14364 0.899828
-0.0871663 -0.145178 0.900123
-0.0871811 -0.146741 0.900589
-0.0871903 -0.148298 0.901001
-0.087202 -0.14986 0.90143
-0.0872584 -0.151482 0.902266
-0.0872979 -0.153086 0.902951
-0.08733 -0.154683 0.903574
-0.0873789 -0.156304 0.904346
-0.0874758 -0.157994 0.90554
-0.0875397 -0.159643 0.90645
-0.0876346 -0.161339 0.907636
-0.0877366 -0.163051 0.908886
-0.0879229 -0.164889 0.910902
-0.0881594 -0.166805 0.91336
-0.0885827 -0.16901 0.91751
-0.0891106 -0.171384 0.922608
-0.0896079 -0.17373 0.927431
-0.0900067 -0.175945 0.931375
-0.0902796 -0.177979 0.93418
-0.090367 -0.179733 0.935313
-0.0903319 -0.181299 0.935341
-0.0903357 -0.182928 0.935724
-0.0902816 -0.184465 0.935578
-0.0902386 -0.186018 0.935535
-0.0901709 -0.187534 0.935272
-0.0900828 -0.189013 0.934818
-0.0899614 -0.190435 0.934063
-0.0898171 -0.191817 0.933101
-0.0896586 -0.193171 0.932012
-0.0895105 -0.194539 0.931016
-0.089387 -0.195947 0.930242
-0.0892786 -0.197379 0.929604
-0.0892018 -0.198865 0.929252
-0.0891038 -0.200311 0.928708
-0.0890429 -0.201823 0.928502
-0.0889962 -0.20336 0.928423
-0.0889559 -0.204909 0.9284
-0.0889258 -0.206476 0.928472
-0.0889626 -0.20817 0.929153
-0.0889821 -0.209833 0.929677
-0.0890275 -0.211546 0.930433
-0.0890925 -0.213301 0.931371
-0.0867144 -0.0493955 0.888558
-0.0865771 -0.0508293 0.887652
-0.0864373 -0.0522598 0.886733
-0.0863157 -0.0536932 0.885972
-0.0861811 -0.0551196 0.88509
-0.0860622 -0.0565488 0.884347
-0.0859588 -0.0579818 0.88375
-0.0858466 -0.0594091 0.883062
-0.0856221 -0.0607893 0.881382
-0.0854453 -0.0621838 0.880122
-0.0852489 -0.0635659 0.87869
-0.0850518 -0.064943 0.877251
-0.0848845 -0.0663287 0.876068
-0.0848259 -0.0677632 0.875864
-0.0847461 -0.0691865 0.875467
-0.0847079 -0.0706303 0.875447
-0.0847327 -0.0721066 0.87598
-0.084768 -0.0735912 0.876615
-0.0848155 -0.0750848 0.877358
-0.0848726 -0.0765868 0.878192
-0.0849665 -0.0781129 0.879345
-0.0850251 -0.0796224 0.880192
-0.0850926 -0.0811405 0.881118
-0.0851486 -0.0826546 0.881939
-0.085185 -0.084159 0.882586
-0.0851929 -0.0856465 0.882973
-0.0851608 -0.0871093 0.883012
-0.0851523 -0.0885884 0.883258
-0.0851365 -0.0900632 0.883436
-0.0851906 -0.0915895 0.884241
-0.0852801 -0.0931455 0.885372
-0.0854589 -0.0947726 0.887299
-0.0856406 -0.0964093 0.88926
-0.0858782 -0.0980967 0.891721
-0.0860222 -0.0997178 0.893345
-0.0861111 -0.1013 0.894473
-0.0861415 -0.102837 0.895075
-0.0861217 -0.104334 0.895224
-0.0860405 -0.105778 0.894817
-0.0859973 -0.107254 0.894755
-0.0859541 -0.108731 0.894693
-0.0859109 -0.110207 0.894631
-0.0858676 -0.111684 0.894569
-0.0858244 -0.11316 0.894507
-0.0857997 -0.114655 0.894614
-0.0857863 -0.116161 0.894822
-0.0857471 -0.117642 0.894794
-0.0857126 -0.119128 0.894818
-0.085667 -0.120603 0.894734
-0.0856116 -0.122068 0.894562
-0.08555 -0.123526 0.89433
-0.0855155 -0.125013 0.894351
-0.085473 -0.12649 0.894296
-0.0854386 -0.127977 0.894315
-0.085434 -0.129497 0.894598
-0.0854324 -0.131022 0.894917
-0.0854815 -0.132607 0.89569
-0.085532 -0.134196 0.896479
-0.0855816 -0.135787 0.897262
-0.085627 -0.137377 0.898012
-0.0856724 -0.138969 0.898759
-0.0856834 -0.140521 0.899188
-0.0856919 -0.142072 0.899601
-0.0856972 -0.14362 0.89998
-0.0856831 -0.145147 0.900191
-0.08569 -0.146699 0.900581
-0.0856999 -0.148258 0.901007
-0.0857089 -0.149818 0.901428
-0.0857625 -0.15144 0.902255
-0.0858003 -0.153042 0.902929
-0.0858403 -0.15465 0.90363
-0.0858985 -0.156287 0.9045
-0.0859957 -0.157981 0.905722
-0.0860577 -0.15963 0.906629
-0.0861585 -0.161339 0.907893
-0.086249 -0.163036 0.909056
-0.0863384 -0.164738 0.910217
-0.086489 -0.166533 0.911936
-0.0868055 -0.168584 0.915168
-0.0872247 -0.170803 0.919354
-0.087658 -0.173058 0.923661
-0.0881112 -0.175361 0.928167
-0.088454 -0.177505 0.931655
-0.0886378 -0.179411 0.933688
-0.0886939 -0.181121 0.934554
-0.0887144 -0.182775 0.93509
-0.0887434 -0.184446 0.935708
-0.0887336 -0.186056 0.935969
-0.088696 -0.187621 0.935982
-0.0886229 -0.189126 0.935663
-0.0885183 -0.190576 0.935047
-0.0883733 -0.191956 0.934072
-0.0882167 -0.193312 0.932984
-0.0880603 -0.194665 0.93189
-0.0879251 -0.196052 0.931002
-0.0877964 -0.197446 0.930163
-0.0876976 -0.198893 0.929608
-0.0875801 -0.200303 0.928873
-0.0875089 -0.201797 0.928573
-0.0874521 -0.203315 0.928398
-0.0874109 -0.204862 0.928373
-0.0873808 -0.20643 0.928442
-0.0874055 -0.208103 0.929028
-0.0874139 -0.209746 0.929454
-0.0874465 -0.211437 0.930105
-0.0874993 -0.213172 0.930952
-0.0851945 -0.0508103 0.888376
-0.0850902 -0.0522527 0.887759
-0.085004 -0.0536993 0.887306
-0.0849064 -0.0551404 0.886747
-0.084799 -0.0565765 0.886105
-0.0846974 -0.0580126 0.885508
-0.0845942 -0.0594464 0.884899
-0.0843888 -0.0608367 0.883371
-0.0842228 -0.0622384 0.882192
-0.0840391 -0.0636283 0.880846
-0.0838602 -0.0650165 0.879552
-0.0836955 -0.0664067 0.878379
-0.083627 -0.0678403 0.878085
-0.08353 -0.0692586 0.877527
-0.0834714 -0.070695 0.877319
-0.0834738 -0.0721639 0.87767
-0.0834821 -0.0736368 0.878064
-0.0834999 -0.0751171 0.878554
-0.0835447 -0.0766143 0.87928
-0.0836153 -0.0781301 0.880247
-0.0836444 -0.0796239 0.880837
-0.0836904 -0.081131 0.881587
-0.0837347 -0.0826393 0.882316
-0.0837613 -0.0841384 0.88288
-0.0837689 -0.0856273 0.883279
-0.0837386 -0.0870912 0.883324
-0.0837469 -0.0885835 0.883734
-0.0837594 -0.0900798 0.884173
-0.083835 -0.0916244 0.885191
-0.0839558 -0.0932069 0.886623
-0.0841411 -0.0948442 0.888647
-0.084319 -0.0964827 0.890602
-0.084521 -0.098147 0.892775
-0.0846306 -0.0997445 0.894113
-0.0846788 -0.101295 0.894881
-0.084688 -0.102816 0.8953
-0.0846488 -0.104297 0.895276
-0.0845587 -0.105733 0.894788
-0.0845155 -0.107209 0.894726
-0.0844722 -0.108686 0.894664
-0.084429 -0.110163 0.894602
-0.0843858 -0.111639 0.89454
-0.0843426 -0.113116 0.894478
-0.0843267 -0.114619 0.894666
-0.0843044 -0.116116 0.894796
-0.0842644 -0.117597 0.894763
-0.084222 -0.119075 0.894707
-0.0841737 -0.120548 0.894607
-0.0841016 -0.121994 0.894278
-0.0840311 -0.123442 0.893966
-0.0839792 -0.124908 0.893817
-0.0839264 -0.126374 0.893666
-0.0838735 -0.12784 0.893518
-0.0838758 -0.129368 0.893882
-0.0838935 -0.130914 0.894375
-0.0839598 -0.13252 0.895326
-0.0840276 -0.134131 0.896289
-0.0840939 -0.135742 0.897233
-0.0841294 -0.137322 0.897908
-0.0841827 -0.138924 0.898733
-0.0841926 -0.140477 0.899168
-0.084201 -0.142029 0.899584
-0.0842053 -0.143577 0.899963
-0.0841993 -0.145113 0.900243
-0.0842042 -0.146666 0.900635
-0.084214 -0.148226 0.901066
-0.0842229 -0.149787 0.90149
-0.0842747 -0.151408 0.902314
-0.0843097 -0.153009 0.902982
-0.0843409 -0.154606 0.903604
-0.0844066 -0.156256 0.904565
-0.0845115 -0.157964 0.905874
-0.084574 -0.159616 0.906797
-0.0846815 -0.161338 0.908143
-0.0847684 -0.163033 0.909295
-0.084856 -0.164735 0.910454
-0.0850115 -0.166543 0.912249
-0.0852317 -0.168458 0.914646
-0.0855437 -0.170521 0.917896
-0.0858759 -0.172627 0.921332
-0.0862512 -0.174814 0.925177
-0.0865343 -0.176869 0.928171
-0.0867952 -0.178898 0.930954
-0.0869515 -0.180767 0.932762
-0.0870916 -0.182618 0.934434
-0.0872199 -0.184455 0.935987
-0.0872187 -0.186079 0.936329
-0.0872056 -0.187686 0.936569
-0.0871429 -0.189208 0.936339
-0.0870461 -0.190673 0.9358
-0.0869142 -0.192074 0.934923
-0.0867704 -0.193451 0.933938
-0.0866165 -0.194807 0.932858
-0.0864753 -0.196183 0.931899
-0.0863357 -0.197558 0.930951
-0.086216 -0.198965 0.930185
-0.0860868 -0.200353 0.929333
-0.085996 -0.201811 0.928849
-0.085929 -0.20331 0.928576
-0.0858776 -0.204838 0.928454
-0.0858451 -0.206402 0.928505
-0.0858589 -0.208055 0.928988
-0.0858645 -0.209696 0.929407
-0.0858852 -0.211366 0.929957
-0.0859267 -0.213082 0.930711
-0.0884046 -0.21658 0.939678
-0.0868142 -0.216484 0.939413
-0.0837418 -0.0522463 0.888805
-0.08368 -0.0537029 0.888577
-0.0836086 -0.0551553 0.888253
-0.0835202 -0.0566003 0.887768
-0.0834112 -0.0580364 0.887102
-0.083309 -0.0594727 0.886489
-0.0831244 -0.0608733 0.885125
-0.082952 -0.0622748 0.883876
-0.0827798 -0.0636721 0.882623
-0.0826226 -0.065072 0.881501
-0.0824611 -0.0664668 0.880351
-0.0823845 -0.0678996 0.879976
-0.082295 -0.0693242 0.879475
-0.0822233 -0.0707572 0.879145
-0.0822069 -0.0722191 0.879326
-0.0821937 -0.0736837 0.879536
-0.0821918 -0.0751557 0.879853
-0.0822062 -0.0766385 0.880316
-0.0822377 -0.078133 0.880932
-0.0822357 -0.0796095 0.881248
-0.0822685 -0.0811097 0.881886
-0.0823102 -0.0826177 0.882605
-0.0823356 -0.0841175 0.883172
-0.082344 -0.0856077 0.88358
-0.0823288 -0.0870835 0.883776
-0.0823485 -0.0885845 0.884288
-0.0823819 -0.0900977 0.884929
-0.0824869 -0.0916674 0.886242
-0.0826347 -0.0932739 0.887943
-0.0828073 -0.0949063 0.889883
-0.0829685 -0.0965359 0.891711
-0.0831173 -0.0981627 0.893434
-0.083187 -0.0997298 0.894418
-0.0832049 -0.101257 0.89493
-0.0832053 -0.102771 0.895265
-0.083158 -0.104244 0.895166
-0.0830778 -0.105688 0.894759
-0.0830346 -0.107165 0.894697
-0.0829914 -0.108641 0.894635
-0.0829481 -0.110118 0.894573
-0.0829049 -0.111594 0.894511
-0.0828696 -0.113079 0.894531
-0.0828553 -0.114584 0.894733
-0.082824 -0.116074 0.894788
-0.082784 -0.117554 0.894754
-0.0827383 -0.119029 0.89467
-0.0826831 -0.120494 0.894495
-0.082611 -0.12194 0.894166
-0.0825406 -0.123387 0.89385
-0.0824782 -0.124842 0.893606
-0.0824141 -0.126295 0.893354
-0.0823607 -0.127759 0.89319
-0.082355 -0.129277 0.893478
-0.0823803 -0.130834 0.894064
-0.082456 -0.132452 0.895112
-0.0825315 -0.134074 0.896167
-0.0825974 -0.135687 0.897124
-0.08264 -0.137276 0.897872
-0.0826914 -0.138878 0.898694
-0.0827004 -0.14043 0.899126
-0.0827077 -0.141983 0.899545
-0.082712 -0.143531 0.899928
-0.0827041 -0.145067 0.900205
-0.0826994 -0.146607 0.900509
-0.0827067 -0.148165 0.900923
-0.0827154 -0.149726 0.901355
-0.082767 -0.151349 0.902188
-0.0828026 -0.152952 0.90287
-0.0828407 -0.15456 0.903571
-0.0829054 -0.156211 0.904534
-0.0830081 -0.157919 0.905851
-0.0830686 -0.159572 0.906778
-0.0831734 -0.161293 0.908115
-0.0832583 -0.162989 0.909268
-0.0833431 -0.164689 0.910424
-0.0834768 -0.166468 0.912033
-0.0836159 -0.168261 0.9137
-0.0838422 -0.170198 0.916199
-0.0840857 -0.172171 0.918859
-0.0843914 -0.174252 0.922102
-0.0849053 -0.178293 0.927689
-0.0863571 -0.192146 0.944006
-0.0854393 -0.192171 0.935663
-0.0853108 -0.193573 0.934803
-0.0851712 -0.194954 0.933849
-0.0850327 -0.196332 0.932895
-0.0848833 -0.197688 0.931836
-0.0847526 -0.199076 0.930961
-0.0846127 -0.200443 0.929997
-0.0845033 -0.201864 0.929324
-0.0844262 -0.203345 0.928952
-0.0843624 -0.204849 0.928707
-0.0843093 -0.206376 0.928572
-0.084312 -0.208009 0.928957
-0.0843176 -0.209649 0.929377
-0.0843271 -0.2113 0.929832
-0.0843559 -0.212992 0.930478
-0.0824376 -0.0522554 0.890301
-0.0823792 -0.0537154 0.890095
-0.0823078 -0.0551703 0.889768
-0.0822177 -0.0566172 0.889263
-0.0820998 -0.0580521 0.888508
-0.0819878 -0.0594868 0.887801
-0.0818156 -0.0608941 0.886534
-0.0816477 -0.0622989 0.885302
-0.0814961 -0.0637072 0.884222
-0.0813495 -0.0651145 0.883192
-0.0811997 -0.0665167 0.882127
-0.0811264 -0.0679538 0.881779
-0.0810352 -0.0693807 0.881262
-0.0809458 -0.0708068 0.880756
-0.080909 -0.0722604 0.880748
-0.0808762 -0.0737166 0.880779
-0.0808475 -0.0751754 0.880848
-0.0808479 -0.0766522 0.881191
-0.0808587 -0.078137 0.881635
-0.0808453 -0.0796078 0.881847
-0.0808586 -0.0810965 0.882305
-0.0808967 -0.0826042 0.883007
-0.0809042 -0.0840932 0.883415
-0.0809117 -0.0855839 0.883823
-0.080907 -0.0870675 0.884118
-0.0809513 -0.0885884 0.88488
-0.0810143 -0.0901251 0.885806
-0.0811375 -0.0917117 0.88731
-0.081291 -0.0933273 0.889102
-0.0814486 -0.0949519 0.890925
-0.0815762 -0.096559 0.89247
-0.0816754 -0.0981486 0.893753
-0.0817222 -0.0996985 0.89454
-0.0817216 -0.101211 0.894879
-0.081712 -0.102717 0.895139
-0.0816665 -0.104192 0.89505
-0.081596 -0.105644 0.89473
-0.0815527 -0.10712 0.894668
-0.0815095 -0.108597 0.894606
-0.0814663 -0.110073 0.894544
-0.0814231 -0.11155 0.894482
-0.0813885 -0.113036 0.894508
-0.081383 -0.11455 0.8948
-0.0813525 -0.11604 0.894862
-0.0813125 -0.117521 0.894827
-0.0812661 -0.118995 0.894732
-0.0812092 -0.120458 0.894543
-0.0811204 -0.121886 0.894051
-0.0810414 -0.123322 0.893645
-0.0809678 -0.124765 0.893297
-0.0808927 -0.126204 0.892934
-0.0808297 -0.127656 0.892681
-0.0808231 -0.129173 0.892966
-0.080857 -0.130741 0.893646
-0.0809419 -0.132371 0.894801
-0.0810266 -0.134006 0.895959
-0.0811001 -0.135631 0.897007
-0.0811418 -0.13722 0.897753
-0.0811896 -0.13882 0.898563
-0.081197 -0.14037 0.898982
-0.081205 -0.141924 0.899414
-0.0812089 -0.143474 0.899808
-0.081202 -0.14501 0.900088
-0.0811861 -0.146536 0.900293
-0.081182 -0.148079 0.900611
-0.08119 -0.149639 0.901036
-0.0812325 -0.151251 0.901799
-0.0812766 -0.152867 0.902576
-0.0813136 -0.154476 0.903283
-0.0813843 -0.156137 0.904318
-0.0814746 -0.157832 0.905545
-0.0815429 -0.159496 0.906551
-0.0816378 -0.161205 0.907818
-0.0817294 -0.162914 0.909056
-0.0818036 -0.164601 0.910128
-0.0819147 -0.166349 0.911552
-0.0820294 -0.168109 0.913019
-0.0821836 -0.169935 0.914856
-0.0823516 -0.171791 0.916831
-0.0826121 -0.173806 0.919705
-0.0828088 -0.175726 0.921956
-0.0830515 -0.177729 0.924657
-0.0846232 -0.1951 0.943156
-0.0837121 -0.19508 0.93473
-0.0835839 -0.196478 0.933867
-0.0834363 -0.197835 0.932809
-0.083295 -0.199201 0.931819
-0.0831382 -0.200535 0.930674
-0.0830181 -0.201936 0.929887
-0.0829224 -0.203379 0.929327
-0.0828468 -0.204862 0.928972
-0.0827838 -0.206368 0.92873
-0.0827752 -0.207981 0.929025
-0.0827628 -0.209588 0.929275
-0.0827525 -0.211202 0.929553
-0.0835747 -0.214512 0.937905
-0.087413 -0.0352806 0.932393
-0.0875703 -0.0337593 0.933499
-0.0860037 -0.0337099 0.933237
-0.0858508 -0.0352313 0.932151
-0.0871975 -0.0367897 0.930745
-0.0856137 -0.0367362 0.930274
-0.0869839 -0.0382935 0.929111
-0.0853538 -0.0382312 0.928188
-0.0850738 -0.0397156 0.925903
-0.0813083 -0.0523238 0.893499
-0.0811326 -0.0537487 0.892184
-0.0809831 -0.0551788 0.891117
-0.0808728 -0.05662 0.890409
-0.0807526 -0.0580557 0.889624
-0.0806343 -0.0594891 0.888842
-0.0804802 -0.0609052 0.887731
-0.0803248 -0.0623166 0.886594
-0.0801831 -0.0637311 0.885597
-0.0800473 -0.065145 0.88465
-0.0799075 -0.0665539 0.883663
-0.0798268 -0.0679898 0.883242
-0.0797446 -0.0694237 0.882806
-0.0796478 -0.0708484 0.88223
-0.0795931 -0.0722949 0.882056
-0.0795417 -0.0737425 0.881908
-0.0795 -0.0751956 0.881852
-0.0794841 -0.0766648 0.882048
-0.0794851 -0.0781452 0.882405
-0.0794627 -0.079612 0.882535
-0.0794652 -0.0810959 0.882905
-0.0794944 -0.0825988 0.883527
-0.0794928 -0.0840835 0.88386
