ply
format ascii 1.0
element vertex 1649
property float x
property float y
property float z
end_header
0.0359264 -0.109197 0.396077
0.0356305 -0.11021 0.397574
0.0353471 -0.1113 0.39934
0.0350541 -0.112364 0.400991
0.0347588 -0.113438 0.402659
0.0344436 -0.114437 0.404031
0.0341038 -0.11533 0.404996
0.0337457 -0.116143 0.405658
0.0333919 -0.116988 0.406431
0.0330279 -0.117788 0.407029
0.0326557 -0.118554 0.407497
0.0322763 -0.119286 0.407839
0.0318998 -0.120041 0.408256
0.0315235 -0.120801 0.408688
0.0311523 -0.121601 0.409256
0.0307867 -0.122444 0.409966
0.0304274 -0.123339 0.410852
0.030071 -0.124265 0.411836
0.0297127 -0.125198 0.412831
0.0293584 -0.12617 0.413952
0.0289928 -0.127086 0.414865
0.0286305 -0.128039 0.4159
0.0282696 -0.129024 0.417026
0.0279049 -0.129996 0.418099
0.0275326 -0.130933 0.419047
0.0271956 -0.132171 0.420983
0.0262809 -0.133491 0.424677
0.0268437 -0.133326 0.422625
0.0565982 -0.0833092 0.412483
0.0561746 -0.0838886 0.412204
0.0557521 -0.0844687 0.411931
0.0553134 -0.0850171 0.411502
0.0548948 -0.0856011 0.411255
0.0544705 -0.0861732 0.410953
0.0540384 -0.0867283 0.41057
0.0536045 -0.0872774 0.410163
0.0531755 -0.0878344 0.409797
0.0526792 -0.0882469 0.408736
0.0521239 -0.0885255 0.407044
0.0507615 -0.0879647 0.403304
0.0515522 -0.088757 0.405148
0.0494877 -0.0885706 0.395487
0.0488366 -0.0885497 0.392546
0.0483247 -0.0888381 0.391072
0.0478333 -0.0891658 0.389799
0.0474076 -0.0896466 0.389241
0.0469282 -0.0899882 0.388057
0.046497 -0.0904445 0.387404
0.0460678 -0.0909017 0.386765
0.0456353 -0.0913449 0.386069
0.0451991 -0.0917741 0.385322
0.0447892 -0.0922688 0.384869
0.0444023 -0.0928243 0.384686
0.0440173 -0.0933844 0.384525
0.0436429 -0.0939739 0.384492
0.0432876 -0.0946198 0.3847
0.0429276 -0.0952536 0.384852
0.0425646 -0.0958797 0.384969
0.0422022 -0.0965095 0.3851
0.0418301 -0.0971114 0.385112
0.0414587 -0.0977152 0.385131
0.0410852 -0.0983128 0.385124
0.0407195 -0.0989371 0.385225
0.0403532 -0.0995608 0.385322
0.0399978 -0.100223 0.385572
0.0396454 -0.100899 0.385876
0.0392988 -0.1016 0.38627
0.0389585 -0.102328 0.386771
0.0386405 -0.103145 0.387616
0.0383292 -0.103995 0.38858
0.038034 -0.104919 0.38982
0.0377494 -0.105898 0.391259
0.0374618 -0.10688 0.392692
0.0371635 -0.107833 0.393999
0.0368593 -0.108778 0.395258
0.0365599 -0.109756 0.396625
0.0362738 -0.110809 0.39826
0.0359906 -0.111894 0.399998
0.0356896 -0.112917 0.401487
0.0353801 -0.113921 0.402883
0.0350497 -0.114841 0.403955
0.0347046 -0.115703 0.404803
0.0343452 -0.116506 0.405427
0.0339932 -0.117353 0.406201
0.03363 -0.118153 0.406799
0.0332561 -0.118908 0.407223
0.0328751 -0.119627 0.407517
0.0324948 -0.120356 0.407842
0.0321125 -0.121078 0.40814
0.0317376 -0.121852 0.408614
0.0313716 -0.122682 0.409279
0.0310145 -0.123579 0.410171
0.0306642 -0.124533 0.411249
0.0303119 -0.125492 0.412335
0.0299616 -0.126479 0.413502
0.0296009 -0.127418 0.414494
0.0292399 -0.128372 0.415526
0.0288778 -0.129332 0.416566
0.0285139 -0.130301 0.417628
0.0281436 -0.131237 0.418567
0.0277751 -0.132209 0.419615
0.0273953 -0.133106 0.420406
0.057133 -0.0835497 0.411601
0.0567096 -0.0841277 0.41132
0.0563005 -0.0847309 0.41117
0.0558666 -0.0852866 0.410783
0.0554474 -0.085869 0.410533
0.055015 -0.0864243 0.410153
0.0545878 -0.0869875 0.409815
0.0541497 -0.0875269 0.409364
0.0537113 -0.0880633 0.408906
0.053269 -0.0885887 0.408399
0.0527787 -0.089009 0.407395
0.0522824 -0.0894092 0.406307
0.0508851 -0.0887642 0.402214
0.0517042 -0.0896233 0.404354
0.0510358 -0.0896216 0.401413
0.0496898 -0.0895355 0.395267
0.0485023 -0.0897399 0.390611
0.0479976 -0.0900336 0.389198
0.0474965 -0.0903259 0.387796
0.0470663 -0.0907862 0.387165
0.046639 -0.091249 0.386552
0.0462034 -0.0916864 0.385835
0.045777 -0.0921426 0.385207
0.045382 -0.0926797 0.384941
0.0450102 -0.0932784 0.384945
0.0446411 -0.0938847 0.38498
0.0442807 -0.0945158 0.38512
0.0439326 -0.0951848 0.385419
0.0435764 -0.095834 0.385631
0.0432164 -0.0964729 0.385795
0.0428506 -0.0970964 0.385892
0.0424773 -0.0976975 0.385894
0.0420995 -0.0982855 0.385842
0.0417194 -0.0988661 0.385759
0.0413474 -0.0994728 0.385783
0.0409738 -0.100076 0.385789
0.0406119 -0.100718 0.385953
0.0402567 -0.101386 0.386218
0.0399103 -0.102088 0.386619
0.0395714 -0.102821 0.38713
0.0392597 -0.103659 0.388049
0.0389464 -0.104501 0.388975
0.0386441 -0.105395 0.390089
0.0383574 -0.106361 0.391469
0.0380705 -0.107341 0.39289
0.0377799 -0.108322 0.394294
0.0374901 -0.109321 0.395751
0.0372086 -0.110372 0.397387
0.0369256 -0.111434 0.399043
0.0366353 -0.112484 0.400636
0.0363187 -0.113436 0.401848
0.035995 -0.114368 0.402972
0.0356512 -0.115222 0.403798
0.0353032 -0.116065 0.404569
0.0349449 -0.116869 0.405195
0.0345917 -0.117706 0.405932
0.0342292 -0.118507 0.406526
0.0338542 -0.11925 0.40691
0.0334711 -0.119956 0.407158
0.0330872 -0.120661 0.407395
0.0326983 -0.121343 0.407551
0.0323159 -0.122065 0.407845
0.0319443 -0.122854 0.408367
0.0315845 -0.123726 0.409172
0.0312369 -0.124681 0.410254
0.0308934 -0.12568 0.411475
0.0305516 -0.126706 0.412775
0.0302003 -0.127695 0.413937
0.0298473 -0.128688 0.415099
0.0294881 -0.129661 0.416182
0.0291262 -0.13063 0.417238
0.0287586 -0.131578 0.418214
0.0283922 -0.132552 0.419265
0.0280153 -0.133463 0.420099
0.0271384 -0.135045 0.424616
0.0277355 -0.135172 0.42354
0.0572419 -0.0843635 0.410425
0.0568267 -0.084954 0.410218
0.0563986 -0.085519 0.409884
0.0559772 -0.0860951 0.409609
0.0555465 -0.0866517 0.40924
0.0551283 -0.0872312 0.408989
0.0546894 -0.0877676 0.40853
0.0542448 -0.0882903 0.408011
0.0538002 -0.0888095 0.407481
0.0533656 -0.0893464 0.407042
0.0529289 -0.0898768 0.406578
0.0524414 -0.0902933 0.405583
0.0480636 -0.0906604 0.387521
0.0476351 -0.0911254 0.386913
0.0456641 -0.0938529 0.385718
0.045307 -0.0944957 0.385904
0.0449405 -0.0951151 0.385987
0.0446039 -0.0958203 0.386431
0.0442451 -0.0964648 0.386613
0.0438811 -0.0970963 0.386737
0.0435102 -0.0977092 0.386783
0.0431324 -0.0983014 0.386742
0.0427472 -0.0988709 0.386607
0.0423626 -0.0994422 0.38648
0.0419863 -0.100039 0.386456
0.0416086 -0.100631 0.386415
0.041243 -0.101265 0.386541
0.0408849 -0.101925 0.386771
0.0405389 -0.10263 0.387172
0.0402002 -0.103366 0.387689
0.0398868 -0.104198 0.388578
0.0395666 -0.105013 0.389391
0.039259 -0.105885 0.390411
0.0389672 -0.106828 0.391695
0.0386875 -0.107831 0.393191
0.0384077 -0.108851 0.394736
0.0381352 -0.109915 0.39643
0.0378643 -0.111007 0.398209
0.0375805 -0.112063 0.399829
0.0372746 -0.113043 0.401152
0.0369399 -0.113912 0.402047
0.0366011 -0.114773 0.402905
0.0362467 -0.115574 0.403529
0.0358948 -0.116394 0.404217
0.0355376 -0.117199 0.404841
0.0351854 -0.118036 0.405574
0.0348218 -0.118825 0.406128
0.0344476 -0.119567 0.406509
0.0340627 -0.120261 0.406713
0.0336742 -0.120941 0.406864
0.0332813 -0.121597 0.406927
0.0328925 -0.122277 0.407076
0.0325121 -0.12301 0.407406
0.0321456 -0.123828 0.408024
0.0317994 -0.124778 0.409089
0.0314633 -0.125804 0.410403
0.0311309 -0.126875 0.411854
0.030793 -0.127934 0.413251
0.0304519 -0.128991 0.414627
0.0300951 -0.129968 0.415721
0.0297326 -0.130924 0.416732
0.0293706 -0.131896 0.417786
0.0290078 -0.132885 0.418885
0.0286343 -0.133815 0.419776
0.0283297 -0.135294 0.422454
0.0573195 -0.085118 0.408974
0.0568967 -0.0856902 0.408685
0.0564886 -0.0862887 0.408529
0.0560637 -0.0868545 0.408214
0.0556516 -0.0874435 0.408015
0.0552127 -0.0879782 0.407554
0.054772 -0.0885072 0.407074
0.0543269 -0.0890236 0.406536
0.0538927 -0.0895604 0.406105
0.0534637 -0.0901051 0.405714
0.0530601 -0.0907022 0.405574
0.0525986 -0.0911723 0.404844
0.0513622 -0.0908731 0.402455
0.0522038 -0.091786 0.404787
0.0517145 -0.0921865 0.403752
0.0463593 -0.0945321 0.386934
0.0460041 -0.0951855 0.387155
0.0456375 -0.0958094 0.387247
0.0452896 -0.0964872 0.387563
0.0449213 -0.0971099 0.387645
0.0445487 -0.0977212 0.387678
0.0441668 -0.0983059 0.387598
0.0437815 -0.0988799 0.387476
0.043394 -0.0994467 0.387324
0.0430084 -0.100019 0.387196
0.0426278 -0.100606 0.387129
0.0422499 -0.101202 0.387097
0.0418809 -0.101827 0.387181
0.0415193 -0.102479 0.38737
0.0411705 -0.103176 0.387733
0.0408319 -0.103913 0.388252
0.0405141 -0.10473 0.389071
0.0401911 -0.105535 0.389839
0.0398787 -0.106388 0.390776
0.0395903 -0.107341 0.392091
0.0393185 -0.108371 0.39368
0.0390536 -0.109443 0.395413
0.0387946 -0.110559 0.397291
0.0385241 -0.111647 0.399042
0.0382294 -0.112656 0.400477
0.0379073 -0.113565 0.401526
0.0375568 -0.114365 0.402159
0.0372033 -0.115159 0.402766
0.0368442 -0.115936 0.403301
0.0364881 -0.116733 0.403899
0.0361317 -0.117536 0.404516
0.0357784 -0.118361 0.405205
0.0354129 -0.119139 0.405718
0.0350392 -0.11988 0.406091
0.0346526 -0.120562 0.406255
0.0342603 -0.121218 0.406322
0.033863 -0.121849 0.406298
0.0334657 -0.122478 0.406272
0.0330745 -0.123144 0.40637
0.032697 -0.12389 0.406744
0.0323418 -0.124773 0.407581
0.0319992 -0.12574 0.408694
0.0316785 -0.126861 0.41032
0.0313577 -0.128004 0.412003
0.0310328 -0.129148 0.41367
0.0306889 -0.130193 0.414988
0.0303392 -0.13122 0.416233
0.0299835 -0.132228 0.417402
0.0296267 -0.133248 0.4186
0.0292631 -0.13424 0.419693
0.0289337 -0.135503 0.42166
0.057823 -0.0853046 0.407852
0.0574101 -0.0858928 0.40765
0.0570011 -0.0864873 0.407481
0.0565706 -0.08704 0.407109
0.0561603 -0.0876302 0.406923
0.0557225 -0.0881651 0.406472
0.0552837 -0.0886954 0.406004
0.0548441 -0.0892221 0.405526
0.0544163 -0.0897694 0.40515
0.0539981 -0.0903353 0.404866
0.053612 -0.0909677 0.404895
0.0532303 -0.0916108 0.404973
0.0528592 -0.0922779 0.405159
0.0524878 -0.0929457 0.405345
0.0521112 -0.0936042 0.405486
0.0467233 -0.0959258 0.388609
0.0463407 -0.0965125 0.388532
0.0459756 -0.0971473 0.388658
0.0455947 -0.0977397 0.388604
0.0452125 -0.0983283 0.388535
0.0448197 -0.0988851 0.388334
0.0444274 -0.0994421 0.388135
0.0440329 -0.0999925 0.387912
0.0436463 -0.100565 0.387779
0.0432626 -0.101146 0.387683
0.0428848 -0.101745 0.387659
0.0425127 -0.102363 0.387712
0.0421503 -0.103015 0.387895
0.0417976 -0.103701 0.38821
0.0414559 -0.104429 0.388682
0.0411389 -0.105247 0.389503
0.0408166 -0.106055 0.390273
0.0405127 -0.106938 0.391321
0.0402383 -0.107939 0.392808
0.0399814 -0.109022 0.394588
0.039723 -0.110118 0.396397
0.039469 -0.11125 0.398322
0.0391847 -0.112283 0.399851
0.0388712 -0.113212 0.40098
0.0385296 -0.11404 0.401718
0.0381657 -0.114781 0.402134
0.0378002 -0.115522 0.402542
0.0374369 -0.116276 0.40299
0.0370757 -0.117047 0.403496
0.0367172 -0.117836 0.40406
0.0363601 -0.118638 0.404665
0.0359961 -0.119417 0.405177
0.0356231 -0.120157 0.405551
0.0352393 -0.120849 0.405747
0.0348472 -0.121504 0.405812
0.0344502 -0.122134 0.405788
0.0340459 -0.122727 0.405637
0.0336462 -0.123341 0.40556
0.0332533 -0.123995 0.405617
0.0328817 -0.124769 0.406086
0.0325249 -0.125637 0.406867
0.032214 -0.126794 0.408612
0.0319089 -0.128009 0.410538
0.0316064 -0.12927 0.412597
0.0312825 -0.130425 0.414282
0.0309514 -0.131562 0.415889
0.0306015 -0.132596 0.417142
0.0302511 -0.133649 0.418444
0.0298953 -0.134683 0.419669
0.0295393 -0.135738 0.42095
0.0587223 -0.0848777 0.40681
0.0583143 -0.0854727 0.406648
0.0579098 -0.086073 0.406512
0.0575076 -0.0866776 0.406401
0.0570761 -0.0872265 0.406018
0.0566657 -0.0878137 0.405824
0.0562335 -0.0883574 0.405423
0.0557964 -0.0888896 0.404972
0.0553679 -0.0894358 0.404593
0.0549538 -0.09001 0.40435
0.0545506 -0.0906056 0.404211
0.0541739 -0.0912562 0.404326
0.0538015 -0.0919177 0.404492
0.0534326 -0.0925879 0.404691
0.0530609 -0.0932544 0.404873
0.0526848 -0.0939122 0.40501
0.0522997 -0.0945513 0.405062
0.0477847 -0.0959582 0.389619
0.0474046 -0.0965557 0.38958
0.0470186 -0.0971386 0.389481
0.0466378 -0.0977348 0.389437
0.0462447 -0.0982971 0.389252
0.0458513 -0.098857 0.389058
0.0454482 -0.0993883 0.38875
0.045052 -0.0999369 0.388513
0.044654 -0.100479 0.388255
0.0442695 -0.101061 0.388157
0.0438862 -0.101646 0.388071
0.0435081 -0.102247 0.388053
0.0431358 -0.102867 0.388108
0.0427727 -0.103518 0.388283
0.0424133 -0.104184 0.388514
0.0420686 -0.104902 0.388945
0.0417552 -0.10573 0.389797
0.0414401 -0.106562 0.390653
0.0411501 -0.107493 0.391879
0.0408911 -0.108548 0.39356
0.0406468 -0.109674 0.395488
0.0403912 -0.110778 0.397314
0.0401273 -0.111868 0.399066
0.0398258 -0.11283 0.400324
0.039494 -0.113686 0.401173
0.0391381 -0.114454 0.401688
0.0387643 -0.115153 0.401941
0.0383943 -0.115872 0.402267
0.038026 -0.116603 0.402632
0.03766 -0.117349 0.403046
0.0372996 -0.118123 0.403557
0.0369385 -0.118903 0.40408
0.0365734 -0.11967 0.404555
0.0362012 -0.12041 0.404927
0.035818 -0.121102 0.405123
0.0354243 -0.121745 0.405149
0.0350282 -0.122375 0.405128
0.0346219 -0.122956 0.404937
0.0342156 -0.123533 0.404735
0.033811 -0.124119 0.404563
0.0334256 -0.124808 0.404741
0.0330525 -0.125571 0.405171
0.0327291 -0.126629 0.40659
0.0324359 -0.127888 0.408664
0.032156 -0.129259 0.411089
0.0318512 -0.13051 0.413091
0.0315395 -0.131747 0.415028
0.0312042 -0.132864 0.41655
0.030864 -0.133968 0.418018
0.0305194 -0.135067 0.419451
0.0301763 -0.136201 0.420986
0.0584029 -0.0862446 0.405342
0.0579841 -0.0868159 0.405074
0.0575488 -0.0873541 0.404647
0.0571159 -0.0878954 0.404242
0.0566791 -0.0884263 0.40379
0.0562426 -0.0889557 0.403338
0.055833 -0.0895359 0.403131
0.0554387 -0.0901463 0.403068
0.0550667 -0.0908028 0.403219
0.054712 -0.0914965 0.403538
0.054357 -0.092192 0.403861
0.0539974 -0.0928808 0.404149
0.0536285 -0.0935517 0.404351
0.0532479 -0.0941978 0.404436
0.0528586 -0.0948259 0.404441
0.0524714 -0.0954591 0.404467
0.0484024 -0.0964135 0.389847
0.0480203 -0.0970082 0.389795
0.047636 -0.0975969 0.389717
0.0472471 -0.0981723 0.389582
0.0468465 -0.0987165 0.389321
0.0464463 -0.0992583 0.389051
0.0460424 -0.0997891 0.38874
0.0456459 -0.100339 0.388509
0.0452538 -0.1009 0.388327
0.0448721 -0.101492 0.388267
0.0444912 -0.102085 0.388213
0.0441128 -0.102687 0.388196
0.0437432 -0.103317 0.388285
0.0433771 -0.103959 0.388424
0.0430176 -0.104625 0.38865
0.0426789 -0.105362 0.389151
0.0423726 -0.106214 0.39009
0.0420719 -0.107094 0.391122
0.0418007 -0.108088 0.39258
0.0415567 -0.109194 0.394444
0.0413162 -0.11033 0.396397
0.0410526 -0.111402 0.39809
0.040774 -0.112434 0.399611
0.0404544 -0.113325 0.400596
0.0401029 -0.114102 0.401146
0.0397364 -0.114825 0.401494
0.0393593 -0.115509 0.401696
0.0389849 -0.116208 0.401948
0.0386118 -0.116917 0.402231
0.0382436 -0.117649 0.402593
0.0378808 -0.118409 0.403053
0.0375179 -0.119176 0.403529
0.0371519 -0.119933 0.403968
0.0367805 -0.120673 0.404341
0.0363979 -0.121365 0.404538
0.0360025 -0.121996 0.404524
0.0356066 -0.122626 0.404504
0.035201 -0.123207 0.404317
0.0347927 -0.123772 0.404075
0.0343789 -0.124308 0.403737
0.0339794 -0.124914 0.403637
0.0335852 -0.125552 0.403646
0.0332423 -0.126481 0.404631
0.0329584 -0.127766 0.406793
0.032694 -0.129196 0.409417
0.032409 -0.130543 0.411736
0.0321173 -0.131884 0.414013
0.0317988 -0.133085 0.415812
0.0314631 -0.134203 0.417321
0.0311266 -0.13534 0.418874
0.0307951 -0.13654 0.420614
0.0593677 -0.0859437 0.404932
0.0589203 -0.086463 0.404409
0.0584574 -0.0869516 0.403745
0.057993 -0.0874333 0.403056
0.0575314 -0.0879165 0.402382
0.0570778 -0.0884106 0.401768
0.0566376 -0.0889279 0.401274
0.0562395 -0.0895246 0.401157
0.0558719 -0.0901836 0.401332
0.05553 -0.0908956 0.40175
0.0552015 -0.0916385 0.402303
0.0548705 -0.0923806 0.402844
0.0545318 -0.0931102 0.40332
0.0541714 -0.0937967 0.403596
0.053785 -0.094428 0.403617
0.0533704 -0.094997 0.403362
0.0529728 -0.0956036 0.403277
0.0493672 -0.0961831 0.38974
0.0489746 -0.0967514 0.389576
0.0485937 -0.0973484 0.389532
0.0482136 -0.0979481 0.3895
0.0478239 -0.098522 0.389362
0.0474268 -0.099075 0.389136
0.047029 -0.0996258 0.388905
0.0466287 -0.100167 0.388637
0.0462356 -0.100728 0.388449
0.0458465 -0.101299 0.388305
0.0454646 -0.101891 0.388245
0.0450831 -0.102483 0.388189
0.0447045 -0.103085 0.388167
0.044335 -0.103715 0.388258
0.0439694 -0.104359 0.3884
0.0436107 -0.105027 0.388634
0.0432816 -0.105795 0.389249
0.0429929 -0.106703 0.390399
0.0427137 -0.107654 0.391695
0.0424617 -0.108712 0.393386
0.0422326 -0.109867 0.395418
0.0419862 -0.11098 0.397276
0.0417075 -0.111993 0.398735
0.0414078 -0.112945 0.399951
0.041074 -0.113781 0.400723
0.0407089 -0.114504 0.401073
0.0403374 -0.115207 0.401342
0.0399579 -0.115881 0.401504
0.0395811 -0.116568 0.401712
0.0392027 -0.117253 0.401911
0.0388321 -0.117972 0.402225
0.0384641 -0.118708 0.402596
0.0380994 -0.119463 0.40303
0.0377344 -0.12022 0.403467
0.0373641 -0.12096 0.403839
0.036982 -0.12165 0.404033
0.0365889 -0.122292 0.404055
0.0361932 -0.122921 0.404034
0.0357856 -0.123491 0.40381
0.0353726 -0.124032 0.403489
0.0349522 -0.124532 0.40303
0.0345341 -0.125038 0.402598
0.0341176 -0.12555 0.402185
0.0337517 -0.126336 0.402697
0.0334761 -0.12764 0.404923
0.0332218 -0.129099 0.40764
0.0329633 -0.130571 0.410373
0.0326973 -0.132039 0.413064
0.0323973 -0.133338 0.415177
0.0320628 -0.134448 0.416655
0.0317303 -0.135594 0.418237
0.031406 -0.136821 0.420061
0.0594012 -0.0866185 0.403176
0.0588981 -0.0870321 0.402159
0.058412 -0.0874706 0.401274
0.0579235 -0.0878995 0.400355
0.0574592 -0.0883685 0.399637
0.0570239 -0.0888899 0.399177
0.0566371 -0.0895034 0.399153
0.0562841 -0.0901839 0.399438
0.0559639 -0.0909337 0.40004
0.0556661 -0.0917329 0.400858
0.0553574 -0.0925167 0.401595
0.0550357 -0.0932777 0.402218
0.0546883 -0.093988 0.402603
0.0543059 -0.0946256 0.402659
0.0538713 -0.0951481 0.402203
0.0534319 -0.0956565 0.40169
0.0503616 -0.0960241 0.389938
0.0499372 -0.0965155 0.389445
0.0495364 -0.0970626 0.389191
0.0491516 -0.0976491 0.389106
0.0487747 -0.098256 0.389105
0.0483883 -0.0988385 0.389002
0.0479944 -0.0994004 0.388816
0.0476006 -0.0999615 0.388627
0.0472072 -0.100523 0.388442
0.0468179 -0.101095 0.388299
0.0464294 -0.101668 0.388164
0.0460474 -0.10226 0.388103
0.0456655 -0.102851 0.388043
0.0452835 -0.103443 0.387983
0.0449144 -0.104074 0.388076
0.0445493 -0.104719 0.388222
0.0441945 -0.105399 0.388499
0.0438796 -0.10621 0.389279
0.0436222 -0.107217 0.390799
0.0433698 -0.108255 0.392419
0.0431397 -0.109385 0.394366
0.0429184 -0.110563 0.396477
0.0426616 -0.111638 0.398173
0.0423548 -0.112552 0.39925
0.042031 -0.113413 0.400123
0.0416834 -0.114196 0.400693
0.0413106 -0.114889 0.400932
0.0409369 -0.115583 0.401167
0.0405575 -0.116256 0.401328
0.040178 -0.116932 0.401491
0.0397945 -0.117593 0.401602
0.0394208 -0.118298 0.401868
0.0390483 -0.119011 0.402154
0.0386817 -0.119754 0.402546
0.0383172 -0.120509 0.402978
0.0379475 -0.121249 0.403351
0.0375662 -0.121939 0.403543
0.0371757 -0.122591 0.403602
0.0367799 -0.123219 0.403578
0.0363699 -0.123777 0.403314
0.0359544 -0.124304 0.402948
0.0355284 -0.124776 0.402399
0.0351006 -0.125233 0.401803
0.0346745 -0.125692 0.401217
0.0342836 -0.126334 0.401249
0.0340143 -0.127649 0.403512
0.033769 -0.129131 0.406303
0.0335261 -0.130668 0.409243
0.033275 -0.132196 0.412123
0.0329953 -0.133594 0.414556
0.0326595 -0.134682 0.41596
0.0323293 -0.135827 0.417534
0.0320089 -0.137058 0.419369
0.0587962 -0.0874494 0.399226
0.0583051 -0.0878694 0.398282
0.0578473 -0.0883461 0.397617
0.0574176 -0.0888728 0.397195
0.0570333 -0.0894852 0.397178
0.0566818 -0.0901626 0.39746
0.0563683 -0.0909184 0.398097
0.0560888 -0.0917481 0.399062
0.0558038 -0.0925732 0.399993
0.0555043 -0.0933747 0.400804
0.0551719 -0.094112 0.401317
0.0547937 -0.0947546 0.401402
0.0543514 -0.0952574 0.400867
0.0538958 -0.0957275 0.400195
0.0533335 -0.0959512 0.398458
0.0508059 -0.0955774 0.390629
0.0519837 -0.0958371 0.392633
0.0514144 -0.0959994 0.390711
0.0509434 -0.0963843 0.389759
0.0505139 -0.0968644 0.38922
0.0501049 -0.0973917 0.388884
0.0497136 -0.0979615 0.388729
0.0493311 -0.0985535 0.388667
0.0489448 -0.0991351 0.388563
0.048555 -0.0997075 0.388421
0.0481653 -0.100279 0.388278
0.0477761 -0.100852 0.388139
0.0473906 -0.101434 0.38804
0.0470055 -0.102017 0.387943
0.0466267 -0.102618 0.387919
0.0462449 -0.103211 0.387861
0.045863 -0.103803 0.387802
0.0454971 -0.104443 0.387931
0.0451323 -0.105088 0.388077
0.0447751 -0.10576 0.388321
0.0444868 -0.106652 0.389409
0.0442596 -0.107753 0.391278
0.0440323 -0.108871 0.39319
0.0438194 -0.110055 0.39533
0.0436016 -0.111243 0.397459
0.0433198 -0.112229 0.398815
0.0429871 -0.11305 0.399537
0.0426418 -0.113833 0.400117
0.0422856 -0.114582 0.400559
0.0419133 -0.115276 0.400799
0.0415404 -0.115972 0.401042
0.0411612 -0.116647 0.401202
0.040781 -0.117319 0.401353
0.0403913 -0.117956 0.401378
0.0400153 -0.118649 0.401598
0.03964 -0.119349 0.40184
0.0392712 -0.12008 0.402188
0.0389018 -0.120812 0.402535
0.0385308 -0.121541 0.402868
0.0381446 -0.122207 0.40298
0.0377526 -0.122848 0.403003
0.037355 -0.123464 0.40294
0.0369444 -0.124019 0.40267
0.0365258 -0.124532 0.402259
0.0360965 -0.124988 0.401657
0.0356606 -0.125403 0.400928
0.0352267 -0.12582 0.400207
0.0348136 -0.12634 0.399837
0.0345574 -0.127701 0.402248
0.0343263 -0.129235 0.405206
0.0341033 -0.130856 0.408417
0.0338669 -0.132444 0.411488
0.0335847 -0.133806 0.413797
0.0332489 -0.134878 0.415144
0.0329238 -0.136036 0.416758
0.0326079 -0.137279 0.418627
0.0591379 -0.0873575 0.396859
0.0586832 -0.0878391 0.396225
0.0582561 -0.0883685 0.395824
0.057837 -0.0889109 0.395487
0.0574548 -0.0895226 0.395476
0.0571045 -0.0901968 0.395752
0.0567901 -0.0909445 0.396359
0.0565101 -0.0917661 0.397294
0.0562246 -0.0925831 0.398194
0.0559388 -0.0934058 0.399107
0.0556234 -0.0941728 0.399759
0.0552528 -0.0948265 0.399901
0.0548133 -0.0953323 0.399389
0.0543549 -0.0957928 0.398686
0.0537967 -0.0960254 0.397003
0.0531757 -0.0961035 0.394675
0.0525609 -0.0961796 0.392366
0.052013 -0.096396 0.390683
0.0515396 -0.0967784 0.389723
0.0511014 -0.0972393 0.389104
0.0506837 -0.0977463 0.388684
0.0502856 -0.0982996 0.388461
0.0498953 -0.0988716 0.388317
0.0495022 -0.0994354 0.38814
0.0491164 -0.100018 0.388039
0.0487308 -0.1006 0.38794
0.0483455 -0.101183 0.387844
0.0479635 -0.101775 0.387783
0.0475848 -0.102375 0.387759
0.0472098 -0.102987 0.387776
0.0468316 -0.10359 0.38776
0.0464531 -0.104193 0.387741
0.0460871 -0.104833 0.387868
0.045719 -0.105469 0.387973
0.0453864 -0.106215 0.388504
0.0451305 -0.107207 0.389965
0.0449295 -0.108387 0.392126
0.0447268 -0.109582 0.394316
0.0445266 -0.110806 0.396588
0.0442882 -0.111923 0.398437
0.0439776 -0.112811 0.399415
0.0436211 -0.11355 0.399829
0.0432566 -0.114265 0.40015
0.0428934 -0.114989 0.400499
0.0425185 -0.115673 0.4007
0.0421435 -0.11636 0.400908
0.0417646 -0.117034 0.401068
0.041384 -0.117705 0.401212
0.0409912 -0.11833 0.401191
0.0406125 -0.119011 0.401369
0.0402348 -0.119699 0.40157
0.0398637 -0.120417 0.401871
0.0394916 -0.121135 0.40217
0.0391181 -0.121851 0.402456
0.0387269 -0.122494 0.402488
0.0383325 -0.123122 0.402468
0.0379324 -0.123725 0.402363
0.0375168 -0.124257 0.402012
0.0370906 -0.124733 0.40148
0.0366557 -0.125159 0.400788
0.0362117 -0.125535 0.39993
0.0357692 -0.12591 0.399075
0.035385 -0.126574 0.399188
0.0351449 -0.128002 0.401814
0.0349263 -0.129582 0.404912
0.0347185 -0.131261 0.4083
0.0344931 -0.132891 0.411497
0.0341886 -0.134109 0.413332
0.0338466 -0.135131 0.414518
0.0335214 -0.136274 0.416078
0.0332036 -0.137486 0.417844
0.05954 -0.0873815 0.395061
0.0591466 -0.0879709 0.394948
0.0587481 -0.0885506 0.394791
0.0583389 -0.0891096 0.394539
0.0579526 -0.0897108 0.394484
0.057591 -0.0903601 0.394649
0.0572491 -0.0910497 0.394995
0.05695 -0.0918271 0.395733
0.0566503 -0.0926089 0.39648
0.056366 -0.0934278 0.397381
0.0560595 -0.0942069 0.398094
0.0556973 -0.0948731 0.398299
0.0552721 -0.0954057 0.397916
0.0548191 -0.0958753 0.397263
0.0542794 -0.0961484 0.395769
0.0537126 -0.0963501 0.393987
0.0531504 -0.0965501 0.39222
0.0526111 -0.0967909 0.390647
0.0521359 -0.0971719 0.389683
0.0516918 -0.0976208 0.389015
0.0512732 -0.0981268 0.388591
0.0508665 -0.0986601 0.388285
0.0504717 -0.0992207 0.388095
0.0500746 -0.0997749 0.387879
0.0496889 -0.100357 0.38778
0.0493035 -0.10094 0.387683
0.0489215 -0.101532 0.387623
0.0485429 -0.102133 0.387599
0.048168 -0.102744 0.387616
0.0477972 -0.103368 0.387679
0.047423 -0.103983 0.387708
0.0470482 -0.104597 0.387732
0.0466789 -0.105227 0.38782
0.046307 -0.105852 0.387881
0.0460051 -0.10669 0.388759
0.0457745 -0.107757 0.390499
0.0455973 -0.109007 0.392911
0.0454133 -0.110258 0.395299
0.045222 -0.111508 0.397652
0.0449543 -0.112526 0.39912
0.044623 -0.113345 0.399832
0.0442459 -0.114015 0.399985
0.0438679 -0.114683 0.400132
0.0434983 -0.115383 0.400392
0.0431234 -0.116067 0.40059
0.0427461 -0.116745 0.400764
0.0423674 -0.117419 0.400924
0.0419867 -0.118089 0.401063
0.0415909 -0.118702 0.401001
0.041207 -0.119362 0.401103
0.040824 -0.120028 0.401222
0.040447 -0.12072 0.401434
0.0400696 -0.121412 0.401642
0.0396903 -0.122101 0.401835
0.039294 -0.122718 0.40178
0.0388943 -0.12332 0.401673
0.0384839 -0.123874 0.401402
0.0380603 -0.124365 0.400922
0.0376261 -0.124802 0.400264
0.0372308 -0.125416 0.400205
0.0368253 -0.125981 0.399984
0.0364258 -0.126575 0.399858
0.0360875 -0.127477 0.400749
0.0358587 -0.128957 0.403527
0.0353728 -0.131877 0.408872
0.0351226 -0.133353 0.411556
0.0347937 -0.134421 0.412898
0.0344444 -0.135393 0.413921
0.034114 -0.136489 0.415329
0.0337907 -0.137652 0.416935
0.0605128 -0.0871373 0.394907
0.0601037 -0.087699 0.394663
0.059704 -0.0882766 0.394497
0.0592973 -0.0888404 0.394268
0.0588958 -0.0894133 0.394082
0.0585086 -0.090012 0.394018
0.0581259 -0.0906195 0.393993
0.0577608 -0.0912617 0.394126
0.0574325 -0.0919779 0.394588
0.0571077 -0.0927046 0.395091
0.0568048 -0.0934797 0.395801
0.0564958 -0.0942473 0.396469
0.056146 -0.0949343 0.396773
0.0557398 -0.0955036 0.39656
0.0552948 -0.095988 0.395981
0.0547847 -0.0963254 0.394777
0.0542504 -0.0966009 0.393322
0.0537177 -0.0968703 0.391859
0.053203 -0.0971708 0.390545
0.0527224 -0.0975417 0.389542
0.0522786 -0.0979932 0.388886
0.0518634 -0.0985087 0.388503
0.0514598 -0.0990505 0.388232
0.0510608 -0.099602 0.388004
0.0506662 -0.100163 0.387816
0.0502797 -0.100744 0.387712
0.0498941 -0.101327 0.387614
0.0495122 -0.10192 0.387556
0.0491372 -0.102531 0.387571
0.0487627 -0.103144 0.387594
0.0483957 -0.103779 0.387699
0.0480258 -0.104406 0.387776
0.0476515 -0.105022 0.387806
0.0473052 -0.105721 0.388152
0.0469667 -0.106446 0.388596
0.0466969 -0.107381 0.389837
0.0464902 -0.10852 0.391835
0.0463293 -0.10982 0.394414
0.0461279 -0.111014 0.396571
0.0459061 -0.112164 0.398535
0.0456069 -0.113079 0.399607
0.0452515 -0.113818 0.40002
0.0448607 -0.114443 0.400004
0.0444726 -0.115077 0.400024
0.044097 -0.115754 0.400202
0.0437194 -0.116428 0.400362
0.0433425 -0.117106 0.400535
0.0429641 -0.117781 0.400696
0.0425837 -0.118451 0.400835
0.0421879 -0.119064 0.400772
0.0418011 -0.119713 0.400832
0.0414151 -0.120365 0.400906
0.0410295 -0.121021 0.40099
0.0406432 -0.121674 0.401063
0.0402552 -0.122324 0.401124
0.0398478 -0.122891 0.400901
0.0394343 -0.123431 0.400584
0.0390146 -0.12394 0.400167
0.0386289 -0.124598 0.400256
0.038238 -0.125233 0.400269
0.0378988 -0.126111 0.401088
0.0375208 -0.126815 0.401321
0.0371704 -0.127657 0.402008
0.0368445 -0.12863 0.403116
0.0365896 -0.129976 0.405436
0.0363069 -0.131209 0.407364
0.0360422 -0.132562 0.40966
0.0357605 -0.133855 0.41174
0.0354009 -0.134748 0.412516
0.0350409 -0.135651 0.413315
0.0346964 -0.136654 0.414424
0.0343579 -0.137708 0.415683
0.0334584 -0.138781 0.418418
0.0610942 -0.0874865 0.394659
0.0606869 -0.0880516 0.394432
0.0602849 -0.088625 0.394247
0.0598762 -0.0891858 0.394004
0.0594757 -0.0897602 0.393827
0.0590791 -0.0903415 0.393683
0.0586871 -0.0909308 0.393577
0.0582997 -0.0915289 0.39351
0.0579397 -0.0921805 0.393684
0.0575906 -0.0928555 0.393958
0.0572693 -0.0935888 0.394486
0.0569474 -0.0943249 0.395019
0.056598 -0.0950079 0.395312
0.0562017 -0.0955942 0.395181
0.0557702 -0.0961043 0.394723
0.0552707 -0.0964641 0.393626
0.0547577 -0.0967865 0.392383
0.0542477 -0.0971072 0.391147
0.0537578 -0.0974656 0.390085
0.0532943 -0.0978773 0.389257
0.0528688 -0.0983726 0.388787
0.0524573 -0.0988987 0.388448
0.0520578 -0.0994515 0.388222
0.051655 -0.0999947 0.387959
0.0512594 -0.100554 0.387765
0.0508723 -0.101135 0.387656
0.0504864 -0.101718 0.387559
0.0501049 -0.102312 0.387506
0.0497335 -0.102933 0.38756
0.0493626 -0.103557 0.38762
0.0489996 -0.104202 0.387768
0.0486333 -0.104841 0.387884
0.0482624 -0.105468 0.387954
0.0479518 -0.106269 0.388692
0.0476526 -0.10711 0.389573
0.0474217 -0.108161 0.391242
0.0472377 -0.109369 0.393481
0.0470745 -0.11066 0.39601
0.0468351 -0.111737 0.397707
0.0465728 -0.112757 0.399174
0.0462352 -0.113548 0.399782
0.0458572 -0.114214 0.399918
0.045466 -0.114837 0.399897
0.0450777 -0.11547 0.399914
0.0446994 -0.116139 0.400058
0.0443221 -0.116813 0.400218
0.0439451 -0.11749 0.400387
0.0435637 -0.118154 0.400505
0.0431806 -0.118813 0.400606
0.0427848 -0.119426 0.400544
0.042395 -0.120062 0.400561
0.0420028 -0.12069 0.400547
0.0416075 -0.121306 0.400494
0.0412089 -0.121908 0.400392
0.0408094 -0.122506 0.400279
0.040393 -0.123034 0.399925
0.0399654 -0.123511 0.399399
0.0395877 -0.124198 0.39959
0.0392529 -0.125078 0.400426
0.0389156 -0.125957 0.40125
0.0386357 -0.127109 0.402972
0.0383272 -0.128148 0.404303
0.0379892 -0.129065 0.405215
0.037673 -0.130099 0.406504
0.0373795 -0.13126 0.408194
0.0370449 -0.132238 0.40927
0.0367287 -0.133324 0.410688
0.0364086 -0.134406 0.412079
0.036014 -0.135109 0.412241
0.0356398 -0.135926 0.412766
0.0352776 -0.13682 0.413528
0.0349228 -0.137768 0.414449
0.0620948 -0.0872897 0.39473
0.0616777 -0.0878392 0.394428
0.0612689 -0.0884021 0.394192
0.0608652 -0.0889727 0.393994
0.0604498 -0.0895213 0.393696
0.0600489 -0.0900952 0.393518
0.059648 -0.0906683 0.393337
0.0592511 -0.091248 0.393188
0.0588544 -0.0918278 0.393041
0.0584767 -0.0924436 0.393055
0.058105 -0.093072 0.393124
0.0577606 -0.0937559 0.393436
0.0574213 -0.0944528 0.3938
0.0570599 -0.0951067 0.393972
0.0566641 -0.0956904 0.393837
0.0562339 -0.0962004 0.393387
0.0557591 -0.0966117 0.392521
0.0552685 -0.0969828 0.391495
0.0547809 -0.0973537 0.39048
0.0543126 -0.0977612 0.38963
0.0538716 -0.0982258 0.389027
0.0534503 -0.0987318 0.388602
0.0530431 -0.0992685 0.388308
0.0526481 -0.0998329 0.388129
0.0522491 -0.100386 0.387908
0.0518574 -0.100957 0.387757
0.0514697 -0.101537 0.387645
0.0510879 -0.102131 0.387591
0.0507101 -0.102736 0.387578
0.0503428 -0.103368 0.387675
0.0499787 -0.104011 0.387809
0.0496189 -0.104666 0.387991
0.0492559 -0.105315 0.388144
0.0489162 -0.106031 0.388552
0.0486427 -0.106938 0.389688
0.0483836 -0.107896 0.391005
0.0481963 -0.109077 0.393147
0.0480158 -0.110296 0.395411
0.0478097 -0.111458 0.397432
0.0475289 -0.112408 0.398644
0.047221 -0.113286 0.399572
0.046844 -0.113953 0.399714
0.0464561 -0.114586 0.399731
0.0460648 -0.115209 0.39971
0.0456737 -0.115833 0.399693
0.045296 -0.116503 0.39984
0.044919 -0.117177 0.399999
0.0445421 -0.117854 0.400166
0.0441576 -0.118506 0.400242
0.0437713 -0.119152 0.400298
0.0433723 -0.119753 0.400193
0.0429764 -0.120366 0.400128
0.042578 -0.120968 0.400027
0.0421761 -0.121556 0.399881
0.0417676 -0.122119 0.399644
0.0413556 -0.122665 0.399353
0.0409275 -0.123141 0.398829
0.0404876 -0.123564 0.39813
0.040161 -0.124462 0.399035
0.0398849 -0.12559 0.400696
0.0396155 -0.126767 0.402507
0.0394077 -0.128242 0.405286
0.0391716 -0.129621 0.407721
0.0388323 -0.130546 0.408641
0.0381507 -0.132418 0.410523
0.0377666 -0.133158 0.410814
0.0374003 -0.133992 0.411408
0.0370372 -0.13485 0.41207
0.0366385 -0.135531 0.412162
0.0362487 -0.136262 0.41241
0.0358705 -0.137061 0.412868
0.0354953 -0.137882 0.413395
0.0626824 -0.0876492 0.39453
0.0622545 -0.0881807 0.394144
0.0618447 -0.0887416 0.3939
0.0614383 -0.0893076 0.393682
0.0610183 -0.0898482 0.393349
0.0606172 -0.0904214 0.393169
0.060215 -0.090992 0.392978
0.0598128 -0.0915615 0.392785
0.0594069 -0.0921231 0.392557
0.05902 -0.0927205 0.392491
0.0586433 -0.0933377 0.392513
0.0582815 -0.093985 0.392665
0.0579244 -0.0946433 0.392863
0.0575494 -0.0952667 0.392906
0.0571499 -0.0958398 0.392732
0.0567159 -0.0963399 0.392246
0.0562586 -0.0967871 0.391542
0.055786 -0.0971966 0.390687
0.05532 -0.0976151 0.389879
0.0548694 -0.0980627 0.389201
0.054441 -0.098556 0.388721
0.0540277 -0.0990811 0.388377
0.0536281 -0.0996362 0.388159
0.0532415 -0.100221 0.388062
0.0528504 -0.100795 0.387923
0.0524666 -0.101385 0.387853
0.052083 -0.101977 0.387785
0.0517049 -0.102582 0.387771
0.0513309 -0.103197 0.3878
0.0509712 -0.103851 0.387975
0.0506114 -0.104506 0.388156
0.0502591 -0.105184 0.388418
0.0499214 -0.105903 0.388838
0.0496097 -0.106698 0.389544
0.0493643 -0.107685 0.390974
0.0491441 -0.108756 0.392704
0.0489582 -0.109942 0.394845
0.048749 -0.111077 0.396774
0.0485024 -0.112118 0.398328
0.048181 -0.112946 0.399075
0.0478304 -0.113691 0.399508
0.0474429 -0.114325 0.399527
0.0470515 -0.114947 0.399503
0.0466603 -0.11557 0.399483
0.0462696 -0.116195 0.399469
0.0458894 -0.116856 0.399582
0.0455093 -0.117519 0.399701
0.0451289 -0.118182 0.399819
0.044741 -0.118821 0.399848
0.0443515 -0.119455 0.399861
0.0439522 -0.120054 0.39975
0.0435503 -0.120643 0.399604
0.0431453 -0.121219 0.399417
0.042734 -0.12177 0.399144
0.0423129 -0.122281 0.398733
0.0418887 -0.122775 0.398273
0.041456 -0.123232 0.397687
0.0410611 -0.123838 0.397611
0.0407946 -0.124981 0.399334
0.0405832 -0.126378 0.401888
0.0403869 -0.12787 0.404731
0.0402293 -0.129566 0.408216
0.0400114 -0.131031 0.410909
0.0396716 -0.131969 0.41185
0.0392961 -0.132751 0.412275
0.0389105 -0.13349 0.412556
0.0384862 -0.134046 0.412244
0.0380783 -0.134681 0.412185
0.0376789 -0.135357 0.412262
0.037277 -0.136023 0.412302
0.0368764 -0.136697 0.412367
0.0364822 -0.137407 0.412546
0.0360864 -0.138112 0.412704
0.063704 -0.0874847 0.394754
0.0632642 -0.0879989 0.394283
0.0628379 -0.0885335 0.393914
0.0624262 -0.0890915 0.393657
0.0620125 -0.0896449 0.393382
0.0615872 -0.0901762 0.393008
0.0611848 -0.0907468 0.392817
0.0607766 -0.091306 0.392577
0.0603693 -0.0918659 0.392342
0.0599637 -0.0924277 0.392118
0.0595681 -0.0930077 0.391976
0.0591818 -0.0936053 0.391913
0.0588051 -0.0942217 0.391932
0.0584342 -0.0948501 0.392002
0.0580461 -0.0954445 0.391924
0.0576422 -0.0960064 0.391707
0.0572085 -0.096505 0.391222
0.0567605 -0.0969705 0.390603
0.0563016 -0.0974087 0.389876
0.0558503 -0.0978589 0.389207
0.0554174 -0.0983455 0.388697
0.055002 -0.0988682 0.388341
0.0545971 -0.0994124 0.388077
0.0542057 -0.0999865 0.387938
0.053831 -0.100599 0.387955
0.0534489 -0.101195 0.387903
0.0530738 -0.101807 0.38792
0.052706 -0.102438 0.388008
0.0523391 -0.103073 0.388108
0.0519768 -0.10372 0.388257
0.0516258 -0.104398 0.388523
0.0512779 -0.105087 0.388827
0.050941 -0.105807 0.389251
0.0506241 -0.106585 0.389888
0.0503359 -0.107447 0.390839
0.050116 -0.108507 0.392529
0.0499207 -0.10965 0.394514
0.0497035 -0.110747 0.396304
0.049458 -0.111778 0.397825
0.0491676 -0.112689 0.398886
0.0488093 -0.113407 0.399221
0.0484222 -0.114041 0.399241
0.0480313 -0.114664 0.399221
0.0476399 -0.115286 0.399196
0.0472521 -0.115919 0.399212
0.0468613 -0.116544 0.399196
0.0464777 -0.117193 0.399266
0.0460973 -0.117853 0.399377
0.0457105 -0.118494 0.399414
0.045319 -0.119119 0.399396
0.0449232 -0.119729 0.399327
0.0445204 -0.120314 0.39917
0.0441152 -0.12089 0.398979
0.0437098 -0.121463 0.398785
0.0432926 -0.12199 0.398432
0.0428679 -0.122487 0.397978
0.0424394 -0.122964 0.397463
0.04205 -0.123592 0.397459
0.0417086 -0.124415 0.39811
0.0415095 -0.125829 0.400732
0.0413629 -0.127494 0.404157
0.0412224 -0.129223 0.40776
0.0410253 -0.130745 0.410648
0.0407704 -0.132047 0.412782
0.0403811 -0.132768 0.413003
0.0399649 -0.133369 0.412833
0.0395456 -0.133953 0.412609
0.039133 -0.134568 0.412485
0.0387296 -0.135227 0.412503
0.0383302 -0.135906 0.412585
0.0379276 -0.136572 0.412621
0.0375206 -0.137216 0.412589
0.0371134 -0.137858 0.412551
0.0367021 -0.138479 0.412448
0.0659817 -0.0850003 0.397621
0.0669648 -0.0847582 0.397486
0.0665264 -0.0852895 0.397064
0.0655352 -0.0855173 0.397131
0.0660767 -0.0858012 0.396553
0.0650826 -0.0860221 0.396588
0.0656279 -0.0863116 0.396041
0.0646083 -0.0864891 0.39587
0.0651675 -0.0868009 0.395436
0.0641301 -0.0869459 0.395113
0.0647078 -0.087288 0.394827
0.0642846 -0.087832 0.394494
0.0638503 -0.0883558 0.394071
0.0634244 -0.0888915 0.393708
0.0630101 -0.0894456 0.393434
0.0625962 -0.0899988 0.393158
0.0621656 -0.0905212 0.392746
0.061762 -0.09109 0.392547
0.0613487 -0.09164 0.392267
0.0609366 -0.092191 0.391993
0.0605266 -0.0927445 0.391734
0.060126 -0.0933147 0.391551
0.0597256 -0.0938844 0.391367
0.0593339 -0.0944701 0.391254
0.0589529 -0.0950768 0.391233
0.0585506 -0.095641 0.391029
0.0581419 -0.0961912 0.390766
0.0577085 -0.0966889 0.390284
0.0572696 -0.0971725 0.389748
0.056821 -0.0976315 0.389115
0.0563877 -0.0981201 0.388611
0.0559684 -0.0986361 0.388227
0.0555668 -0.0991892 0.387999
0.0551744 -0.0997617 0.387852
0.0547917 -0.100356 0.387795
0.0544219 -0.10098 0.387858
0.0540486 -0.101597 0.387891
0.0536827 -0.102232 0.387995
0.053324 -0.102886 0.388171
0.0529695 -0.103552 0.388394
0.0526238 -0.104242 0.388706
0.0522856 -0.104954 0.3891
0.0519582 -0.105698 0.38961
0.0516386 -0.106466 0.39021
0.0513395 -0.107294 0.39103
0.05107 -0.108209 0.39217
0.0508425 -0.109248 0.393768
0.0506138 -0.110298 0.395388
0.0503612 -0.111294 0.396785
0.0500752 -0.112207 0.397857
0.0497482 -0.113009 0.39851
0.0493806 -0.113698 0.398734
0.0489942 -0.114333 0.398759
0.0486041 -0.114957 0.398744
0.0482201 -0.1156 0.398799
0.0478327 -0.116234 0.398816
0.0474454 -0.116868 0.398837
0.0470617 -0.117516 0.398902
0.0466812 -0.118175 0.399007
0.046287 -0.118789 0.398955
0.045895 -0.119412 0.398928
0.0454928 -0.119999 0.398778
0.0450872 -0.120573 0.398585
0.0446787 -0.121135 0.398352
0.0442763 -0.121718 0.398193
0.0438615 -0.122254 0.397873
0.0434434 -0.122775 0.397505
0.0430512 -0.123393 0.397468
0.0427096 -0.124208 0.398094
0.0424271 -0.125266 0.399525
0.0422821 -0.126896 0.402845
0.0421386 -0.128568 0.406271
0.0419574 -0.130119 0.409265
0.0417147 -0.131443 0.411482
0.041412 -0.132529 0.412902
0.0409853 -0.133086 0.412586
0.0405824 -0.133746 0.412606
0.040173 -0.134378 0.412537
0.0397733 -0.135053 0.412607
0.0393769 -0.135747 0.412732
0.0389807 -0.136444 0.412868
0.0385778 -0.137111 0.412907
0.0381678 -0.137742 0.41283
0.0377542 -0.138356 0.412702
0.0373388 -0.138959 0.412538
0.036579 -0.140682 0.417254
0.0369395 -0.139646 0.412639
0.067367 -0.0841707 0.397634
0.0679274 -0.0844854 0.397199
0.0675162 -0.0850589 0.396984
0.0670791 -0.0855918 0.396574
0.0666294 -0.0861033 0.396066
0.0661859 -0.0866219 0.395598
0.0657346 -0.0871257 0.395065
0.0652856 -0.0876306 0.394544
0.064865 -0.088179 0.394234
0.0644356 -0.0887113 0.393852
0.0640105 -0.089249 0.393499
0.0635941 -0.0897997 0.39321
0.0631798 -0.0903526 0.392935
0.0627487 -0.0908748 0.392522
0.0623454 -0.091444 0.392327
0.0619363 -0.0920024 0.392085
0.0615244 -0.0925542 0.391816
0.0611141 -0.0931076 0.391556
0.0607038 -0.0936597 0.391294
0.0602925 -0.0942088 0.391021
0.0598814 -0.0947568 0.390746
0.0594807 -0.0953239 0.390556
0.059064 -0.095858 0.390226
0.0586548 -0.0964057 0.389958
0.058222 -0.0969035 0.389482
0.0577973 -0.0974152 0.389069
0.0573618 -0.0979019 0.388556
0.056946 -0.0984277 0.388211
0.0565405 -0.0989737 0.387952
0.0561522 -0.0995562 0.387846
0.055765 -0.100141 0.387749
0.0553949 -0.100764 0.387808
0.0550301 -0.1014 0.387917
0.0546657 -0.102039 0.388034
0.054312 -0.102704 0.388254
0.0539664 -0.10339 0.388556
0.0536254 -0.104091 0.388908
0.0532979 -0.104828 0.389398
0.0529769 -0.105585 0.389961
0.0526629 -0.106366 0.390604
0.0523562 -0.10717 0.391334
0.0520706 -0.108036 0.392288
0.0518089 -0.108974 0.393503
0.051546 -0.109919 0.394731
0.0512756 -0.110854 0.395905
0.0509838 -0.111739 0.396881
0.0506576 -0.112536 0.397516
0.0502965 -0.113237 0.397795
0.04993 -0.113926 0.398022
0.049552 -0.114584 0.398131
0.0491636 -0.115211 0.398129
0.0487843 -0.115866 0.39823
0.0483972 -0.116499 0.398247
0.0480109 -0.117135 0.398274
0.0476277 -0.117782 0.398339
0.0472511 -0.118452 0.398483
0.0468537 -0.119054 0.398389
0.0464651 -0.119686 0.398398
0.0460656 -0.120281 0.398277
0.0456604 -0.120856 0.398089
0.0452519 -0.121418 0.397856
0.0448594 -0.122036 0.397817
0.0444518 -0.122598 0.39759
0.044066 -0.123241 0.397633
0.0437166 -0.124022 0.398145
0.0434214 -0.125017 0.399368
0.0431854 -0.126257 0.401393
0.0430277 -0.127831 0.404505
0.0428402 -0.129318 0.4073
0.0426111 -0.130665 0.409603
0.0423253 -0.131797 0.411186
0.0419834 -0.132709 0.412033
0.0415787 -0.133359 0.412023
0.0411887 -0.134074 0.412223
0.0407899 -0.134753 0.412304
0.0404032 -0.135487 0.412562
0.0400162 -0.136226 0.412829
0.0396238 -0.13694 0.413017
0.0392261 -0.137635 0.413141
0.0388185 -0.138281 0.413109
0.0384071 -0.138909 0.413022
0.0379932 -0.139524 0.412894
0.0376008 -0.140251 0.413113
0.0676235 -0.0858822 0.396029
0.067174 -0.0863938 0.395525
0.0667376 -0.0869229 0.395112
0.066307 -0.0874595 0.394739
0.0658745 -0.0879909 0.394345
0.0654598 -0.0885494 0.394083
0.0650407 -0.0890994 0.393784
0.0646201 -0.0896456 0.393471
0.0642033 -0.0901964 0.393182
0.0637884 -0.0907494 0.392906
0.0633569 -0.091272 0.392496
0.0629539 -0.0918426 0.392306
0.0625452 -0.0924026 0.39207
0.0621289 -0.0929474 0.39177
0.0617126 -0.0934906 0.391465
0.0612915 -0.0940236 0.391119
0.0608693 -0.0945523 0.390759
0.060443 -0.0950714 0.39036
0.0600274 -0.0956091 0.390046
0.0595959 -0.0961137 0.389594
0.0591818 -0.0966506 0.389283
0.0587493 -0.0971484 0.388812
0.0583305 -0.0976715 0.388451
0.0579047 -0.098178 0.388024
0.0575065 -0.0987407 0.387834
0.0571144 -0.0993153 0.387695
0.056736 -0.0999195 0.387677
0.0563621 -0.100534 0.3877
0.0560091 -0.101196 0.387913
0.0556534 -0.101853 0.388106
0.0553013 -0.102521 0.388337
0.0549644 -0.103227 0.388714
0.0546318 -0.103946 0.389138
0.0542971 -0.104664 0.389551
0.0539785 -0.105424 0.390126
0.0536669 -0.106207 0.390778
0.0533584 -0.107003 0.391475
0.0530572 -0.107824 0.392255
0.0527828 -0.108721 0.393316
0.0524965 -0.109595 0.39428
0.0522 -0.110451 0.39516
0.0518906 -0.111279 0.395927
0.0515626 -0.112062 0.396518
0.051203 -0.112762 0.396796
0.0508352 -0.113441 0.396995
0.0504697 -0.11413 0.397222
0.0500971 -0.1148 0.39738
0.0497127 -0.115436 0.397416
0.0493384 -0.116104 0.397563
0.0489597 -0.116761 0.397666
0.048578 -0.11741 0.397739
0.0481957 -0.118057 0.397809
0.0478237 -0.11874 0.397998
0.0474233 -0.119332 0.397868
0.0470387 -0.119975 0.397918
0.0466431 -0.120582 0.397842
0.046245 -0.121181 0.397737
0.0458435 -0.121768 0.39759
0.0454618 -0.122423 0.397681
0.0450841 -0.123095 0.397823
0.0447351 -0.123875 0.398327
0.0444288 -0.124818 0.399375
0.0441788 -0.125986 0.401163
0.0439831 -0.127382 0.403692
0.043774 -0.128752 0.406106
0.0435357 -0.130032 0.408201
0.0432566 -0.131169 0.409806
0.0429237 -0.132103 0.410732
0.0425433 -0.132848 0.411036
0.0421593 -0.13358 0.411297
0.0417859 -0.134364 0.411719
0.0414008 -0.135101 0.411985
0.0410271 -0.135893 0.412425
0.0406528 -0.136686 0.412865
0.0402689 -0.137443 0.413182
0.0398777 -0.138168 0.413401
0.0394758 -0.138846 0.413466
0.039067 -0.139491 0.413427
0.0386611 -0.14015 0.413433
0.0382777 -0.140925 0.413797
0.0681562 -0.0861559 0.395407
0.0677237 -0.0866927 0.395029
0.0673036 -0.0872469 0.394737
0.0668942 -0.0878166 0.394523
0.0664769 -0.0883728 0.394247
0.0660577 -0.0889248 0.393954
0.0656438 -0.0894838 0.393698
0.0652276 -0.090038 0.393421
0.0648102 -0.0905889 0.393133
0.0643953 -0.0911426 0.39286
0.0639728 -0.0916818 0.392525
0.0635745 -0.0922618 0.392376
0.0631665 -0.0928241 0.392149
0.0627488 -0.0933678 0.391843
0.0623311 -0.0939099 0.391532
0.0618987 -0.0944231 0.3911
0.0614612 -0.0949245 0.390621
0.0610236 -0.095423 0.390135
0.0605927 -0.0959315 0.389697
0.06015 -0.0964146 0.389156
0.0597352 -0.0969497 0.388841
0.0593035 -0.0974491 0.388379
0.0588857 -0.0979745 0.38803
0.0584689 -0.0984996 0.387683
0.0580804 -0.0990824 0.387577
0.0576938 -0.0996689 0.387487
0.057338 -0.100322 0.387667
0.0569867 -0.100986 0.38789
0.0566562 -0.101699 0.388304
0.056314 -0.102389 0.38862
0.0559751 -0.103089 0.388973
0.0556393 -0.103799 0.389361
0.0553071 -0.104521 0.38979
0.0549688 -0.105232 0.39017
0.0546458 -0.105984 0.390701
0.0543299 -0.106757 0.391312
0.0540254 -0.107564 0.392042
0.0537252 -0.108388 0.392827
0.0534356 -0.109246 0.393732
0.0531318 -0.110074 0.394514
0.0528168 -0.11088 0.395202
0.052475 -0.111619 0.395634
0.0521196 -0.112325 0.395939
0.0517484 -0.112991 0.39609
0.0513736 -0.113648 0.396208
0.0510051 -0.114324 0.396395
0.0506367 -0.115004 0.396588
0.0502571 -0.115651 0.396666
0.0498877 -0.116331 0.396858
0.0495168 -0.117009 0.397039
0.0491365 -0.117659 0.39712
0.0487588 -0.11832 0.397236
0.0483946 -0.119024 0.397504
0.0479991 -0.119631 0.397425
0.0476191 -0.120288 0.397524
0.0472312 -0.12092 0.397535
0.0468406 -0.121544 0.397518
0.0464538 -0.122182 0.397545
0.0460936 -0.122913 0.397889
0.0457423 -0.12368 0.398352
0.0454309 -0.124596 0.399308
0.0451627 -0.12568 0.400818
0.0449388 -0.126946 0.402917
0.0447084 -0.128209 0.404985
0.0444532 -0.129398 0.406788
0.0441661 -0.13048 0.408222
0.0438415 -0.13143 0.409208
0.0434744 -0.132217 0.409656
0.0431065 -0.133006 0.410108
0.0427372 -0.133795 0.410553
0.042373 -0.134613 0.411083
0.0419988 -0.135393 0.41149
0.0416325 -0.136213 0.412018
0.0412651 -0.137036 0.412549
0.040891 -0.137835 0.412998
0.0405097 -0.138605 0.413354
0.0401176 -0.139329 0.413563
0.0397213 -0.140036 0.413716
0.0393302 -0.140773 0.413959
0.0389554 -0.141593 0.414454
0.0686962 -0.0864414 0.394844
0.0682928 -0.087022 0.394679
0.0678982 -0.0876152 0.394574
0.0675107 -0.0882195 0.394522
0.0671095 -0.0888021 0.394368
0.0666848 -0.0893465 0.394039
0.0662744 -0.0899126 0.393814
0.0658569 -0.0904661 0.393533
0.0654394 -0.091018 0.393248
0.0650249 -0.0915736 0.392982
0.0646166 -0.0921388 0.392762
0.064218 -0.0927198 0.392615
0.0638087 -0.0932815 0.392383
0.0633896 -0.0938245 0.392072
0.0629703 -0.0943657 0.391756
0.0625316 -0.0948693 0.391281
0.0620834 -0.0953528 0.390724
0.0616344 -0.0958315 0.390153
0.0611875 -0.0963108 0.389591
0.0607334 -0.096773 0.388963
0.0603087 -0.0972893 0.38857
0.0598762 -0.0977878 0.388106
0.0594628 -0.0983223 0.387796
0.0590552 -0.0988669 0.387531
0.0586756 -0.0994687 0.387503
0.0583074 -0.100095 0.387573
0.0579757 -0.1008 0.38796
0.0576444 -0.101509 0.388359
0.057334 -0.102267 0.388949
0.0570021 -0.102982 0.389359
0.0566641 -0.103687 0.389722
0.0563279 -0.104399 0.390109
0.0559876 -0.105104 0.390465
0.0556391 -0.105793 0.390753
0.0553054 -0.106521 0.391186
0.0549791 -0.10727 0.391695
0.0546621 -0.108046 0.392301
0.0543501 -0.10884 0.392967
0.0540491 -0.109668 0.393752
0.0537337 -0.110464 0.394412
0.0534066 -0.111237 0.394971
0.0530491 -0.111933 0.395242
0.0526856 -0.112615 0.39546
0.0523064 -0.113257 0.395525
0.0519271 -0.1139 0.395592
0.0515557 -0.114566 0.395742
0.0511876 -0.115243 0.395929
0.0508126 -0.115902 0.39605
0.0504437 -0.116581 0.396239
0.0500782 -0.117272 0.396469
0.0497018 -0.117933 0.396588
0.049332 -0.118615 0.396781
0.048976 -0.119344 0.397132
0.0485951 -0.119996 0.397215
0.0482239 -0.120681 0.397409
0.0478611 -0.121396 0.397704
0.0474859 -0.122073 0.397864
0.0471144 -0.122765 0.398074
0.0467698 -0.123552 0.398602
0.0464412 -0.1244 0.399331
0.0461428 -0.125364 0.40044
0.0458943 -0.126519 0.402174
0.0456359 -0.127657 0.403833
0.0453679 -0.128776 0.405411
0.0450723 -0.129806 0.406683
0.0447451 -0.130728 0.407586
0.0443864 -0.131535 0.408109
0.04403 -0.132359 0.408678
0.0436707 -0.133176 0.409221
0.043316 -0.13402 0.409843
0.0429599 -0.134866 0.410466
0.042594 -0.135676 0.410967
0.0422295 -0.136499 0.411505
0.041869 -0.137349 0.412117
0.0415027 -0.138178 0.412662
0.0411297 -0.138983 0.413127
0.0407512 -0.13977 0.413528
0.0403733 -0.140565 0.413951
0.0399987 -0.141382 0.414437
0.039631 -0.14224 0.415043
0.0692137 -0.0866944 0.394131
0.0688402 -0.0873185 0.394175
0.0684755 -0.087957 0.394285
0.0681125 -0.088599 0.394409
0.0677285 -0.089209 0.394383
0.0673084 -0.0897618 0.394092
0.0669059 -0.0903419 0.393929
0.0664917 -0.0909019 0.393677
0.06608 -0.0914649 0.39344
0.0656713 -0.0920321 0.393225
0.0652833 -0.0926335 0.393164
0.0648892 -0.0932243 0.393056
0.0644792 -0.0937872 0.392826
0.0640587 -0.0943302 0.392511
0.063633 -0.0948622 0.392152
0.0631838 -0.0953495 0.391604
