ply
format ascii 1.0
element vertex 1613
property float x
property float y
property float z
end_header
0.0532395 -0.0842465 0.412789
0.0535427 -0.0843675 0.412828
0.0538532 -0.0844913 0.412886
0.0541603 -0.0846139 0.412934
0.0544785 -0.0847408 0.413012
0.0548257 -0.0848793 0.413169
0.0551657 -0.0850149 0.413304
0.0555252 -0.0851582 0.413491
0.0558789 -0.0852993 0.413659
0.0562436 -0.0854447 0.413855
0.0565914 -0.0855835 0.414003
0.0569533 -0.0857278 0.414186
0.0573292 -0.0858777 0.414404
0.0577262 -0.086036 0.414678
0.0581082 -0.0861883 0.414907
0.0585137 -0.08635 0.415196
0.0589138 -0.0865095 0.415467
0.0593177 -0.0866706 0.415745
0.0597631 -0.0868481 0.416129
0.0368667 -0.0773768 0.426557
0.0371395 -0.0774857 0.426462
0.0374092 -0.0775934 0.426354
0.0376636 -0.0776952 0.426181
0.0379085 -0.0777932 0.425969
0.0381433 -0.0778873 0.425716
0.0383522 -0.0779713 0.425357
0.0385454 -0.0780492 0.424937
0.038748 -0.0781308 0.42456
0.0389592 -0.0782157 0.424223
0.0391827 -0.0783054 0.423939
0.0394338 -0.0784058 0.42377
0.0397024 -0.078513 0.423672
0.039945 -0.0786101 0.423471
0.0401803 -0.0787044 0.423242
0.0404176 -0.0787994 0.423024
0.0406421 -0.0788895 0.422757
0.0408495 -0.0789729 0.422426
0.0410899 -0.0790691 0.422225
0.0413219 -0.0791621 0.421995
0.0415428 -0.0792507 0.421723
0.0417663 -0.0793403 0.421465
0.0419921 -0.0794308 0.421216
0.0421983 -0.0795137 0.420897
0.042409 -0.0795983 0.420598
0.0426196 -0.0796829 0.420301
0.042835 -0.0797693 0.420025
0.0430449 -0.0798536 0.419731
0.0432358 -0.0799304 0.41937
0.0434139 -0.0800023 0.418967
0.0436032 -0.0800785 0.418608
0.0437986 -0.0801571 0.418274
0.0440121 -0.0802427 0.418008
0.0442502 -0.080338 0.41783
0.0444923 -0.0804348 0.417667
0.0447323 -0.0805309 0.417498
0.0449716 -0.0806266 0.417327
0.0452314 -0.0807303 0.417229
0.0455183 -0.0808447 0.417223
0.0458136 -0.0809623 0.417244
0.0461034 -0.0810778 0.417246
0.0463798 -0.0811881 0.417202
0.0466289 -0.0812876 0.417067
0.0468623 -0.081381 0.41688
0.0470819 -0.0814691 0.416649
0.0472605 -0.081541 0.416285
0.0474133 -0.0816028 0.415841
0.0475649 -0.0816642 0.415396
0.0476938 -0.0817167 0.414883
0.047831 -0.0817724 0.414401
0.0479929 -0.0818378 0.414003
0.0481827 -0.0819141 0.413696
0.0483691 -0.0819891 0.413381
0.0485721 -0.0820705 0.413121
0.0487956 -0.08216 0.412926
0.0490399 -0.0822576 0.412798
0.0492854 -0.0823557 0.412674
0.0495418 -0.0824581 0.412584
0.0497929 -0.0825584 0.412477
0.0500635 -0.0826663 0.412431
0.0503356 -0.0827749 0.412388
0.0506197 -0.0828881 0.412382
0.0509105 -0.083004 0.412394
0.0512117 -0.0831239 0.412437
0.0515022 -0.0832396 0.412446
0.0518087 -0.0833617 0.412502
0.0521173 -0.0834845 0.412563
0.0524226 -0.0836061 0.412613
0.0527373 -0.0837313 0.412688
0.0530462 -0.0838543 0.412746
0.0533391 -0.083971 0.412756
0.0536437 -0.0840923 0.412799
0.0539602 -0.0842183 0.412874
0.0542787 -0.084345 0.412953
0.0546105 -0.084477 0.413069
0.0549707 -0.0846201 0.413261
0.0553177 -0.0847581 0.413415
0.0556713 -0.0848986 0.413584
0.0560182 -0.0850365 0.413733
0.0563704 -0.0851766 0.413894
0.0567066 -0.0853103 0.414008
0.0570563 -0.0854493 0.414158
0.0574251 -0.0855959 0.414357
0.057816 -0.0857511 0.414613
0.0581918 -0.0859004 0.414826
0.0585981 -0.0860617 0.415116
0.0589985 -0.0862207 0.415388
0.059403 -0.0863813 0.415667
0.0598493 -0.0865583 0.416053
0.0369898 -0.0770945 0.426598
0.0372586 -0.0772019 0.426486
0.0375257 -0.0773087 0.426366
0.0377715 -0.0774074 0.426157
0.0380115 -0.0775038 0.425924
0.0382414 -0.0775963 0.425651
0.0384445 -0.0776787 0.425269
0.0386367 -0.0777568 0.424847
0.0388428 -0.0778403 0.424486
0.0390604 -0.0779281 0.424175
0.0392895 -0.0780203 0.423915
0.0395459 -0.0781229 0.423767
0.0398176 -0.0782314 0.423682
0.0400639 -0.0783302 0.423495
0.0402998 -0.0784249 0.423269
0.0405421 -0.0785221 0.42307
0.0407676 -0.0786129 0.422807
0.0409752 -0.0786969 0.422477
0.0412159 -0.0787934 0.422278
0.0414527 -0.0788885 0.422065
0.0416786 -0.0789794 0.421813
0.0419115 -0.079073 0.421589
0.0421373 -0.0791638 0.42134
0.0423473 -0.0792486 0.421035
0.0425535 -0.0793319 0.420719
0.0427544 -0.0794132 0.420386
0.0429642 -0.0794978 0.420089
0.0431641 -0.0795787 0.419758
0.0433401 -0.0796504 0.419344
0.0435124 -0.0797206 0.418921
0.0437011 -0.0797971 0.41856
0.0438924 -0.0798746 0.418213
0.0441152 -0.0799642 0.41798
0.0443628 -0.0800633 0.417835
0.0446097 -0.0801621 0.417689
0.0448496 -0.0802583 0.41752
0.045089 -0.0803542 0.41735
0.0453489 -0.080458 0.417251
0.0456276 -0.0805691 0.417217
0.0459241 -0.080687 0.417242
0.046215 -0.0808028 0.417247
0.0464966 -0.080915 0.41722
0.046746 -0.0810148 0.417086
0.0469897 -0.0811123 0.416933
0.0472145 -0.0812026 0.416719
0.0473984 -0.0812772 0.416373
0.0475604 -0.0813433 0.415958
0.0477172 -0.0814074 0.415531
0.0478511 -0.0814626 0.415034
0.0479885 -0.0815192 0.414552
0.0481545 -0.0815867 0.414166
0.0483341 -0.0816596 0.413827
0.0485142 -0.0817326 0.413492
0.0487113 -0.0818121 0.413213
0.0489241 -0.0818977 0.412985
0.0491576 -0.0819913 0.412823
0.049407 -0.0820909 0.41271
0.0496684 -0.0821953 0.412635
0.0499104 -0.0822921 0.412501
0.050175 -0.0823977 0.412435
0.0504393 -0.0825031 0.412369
0.0507124 -0.082612 0.412329
0.0509938 -0.082724 0.412314
0.0513009 -0.082846 0.412374
0.0515925 -0.082962 0.412387
0.0519041 -0.0830858 0.412458
0.0522069 -0.0832062 0.412501
0.0525065 -0.0833252 0.412534
0.0528158 -0.0834481 0.412594
0.05313 -0.0835729 0.412667
0.0534242 -0.08369 0.412681
0.053735 -0.0838134 0.412741
0.0540633 -0.0839437 0.41285
0.0544001 -0.0840772 0.412981
0.0547503 -0.0842159 0.413147
0.0551191 -0.0843619 0.413363
0.0554724 -0.0845018 0.413533
0.0558245 -0.0846413 0.413697
0.056165 -0.0847763 0.413827
0.0564997 -0.0849091 0.413938
0.0568297 -0.0850401 0.414036
0.0571729 -0.0851762 0.414167
0.0575299 -0.0853176 0.414334
0.0579143 -0.0854696 0.414572
0.0582897 -0.0856183 0.414783
0.0586967 -0.0857791 0.415074
0.0591101 -0.0859424 0.41538
0.0595406 -0.0861124 0.415727
0.0371715 -0.0768339 0.426895
0.0374219 -0.0769345 0.4267
0.0376634 -0.0770318 0.42647
0.0378996 -0.0771271 0.426219
0.0381228 -0.0772175 0.425915
0.0383474 -0.0773085 0.42562
0.0385401 -0.0773875 0.425196
0.0387303 -0.0774655 0.424766
0.0389417 -0.0775515 0.424428
0.0391659 -0.0776422 0.424145
0.0394013 -0.0777371 0.423911
0.0396654 -0.0778427 0.423794
0.039933 -0.0779497 0.423692
0.0401747 -0.0780469 0.423488
0.0404105 -0.0781419 0.423261
0.0406571 -0.078241 0.423079
0.0408914 -0.0783354 0.422851
0.0411042 -0.0784218 0.422541
0.0413501 -0.0785205 0.422361
0.0415916 -0.0786176 0.422166
0.0418212 -0.0787103 0.421928
0.0420506 -0.0788028 0.42169
0.0422808 -0.0788956 0.421457
0.0424918 -0.0789812 0.421155
0.0426972 -0.0790646 0.420836
0.0428897 -0.0791432 0.420472
0.0430933 -0.0792259 0.420151
0.0432826 -0.0793033 0.419782
0.0434522 -0.0793732 0.419346
0.0436149 -0.0794404 0.418889
0.0438029 -0.0795172 0.418527
0.0439948 -0.0795954 0.418182
0.0442182 -0.0796856 0.417951
0.0444663 -0.079785 0.417809
0.0447182 -0.0798858 0.41768
0.0449637 -0.0799843 0.41753
0.0452032 -0.0800805 0.417361
0.0454674 -0.080186 0.417277
0.0457454 -0.0802967 0.417239
0.0460414 -0.0804142 0.417262
0.0463274 -0.0805279 0.417251
0.0466092 -0.0806401 0.417224
0.0468587 -0.08074 0.41709
0.047103 -0.080838 0.416939
0.0473283 -0.0809288 0.416727
0.0475225 -0.0810077 0.416415
0.0476998 -0.0810803 0.41605
0.0478679 -0.0811493 0.41566
0.0480128 -0.0812095 0.415197
0.048155 -0.0812687 0.414731
0.0483252 -0.0813385 0.414358
0.0484994 -0.0814097 0.414001
0.0486698 -0.0814795 0.413635
0.0488565 -0.0815555 0.413323
0.0490632 -0.081639 0.413076
0.0492905 -0.0817304 0.412894
0.0495408 -0.0818305 0.412784
0.0498087 -0.0819374 0.412728
0.050061 -0.0820382 0.412624
0.0503307 -0.0821457 0.412574
0.0505944 -0.082251 0.412505
0.050867 -0.0823596 0.412463
0.0511483 -0.0824715 0.412446
0.0514517 -0.0825918 0.412494
0.0517324 -0.0827035 0.412474
0.0520328 -0.0828227 0.412511
0.0523194 -0.0829366 0.412507
0.0526026 -0.0830493 0.412492
0.052901 -0.0831677 0.41252
0.0532148 -0.0832921 0.412592
0.0535094 -0.0834091 0.412607
0.0538318 -0.0835367 0.4127
0.054178 -0.0836734 0.412859
0.0545391 -0.0838159 0.413058
0.0549039 -0.0839597 0.413264
0.0552803 -0.084108 0.413499
0.0556329 -0.0842472 0.413666
0.0559788 -0.0843839 0.413812
0.056307 -0.0845139 0.413907
0.0566299 -0.0846417 0.413985
0.0569602 -0.0847725 0.414083
0.0572968 -0.0849056 0.414196
0.057648 -0.0850444 0.414346
0.0580253 -0.0851931 0.414564
0.0584007 -0.0853412 0.414774
0.058808 -0.0855014 0.415066
0.0592236 -0.0856649 0.415377
0.0373449 -0.076569 0.427153
0.0375743 -0.0766622 0.426867
0.0377983 -0.0767534 0.42656
0.0380245 -0.0768453 0.426266
0.0382383 -0.0769328 0.425923
0.0384503 -0.0770195 0.425576
0.038638 -0.0770973 0.425132
0.0388348 -0.0771784 0.42473
0.0390511 -0.0772666 0.424413
0.039281 -0.0773598 0.424155
0.0395262 -0.0774586 0.42396
0.0397945 -0.0775659 0.42386
0.0400525 -0.0776694 0.423719
0.0402853 -0.0777635 0.423478
0.040517 -0.0778573 0.423237
0.0407632 -0.0779564 0.423053
0.0410017 -0.0780527 0.422841
0.0412192 -0.0781412 0.42255
0.0414654 -0.0782402 0.422371
0.0417116 -0.0783393 0.422194
0.0419414 -0.0784323 0.421956
0.0421705 -0.078525 0.421718
0.0424055 -0.0786199 0.421503
0.0426262 -0.0787095 0.421238
0.0428328 -0.0787938 0.420922
0.0430293 -0.0788745 0.420573
0.0432275 -0.0789557 0.420233
0.0434063 -0.0790296 0.419826
0.0435657 -0.0790964 0.419353
0.0437269 -0.0791639 0.418891
0.0439156 -0.0792414 0.418532
0.044108 -0.0793203 0.418189
0.0443315 -0.0794108 0.417959
0.0445795 -0.0795103 0.417816
0.0448317 -0.0796113 0.417689
0.0450784 -0.0797104 0.417543
0.045319 -0.0798071 0.417377
0.0455826 -0.0799124 0.417291
0.0458587 -0.0800224 0.417247
0.0461481 -0.0801373 0.417247
0.0464276 -0.0802484 0.417213
0.0467093 -0.0803605 0.417187
0.0469587 -0.0804605 0.417052
0.0472034 -0.0805588 0.416903
0.0474332 -0.0806515 0.416706
0.0476378 -0.0807347 0.416428
0.0478326 -0.0808144 0.416121
0.0480134 -0.0808887 0.415771
0.04817 -0.080954 0.415346
0.0483166 -0.0810156 0.414894
0.0484867 -0.0810859 0.41452
0.0486515 -0.0811542 0.414133
0.0488216 -0.0812244 0.413766
0.0490023 -0.0812986 0.413435
0.0492033 -0.0813804 0.413169
0.0494308 -0.081472 0.412988
0.0496917 -0.0815762 0.412909
0.0499621 -0.0816839 0.41286
0.0502227 -0.0817879 0.412781
0.0505034 -0.0818995 0.412763
0.050772 -0.0820066 0.412707
0.0510405 -0.0821136 0.412652
0.0513219 -0.0822254 0.412634
0.0516191 -0.0823432 0.412662
0.0518877 -0.0824503 0.412606
0.052176 -0.0825647 0.412606
0.0524556 -0.0826759 0.412581
0.0527327 -0.0827861 0.412548
0.0530301 -0.082904 0.412573
0.0533382 -0.0830259 0.412627
0.0536318 -0.0831424 0.412639
0.0539607 -0.0832722 0.41275
0.0543147 -0.0834114 0.41293
0.0546902 -0.0835587 0.413168
0.0550684 -0.083707 0.41341
0.0554461 -0.0838552 0.413648
0.0557984 -0.0839939 0.413813
0.0561375 -0.0841276 0.413938
0.0564542 -0.0842528 0.414001
0.0567716 -0.0843784 0.414064
0.0571014 -0.0845086 0.414159
0.0574322 -0.0846392 0.414256
0.0577774 -0.0847753 0.414389
0.0581424 -0.0849189 0.414573
0.058511 -0.0850638 0.414765
0.0589058 -0.0852186 0.415023
0.0593047 -0.085375 0.415289
0.0373176 -0.0762197 0.427825
0.0375222 -0.0763045 0.427427
0.0377333 -0.0763915 0.42706
0.0379379 -0.0764762 0.42667
0.0381497 -0.0765634 0.426315
0.0383505 -0.0766467 0.425918
0.0385502 -0.0767295 0.42552
0.0387413 -0.0768092 0.425091
0.0389464 -0.0768939 0.424724
0.0391722 -0.076986 0.424446
0.0394043 -0.0770803 0.424196
0.0396616 -0.0771837 0.424051
0.0399285 -0.0772904 0.423944
0.0401812 -0.0773921 0.423781
0.0404051 -0.0774834 0.423506
0.0406357 -0.0775771 0.42326
0.0408734 -0.0776733 0.423043
0.0411113 -0.0777697 0.422829
0.0413291 -0.0778586 0.42254
0.0415764 -0.0779583 0.422365
0.0418224 -0.0780575 0.422188
0.0420604 -0.0781537 0.421981
0.0422895 -0.0782467 0.421742
0.0425258 -0.0783423 0.421533
0.0427559 -0.0784357 0.421302
0.0429682 -0.0785226 0.421007
0.0431649 -0.0786038 0.420659
0.0433588 -0.0786839 0.420303
0.0435314 -0.0787563 0.419873
0.0436809 -0.0788202 0.419366
0.043842 -0.0788883 0.418904
0.0440311 -0.0789665 0.418547
0.0442235 -0.0790459 0.418205
0.0444465 -0.0791365 0.417973
0.0446978 -0.0792373 0.417841
0.0449498 -0.0793384 0.417713
0.0451972 -0.0794378 0.41757
0.0454434 -0.0795368 0.417422
0.0457076 -0.0796423 0.417338
0.0459685 -0.0797467 0.417242
0.0462463 -0.0798572 0.417203
0.0465198 -0.0799661 0.417149
0.0467962 -0.0800761 0.417105
0.0470416 -0.0801747 0.416958
0.0472896 -0.0802744 0.41682
0.0475241 -0.080369 0.416639
0.0477388 -0.0804563 0.416394
0.0479463 -0.0805411 0.416129
0.0481403 -0.0806208 0.415821
0.0483082 -0.0806909 0.415433
0.048464 -0.0807566 0.415011
0.048634 -0.0808274 0.414636
0.0487937 -0.0808944 0.414233
0.048969 -0.0809671 0.413882
0.0491539 -0.0810433 0.413563
0.0493494 -0.0811234 0.413281
0.0495815 -0.081217 0.413113
0.0498548 -0.0813257 0.413072
0.0501328 -0.0814362 0.413045
0.050405 -0.0815445 0.413
0.0506979 -0.0816605 0.413017
0.0509749 -0.0817706 0.412985
0.0512498 -0.08188 0.412947
0.0515269 -0.0819902 0.412914
0.0518119 -0.0821033 0.412905
0.052073 -0.0822075 0.412825
0.0523431 -0.0823151 0.412771
0.0526058 -0.08242 0.412695
0.052876 -0.0825276 0.412641
0.0531621 -0.0826411 0.412633
0.053464 -0.0827605 0.412669
0.0537572 -0.0828767 0.412679
0.0540868 -0.0830063 0.412792
0.0544477 -0.0831476 0.41299
0.0548363 -0.0832992 0.413264
0.0552163 -0.0834476 0.41351
0.0555938 -0.0835951 0.413746
0.0559449 -0.0837328 0.413906
0.0562778 -0.0838639 0.414014
0.0565889 -0.0839868 0.41406
0.0569066 -0.0841122 0.414124
0.0572422 -0.0842442 0.414234
0.0575738 -0.0843748 0.414331
0.0579134 -0.0845084 0.414449
0.0582658 -0.0846468 0.414599
0.0586263 -0.0847882 0.414768
0.0589959 -0.0849329 0.414959
0.0593756 -0.0850815 0.415174
0.0372294 -0.0758468 0.428237
0.0374806 -0.0759485 0.428037
0.0376811 -0.0760324 0.427619
0.037885 -0.0761175 0.427221
0.0380775 -0.0761986 0.42678
0.0382752 -0.0762813 0.426365
0.0384667 -0.0763619 0.425929
0.0386658 -0.0764451 0.425529
0.0388571 -0.0765255 0.425101
0.0390634 -0.0766112 0.42474
0.0392908 -0.0767042 0.424469
0.0395271 -0.0768003 0.424236
0.0397846 -0.0769038 0.424091
0.0400466 -0.077009 0.423965
0.0403026 -0.077112 0.423815
0.0405256 -0.0772033 0.423536
0.0407514 -0.0772957 0.423271
0.0409838 -0.0773903 0.423034
0.0412212 -0.0774866 0.422818
0.0414389 -0.077576 0.422528
0.0416867 -0.077676 0.422356
0.0419329 -0.0777754 0.42218
0.0421753 -0.0778735 0.42199
0.0424041 -0.0779667 0.42175
0.0426405 -0.0780626 0.421541
0.0428761 -0.0781582 0.421331
0.0430938 -0.0782474 0.421056
0.0432916 -0.0783295 0.420711
0.0434851 -0.07841 0.420354
0.0436528 -0.0784813 0.419908
0.0438053 -0.0785471 0.419411
0.0439667 -0.078616 0.418951
0.0441566 -0.078695 0.418597
0.0443542 -0.0787768 0.418273
0.0445764 -0.0788674 0.418038
0.044817 -0.0789645 0.417869
0.0450677 -0.0790652 0.417736
0.0453151 -0.0791648 0.417592
0.0455623 -0.0792642 0.417449
0.0458273 -0.07937 0.417366
0.0460832 -0.0794726 0.417254
0.0463458 -0.0795776 0.417163
0.0466133 -0.0796843 0.41709
0.0468845 -0.0797924 0.417028
0.0471259 -0.0798897 0.416868
0.0473741 -0.0799895 0.416732
0.0476172 -0.0800875 0.416579
0.0478417 -0.0801786 0.416367
0.0480607 -0.0802679 0.416139
0.0482617 -0.0803506 0.415854
0.0484396 -0.0804249 0.415499
0.0485997 -0.0804927 0.415089
0.0487688 -0.0805638 0.414712
0.0489242 -0.0806299 0.414296
0.0491046 -0.080705 0.413961
0.0492944 -0.0807835 0.413658
0.0494955 -0.080866 0.413392
0.049734 -0.0809621 0.413243
0.050018 -0.0810746 0.413234
0.050307 -0.081189 0.413239
0.0505911 -0.0813016 0.413228
0.0508903 -0.0814197 0.413263
0.0511741 -0.0815322 0.41325
0.0514509 -0.0816422 0.413216
0.0517236 -0.0817507 0.413169
0.0519973 -0.0818596 0.413125
0.0522517 -0.0819615 0.413024
0.0525051 -0.0820629 0.41292
0.0527566 -0.0821637 0.412811
0.0530213 -0.0822693 0.41274
0.0533018 -0.0823806 0.412715
0.0535983 -0.0824978 0.412735
0.053897 -0.0826159 0.41276
0.054232 -0.0827471 0.412887
0.0545996 -0.0828903 0.413103
0.0549885 -0.0830414 0.413377
0.055368 -0.083189 0.41362
0.0557336 -0.0833316 0.413822
0.0560785 -0.0834666 0.413964
0.0564058 -0.0835952 0.414055
0.0567118 -0.0837161 0.414087
0.0570298 -0.0838413 0.414151
0.0573714 -0.0839752 0.414277
0.0577103 -0.0841082 0.414393
0.0580452 -0.0842396 0.414497
0.0583915 -0.0843753 0.41463
0.0587485 -0.0845149 0.414789
0.0591024 -0.0846535 0.414938
0.059456 -0.0847919 0.415083
0.0371569 -0.0754779 0.428721
0.0373986 -0.0755766 0.428476
0.0376492 -0.0756783 0.428271
0.037843 -0.0757606 0.427824
0.0380373 -0.075843 0.427384
0.0382164 -0.0759201 0.426885
0.0384003 -0.0759988 0.426412
0.0385784 -0.0760755 0.425921
0.0387759 -0.0761587 0.425515
0.0389675 -0.0762399 0.42509
0.0391789 -0.0763278 0.42475
0.0394114 -0.0764229 0.424499
0.0396519 -0.0765208 0.424284
0.039909 -0.0766243 0.424137
0.0401669 -0.0767281 0.423993
0.0404155 -0.0768287 0.423814
0.0406338 -0.0769188 0.423517
0.040859 -0.0770112 0.42325
0.0410857 -0.0771042 0.422991
0.0413271 -0.0772022 0.422791
0.0415488 -0.0772933 0.422518
0.0417972 -0.0773937 0.422348
0.0420436 -0.0774934 0.422172
0.0422858 -0.0775916 0.421981
0.04251 -0.0776835 0.421725
0.0427509 -0.0777812 0.421533
0.042991 -0.0778786 0.421339
0.043218 -0.0779714 0.421099
0.0434213 -0.0780559 0.420774
0.0436149 -0.078137 0.420418
0.043782 -0.0782088 0.41997
0.043938 -0.0782766 0.419486
0.0440954 -0.0783448 0.419013
0.0442905 -0.0784262 0.418677
0.0444979 -0.0785119 0.418387
0.0447158 -0.0786013 0.418137
0.0449466 -0.0786951 0.417933
0.0451912 -0.0787938 0.417779
0.0454327 -0.0788914 0.417614
0.0456757 -0.0789895 0.417457
0.0459416 -0.0790957 0.417377
0.0462027 -0.0792002 0.417281
0.0464641 -0.0793048 0.417187
0.0467304 -0.079411 0.417109
0.0469929 -0.079516 0.417018
0.0472343 -0.0796135 0.416858
0.0474783 -0.0797119 0.416708
0.047721 -0.0798098 0.416554
0.0479458 -0.0799014 0.416343
0.0481746 -0.0799944 0.416147
0.0483812 -0.0800794 0.415881
0.0485633 -0.0801558 0.415539
0.0487277 -0.0802258 0.415144
0.0488965 -0.0802973 0.414766
0.0490524 -0.0803642 0.414351
0.0492329 -0.0804399 0.414016
0.0494237 -0.0805191 0.413716
0.0496305 -0.0806041 0.413468
0.0498807 -0.0807044 0.413354
0.0501657 -0.0808173 0.413348
0.0504555 -0.0809318 0.413354
0.0507533 -0.0810492 0.413384
0.0510636 -0.0811711 0.413451
0.0513542 -0.0812859 0.413457
0.0516423 -0.0813999 0.413455
0.0519254 -0.0815121 0.413437
0.0521941 -0.0816191 0.413377
0.0524433 -0.0817192 0.413259
0.0526821 -0.0818155 0.413112
0.0529228 -0.0819124 0.41297
0.0531811 -0.0820158 0.412881
0.0534563 -0.0821251 0.412839
0.0537434 -0.0822387 0.412831
0.0540432 -0.082357 0.412859
0.0543786 -0.082488 0.412986
0.0547402 -0.0826285 0.413184
0.055123 -0.0827767 0.413439
0.0554964 -0.0829215 0.413665
0.0558552 -0.0830611 0.413847
0.0561997 -0.0831956 0.413987
0.0565213 -0.0833218 0.414063
0.0568279 -0.0834427 0.414096
0.0571578 -0.083572 0.414191
0.0575126 -0.0837102 0.414352
0.0578598 -0.0838458 0.41449
0.0582023 -0.0839797 0.414613
0.0585415 -0.0841124 0.414726
0.0588911 -0.0842489 0.414865
0.0592315 -0.0843822 0.414977
0.0595472 -0.0845064 0.415023
0.0372966 -0.0751965 0.42883
0.0375449 -0.0752978 0.428613
0.0377861 -0.0753966 0.428367
0.0379753 -0.075478 0.4279
0.0381601 -0.0755579 0.42742
0.0383382 -0.0756355 0.426918
0.0385177 -0.0757135 0.426427
0.0386982 -0.0757917 0.425946
0.0388951 -0.0758753 0.425538
0.0390861 -0.0759569 0.425111
0.0392983 -0.0760456 0.424775
0.0395259 -0.0761394 0.424505
0.0397652 -0.0762371 0.424285
0.0400218 -0.0763406 0.424135
0.040281 -0.0764449 0.423997
0.040535 -0.0765475 0.423839
0.0407535 -0.0766381 0.423543
0.0409786 -0.0767309 0.423276
0.0412005 -0.0768225 0.422999
0.0414375 -0.0769192 0.422782
0.0416552 -0.0770094 0.422493
0.0419034 -0.0771099 0.422323
0.0421456 -0.0772083 0.422132
0.0423824 -0.0773049 0.421921
0.0426059 -0.0773969 0.421663
0.0428465 -0.0774947 0.42147
0.0430914 -0.0775939 0.421295
0.0433282 -0.0776904 0.421091
0.0435454 -0.0777801 0.420817
0.0437398 -0.077862 0.420464
0.0439064 -0.0779343 0.420014
0.0440619 -0.0780027 0.419529
0.0442186 -0.0780714 0.419054
0.0444151 -0.0781538 0.418723
0.0446325 -0.0782434 0.418469
0.0448559 -0.0783349 0.418237
0.0450868 -0.0784291 0.418033
0.0453301 -0.0785275 0.417874
0.0455613 -0.0786217 0.417674
0.0457989 -0.0787181 0.417497
0.0460602 -0.0788226 0.417402
0.0463168 -0.0789256 0.417291
0.0465733 -0.0790285 0.417179
0.0468394 -0.0791347 0.417101
0.0470957 -0.0792376 0.41699
0.0473374 -0.0793353 0.416831
0.0475815 -0.0794339 0.416681
0.0478194 -0.0795303 0.416512
0.0480438 -0.079622 0.4163
0.0482675 -0.0797134 0.416088
0.0484687 -0.079797 0.415805
0.0486503 -0.0798736 0.415462
0.0488191 -0.0799458 0.415082
0.0489887 -0.0800182 0.414707
0.0491543 -0.0800891 0.414323
0.0493502 -0.0801706 0.414037
0.0495568 -0.0802558 0.413786
0.0497704 -0.0803435 0.413559
0.0500267 -0.0804461 0.413463
0.0503121 -0.0805589 0.413457
0.050596 -0.0806712 0.413445
0.0508889 -0.0807867 0.413459
0.0511998 -0.0809085 0.413527
0.0514911 -0.0810235 0.413534
0.0517796 -0.0811375 0.413533
0.0520625 -0.0812495 0.413514
0.0523318 -0.0813567 0.413455
0.0525874 -0.0814591 0.413355
0.052832 -0.0815576 0.413224
0.0530726 -0.0816547 0.413082
0.0533353 -0.0817596 0.413004
0.0536102 -0.0818687 0.412961
0.0538925 -0.0819806 0.412939
0.0541881 -0.0820972 0.412954
0.0545121 -0.0822238 0.413047
0.054862 -0.0823596 0.413212
0.055233 -0.082503 0.413433
0.0556003 -0.0826451 0.413641
0.0559533 -0.0827821 0.413807
0.056303 -0.082918 0.413961
0.0566246 -0.0830439 0.414036
0.0569317 -0.0831648 0.41407
0.0572739 -0.0832981 0.414198
0.0576425 -0.0834408 0.414396
0.058004 -0.0835811 0.414572
0.0583544 -0.0837174 0.414715
0.058688 -0.0838478 0.414812
0.0590304 -0.0839814 0.414931
0.0593529 -0.0841078 0.414995
0.0596447 -0.0842234 0.414978
0.0374543 -0.0749205 0.429017
0.0377009 -0.0750215 0.428791
0.0379411 -0.0751203 0.42854
0.0381244 -0.0752005 0.428047
0.0383035 -0.0752793 0.427543
0.0384686 -0.0753535 0.426986
0.0386433 -0.0754306 0.426475
0.0388149 -0.0755067 0.425958
0.0390115 -0.0755908 0.42555
0.0392022 -0.075673 0.425122
0.0394145 -0.0757621 0.424787
0.0396369 -0.0758546 0.424496
0.0398749 -0.0759521 0.424271
0.0401307 -0.0760555 0.424118
0.0403906 -0.0761602 0.423983
0.04065 -0.0762647 0.423847
0.0408732 -0.0763572 0.42357
0.0411017 -0.0764515 0.423316
0.04132 -0.0765423 0.423024
0.0415527 -0.0766378 0.422791
0.041766 -0.0767269 0.422486
0.0420135 -0.0768273 0.422313
0.0422504 -0.0769242 0.422102
0.0424909 -0.0770223 0.421906
0.0427143 -0.0771146 0.421647
0.0429547 -0.0772125 0.421454
0.0432002 -0.0773122 0.421281
0.0434423 -0.0774106 0.421096
0.0436608 -0.0775012 0.420828
0.0438564 -0.0775839 0.420479
0.0440223 -0.0776567 0.420028
0.0441815 -0.0777271 0.419557
0.044342 -0.0777979 0.419095
0.0445439 -0.0778826 0.418784
0.044777 -0.0779777 0.418584
0.045007 -0.0780718 0.418375
0.0452382 -0.0781663 0.418171
0.045476 -0.078263 0.417992
0.0456965 -0.0783538 0.417755
0.0459234 -0.0784468 0.417542
0.0461793 -0.0785496 0.417428
0.0464309 -0.0786509 0.417299
0.0466825 -0.0787522 0.417172
0.0469438 -0.0788568 0.417077
0.0471949 -0.0789579 0.416949
0.0474305 -0.0790538 0.416771
0.0476683 -0.0791503 0.416601
0.0479013 -0.0792452 0.416416
0.0481248 -0.0793368 0.416202
0.0483432 -0.0794267 0.415973
0.0485432 -0.0795102 0.415688
0.0487301 -0.0795892 0.415363
0.0489097 -0.0796656 0.415018
0.0490852 -0.0797406 0.414663
0.0492621 -0.079816 0.414315
0.0494685 -0.0799015 0.414061
0.0496857 -0.0799907 0.413843
0.0499008 -0.0800792 0.41362
0.0501624 -0.0801836 0.41354
0.0504423 -0.0802944 0.413516
0.0507249 -0.0804062 0.4135
0.0510126 -0.0805197 0.413498
0.0513242 -0.0806415 0.413567
0.0516166 -0.0807567 0.413578
0.051911 -0.0808726 0.413593
0.0521938 -0.0809845 0.413573
0.0524685 -0.0810936 0.413529
0.0527309 -0.0811984 0.413449
0.052977 -0.0812975 0.413322
0.0532124 -0.0813929 0.413164
0.0534733 -0.0814972 0.413081
0.0537422 -0.0816042 0.41302
0.0540197 -0.0817143 0.412983
0.0543095 -0.0818287 0.412981
0.0546265 -0.0819525 0.413055
0.0549628 -0.0820832 0.413181
0.0553267 -0.0822235 0.413382
0.055689 -0.0823633 0.413575
0.0560439 -0.0825005 0.413746
0.0563944 -0.0826363 0.413902
0.0567211 -0.0827637 0.413991
0.057028 -0.0828843 0.414025
0.0573774 -0.0830197 0.414172
0.0577604 -0.083167 0.414408
0.0581363 -0.0833118 0.414621
0.058494 -0.0834503 0.414783
0.0588331 -0.0835823 0.414894
0.0591697 -0.0837134 0.414997
0.0594802 -0.0838354 0.415029
0.0597824 -0.0839545 0.415038
0.0375832 -0.0746347 0.429078
0.0378321 -0.0747366 0.428861
0.0380732 -0.0748361 0.428614
0.0382602 -0.0749182 0.428137
0.0384431 -0.074999 0.42765
0.0386078 -0.0750739 0.427091
0.0387826 -0.0751519 0.426581
0.0389497 -0.0752273 0.426046
0.039146 -0.075312 0.425636
0.039333 -0.0753936 0.425193
0.0395409 -0.0754818 0.42484
0.0397585 -0.0755731 0.42453
0.0399953 -0.0756705 0.4243
0.0402421 -0.0757711 0.424111
0.0404977 -0.0758745 0.423959
0.0407528 -0.0759778 0.423806
0.0409763 -0.0760708 0.423531
0.0412048 -0.0761653 0.423277
0.0414267 -0.0762577 0.423
0.0416595 -0.0763536 0.422768
0.0418766 -0.0764443 0.422478
0.0421236 -0.0765448 0.422303
0.0423594 -0.0766415 0.422088
0.0425955 -0.0767383 0.421876
0.0428186 -0.0768308 0.421616
0.0430596 -0.0769292 0.421426
0.0433097 -0.0770306 0.42127
0.043557 -0.0771309 0.421104
0.0437856 -0.0772252 0.420873
0.0439868 -0.0773103 0.420544
0.0441577 -0.0773854 0.420111
0.0443157 -0.0774562 0.419636
0.0444803 -0.077529 0.419189
0.044683 -0.0776144 0.41888
0.0449271 -0.0777135 0.418718
0.0451588 -0.0778084 0.418514
0.0453904 -0.0779033 0.418312
0.0456232 -0.0779985 0.418114
0.0458376 -0.0780876 0.417856
0.0460496 -0.0781758 0.417592
0.046299 -0.0782765 0.417456
0.0465492 -0.0783775 0.417323
0.046796 -0.0784773 0.417179
0.0470479 -0.0785788 0.417053
0.0472932 -0.0786781 0.416906
0.0475271 -0.0787735 0.416722
0.0477545 -0.0788667 0.416519
0.0479818 -0.0789599 0.416316
0.0481948 -0.0790483 0.416069
0.0484062 -0.079136 0.415819
0.0486009 -0.0792181 0.415518
0.0487878 -0.0792976 0.415194
0.0489693 -0.0793751 0.414856
0.0491613 -0.0794562 0.414554
0.049349 -0.0795357 0.414241
0.049562 -0.0796238 0.414008
0.049786 -0.0797156 0.413811
0.050011 -0.0798077 0.413619
0.0502727 -0.0799122 0.41354
0.0505512 -0.0800224 0.413511
0.0508328 -0.0801337 0.413492
0.0511248 -0.0802486 0.413503
0.0514376 -0.0803705 0.413575
0.0517315 -0.0804861 0.413589
0.0520256 -0.0806017 0.413603
0.0523131 -0.0807151 0.413597
0.0525882 -0.0808242 0.413554
0.0528516 -0.0809294 0.413476
0.0531042 -0.0810309 0.413368
0.053345 -0.0811283 0.413225
0.0536065 -0.0812328 0.413143
0.0538743 -0.0813394 0.413079
0.0541461 -0.0814475 0.413025
0.054429 -0.0815593 0.413003
0.0547388 -0.0816805 0.413056
0.055062 -0.0818062 0.413145
0.0554135 -0.0819417 0.413311
0.0557761 -0.0820811 0.413505
0.0561324 -0.0822184 0.41368
0.0564788 -0.0823523 0.413824
0.0568116 -0.0824815 0.41393
0.057123 -0.0826033 0.413976
0.0574794 -0.0827408 0.414142
0.0578642 -0.0828881 0.414381
0.0582535 -0.083037 0.41463
0.0586183 -0.0831775 0.41481
0.0589639 -0.0833114 0.414938
0.0592943 -0.0834401 0.415023
0.0596143 -0.0835651 0.41508
0.0599254 -0.0836871 0.415112
0.0374265 -0.074235 0.429196
0.037702 -0.0743454 0.429094
0.0379489 -0.074447 0.428869
0.0381949 -0.0745482 0.428642
0.0383909 -0.0746339 0.428205
0.0385757 -0.074716 0.427726
0.0387411 -0.074792 0.427171
0.0389194 -0.0748719 0.426675
0.0390856 -0.0749478 0.426136
0.039277 -0.0750316 0.425707
0.039464 -0.0751139 0.425265
0.0396721 -0.0752027 0.424912
0.039886 -0.0752933 0.424587
0.0401138 -0.0753881 0.424321
0.0403502 -0.0754857 0.424091
0.0406002 -0.0755874 0.423917
0.0408463 -0.075688 0.423729
0.0410695 -0.0757812 0.423453
0.0413023 -0.0758775 0.423217
0.0415285 -0.0759715 0.422957
0.0417616 -0.0760678 0.422727
0.0419782 -0.0761587 0.422435
0.0422246 -0.0762592 0.422259
0.0424602 -0.0763561 0.422043
0.0426969 -0.0764534 0.421833
0.042921 -0.0765465 0.421578
0.0431666 -0.0766466 0.421405
0.0434162 -0.0767479 0.421247
0.0436632 -0.0768484 0.421081
0.0438965 -0.0769444 0.420867
0.0441029 -0.0770317 0.420557
0.0442794 -0.0771092 0.420144
0.0444418 -0.0771821 0.419685
0.0446158 -0.0772588 0.419272
0.0448236 -0.0773462 0.418981
0.0450744 -0.0774476 0.418842
0.0453062 -0.0775429 0.418638
0.0455375 -0.0776379 0.418433
0.0457639 -0.0777313 0.418214
0.045973 -0.077819 0.417937
0.0461798 -0.0779059 0.417655
0.0464288 -0.0780066 0.417517
0.0466737 -0.0781059 0.417366
0.0469196 -0.0782056 0.417219
0.0471658 -0.0783053 0.417074
0.0474011 -0.0784014 0.416894
0.0476287 -0.078495 0.41669
0.0478555 -0.0785882 0.416485
0.0480675 -0.0786766 0.416234
0.0482649 -0.0787601 0.415937
0.0484691 -0.0788458 0.415665
0.0486617 -0.0789276 0.415358
0.048845 -0.0790063 0.415024
0.0490377 -0.079088 0.414723
0.049246 -0.0791749 0.414472
0.0494499 -0.0792603 0.41421
0.0496688 -0.0793506 0.413996
0.0498985 -0.0794446 0.413818
0.0501238 -0.079537 0.413626
0.05038 -0.0796396 0.41353
0.0506478 -0.0797462 0.413469
0.0509238 -0.0798556 0.413432
0.0512161 -0.0799703 0.413444
0.0515295 -0.0800922 0.413518
0.0518285 -0.0802093 0.413547
0.0521281 -0.0803266 0.413577
0.0524209 -0.0804416 0.413586
0.0527014 -0.0805525 0.413559
0.0529705 -0.0806596 0.413498
0.0532293 -0.0807632 0.413407
0.0534761 -0.0808628 0.413282
0.053738 -0.0809675 0.4132
0.0540007 -0.0810724 0.413121
0.0542664 -0.0811783 0.41305
0.0545375 -0.0812861 0.412994
0.0548354 -0.0814029 0.413014
0.0551464 -0.0815243 0.413068
0.0554913 -0.081657 0.413216
0.055853 -0.0817956 0.413407
0.0562159 -0.0819346 0.413599
0.056563 -0.0820683 0.413746
0.056902 -0.0821993 0.413868
0.0572245 -0.0823247 0.413944
0.0575874 -0.0824639 0.414127
0.0579729 -0.0826109 0.414368
0.0583686 -0.0827614 0.414634
0.058739 -0.0829033 0.414828
0.0590857 -0.0830372 0.414958
0.0594103 -0.0831635 0.415027
0.0597366 -0.0832905 0.4151
0.0600578 -0.0834158 0.415158
0.0375181 -0.0739373 0.429093
0.0377968 -0.0740487 0.429005
0.0380456 -0.0741511 0.428789
0.0382964 -0.074254 0.428584
0.0385082 -0.0743452 0.428215
0.0387035 -0.0744312 0.427781
0.0388747 -0.0745098 0.427251
0.0390568 -0.0745916 0.426772
0.0392258 -0.0746693 0.426245
0.0394121 -0.0747522 0.425795
0.0395989 -0.074835 0.425351
0.0398032 -0.0749232 0.424984
0.0400122 -0.0750127 0.424639
0.0402263 -0.0751037 0.424318
0.0404527 -0.0751984 0.424049
0.0406963 -0.0752984 0.42385
0.0409412 -0.0753988 0.423657
0.0411644 -0.0754924 0.423382
0.0414016 -0.0755902 0.423164
0.0416329 -0.0756863 0.422925
0.0418662 -0.0757829 0.422695
0.0420879 -0.0758758 0.422423
0.0423347 -0.0759765 0.422249
0.0425709 -0.0760739 0.422036
0.0428124 -0.0761729 0.421844
0.0430367 -0.0762665 0.42159
0.0432779 -0.0763654 0.4214
0.0435273 -0.0764667 0.421242
0.0437731 -0.076567 0.421071
0.0440064 -0.0766632 0.420857
0.0442176 -0.0767525 0.420565
0.0444001 -0.0768326 0.420174
0.0445681 -0.076908 0.419736
0.0447523 -0.0769884 0.419358
0.0449601 -0.0770763 0.419067
0.045211 -0.0771779 0.418928
0.0454421 -0.0772731 0.418721
0.0456724 -0.0773681 0.418513
0.0458931 -0.0774599 0.418274
0.0461021 -0.077548 0.417997
0.0463092 -0.0776354 0.417715
0.0465595 -0.0777366 0.417582
0.0468043 -0.0778361 0.41743
0.0470452 -0.0779342 0.417266
0.0472853 -0.0780321 0.417101
0.0475148 -0.0781266 0.416901
0.0477322 -0.0782171 0.416664
0.047949 -0.0783074 0.416427
0.0481509 -0.0783928 0.416143
0.048336 -0.0784727 0.415809
0.0485285 -0.0785549 0.4155
0.0487192 -0.0786365 0.415188
0.0489023 -0.0787156 0.414855
0.0491013 -0.0787998 0.414575
0.0493201 -0.0788904 0.414358
0.0495394 -0.0789812 0.414145
0.0497694 -0.0790754 0.413966
0.0500046 -0.0791713 0.413804
0.0502346 -0.0792655 0.413627
0.0504849 -0.0793662 0.413512
0.0507423 -0.0794694 0.41342
0.0510079 -0.0795752 0.413352
0.0513 -0.0796898 0.413364
0.0516087 -0.0798098 0.413423
0.0519085 -0.0799269 0.413455
0.0522077 -0.0800439 0.413485
0.0525054 -0.0801604 0.413508
0.0527867 -0.0802715 0.413483
0.053062 -0.0803806 0.41344
0.0533317 -0.0804878 0.413381
0.0535899 -0.0805913 0.413288
0.0538529 -0.0806963 0.41321
0.0541163 -0.0808015 0.413132
0.0543862 -0.0809088 0.413073
0.054657 -0.0810165 0.413016
0.0549502 -0.0811315 0.413022
0.0552618 -0.0812528 0.413078
0.0556064 -0.0813851 0.413224
0.0559612 -0.0815209 0.413396
0.0563176 -0.0816572 0.41357
0.0566594 -0.0817887 0.413701
0.0569928 -0.0819175 0.413808
0.0573101 -0.0820408 0.413869
0.057667 -0.0821775 0.414036
0.0580464 -0.0823218 0.414261
0.0584415 -0.0824714 0.414524
0.0588166 -0.0826144 0.414731
0.0591705 -0.0827503 0.41488
0.0594963 -0.0828768 0.414953
0.0598425 -0.0830102 0.415077
0.0602121 -0.0831515 0.415261
0.0604941 -0.0835805 0.415513
0.0607007 -0.0833331 0.41575
0.0378924 -0.0737525 0.428921
0.0381408 -0.073855 0.428704
0.0383914 -0.0739581 0.428499
0.0386168 -0.0740538 0.428189
0.038825 -0.0741442 0.427809
0.0390058 -0.0742265 0.42732
0.0391926 -0.0743104 0.426861
0.0393656 -0.0743901 0.426351
0.0395474 -0.0744723 0.425882
0.0397377 -0.0745569 0.425453
0.0399374 -0.0746442 0.425067
0.0401458 -0.0747341 0.424719
0.0403543 -0.0748239 0.424376
0.0405702 -0.0749158 0.424066
0.0407994 -0.0750116 0.42381
0.0410346 -0.0751093 0.423581
0.0412533 -0.0752018 0.423289
0.0414915 -0.0753003 0.423075
0.0417282 -0.0753982 0.422857
0.0419666 -0.0754967 0.422647
0.0421977 -0.0755928 0.422412
0.0424496 -0.0756953 0.422256
0.0426955 -0.0757959 0.42208
0.042942 -0.0758966 0.421906
0.0431707 -0.0759919 0.421668
0.0434116 -0.0760908 0.421477
0.0436605 -0.0761923 0.421316
0.0438971 -0.0762898 0.421112
0.0441248 -0.0763846 0.420878
0.0443356 -0.0764741 0.420585
0.0445185 -0.076555 0.420196
0.0446884 -0.0766316 0.419764
0.0448825 -0.0767157 0.419422
0.0450957 -0.0768057 0.41915
0.0453411 -0.0769057 0.418991
0.0455665 -0.0769994 0.418764
0.0457907 -0.0770927 0.418535
0.0460063 -0.0771833 0.418278
0.046216 -0.0772719 0.418004
0.0464336 -0.0773629 0.417758
0.0466904 -0.0774664 0.417646
0.0469413 -0.0775679 0.417514
0.0471774 -0.0776647 0.417334
0.0474115 -0.0777609 0.417148
0.0476301 -0.0778521 0.416914
0.0478422 -0.0779413 0.416659
0.0480484 -0.0780285 0.416388
0.0482443 -0.0781123 0.416086
0.0484183 -0.0781892 0.415716
0.0486032 -0.0782694 0.415384
0.0487936 -0.0783514 0.415073
0.0489769 -0.078431 0.414741
0.0491814 -0.0785173 0.414479
0.0494103 -0.0786114 0.414294
0.0496351 -0.0787042 0.414098
0.0498661 -0.0787989 0.413923
0.0501021 -0.0788952 0.413763
0.0503318 -0.0789895 0.413586
0.0505755 -0.0790882 0.413452
0.0508265 -0.0791893 0.41334
0.0510854 -0.079293 0.413253
0.051372 -0.0794056 0.413248
0.0516702 -0.0795219 0.413277
0.0519639 -0.0796369 0.413291
0.0522626 -0.0797535 0.413319
0.0525614 -0.0798701 0.413347
0.052854 -0.0799847 0.413355
0.0531414 -0.0800977 0.413348
0.0534227 -0.0802087 0.413322
0.0536927 -0.080316 0.413263
0.0539616 -0.080423 0.413201
0.0542254 -0.0805283 0.413125
0.0544954 -0.0806356 0.413066
0.0547663 -0.0807433 0.413009
0.0550599 -0.0808584 0.413016
0.0553674 -0.080978 0.41306
0.0557065 -0.0811081 0.41319
0.0560606 -0.0812431 0.41336
0.0564209 -0.0813803 0.413544
0.0567632 -0.0815116 0.413677
0.0571023 -0.0816419 0.413799
0.057431 -0.0817687 0.413891
0.0577877 -0.0819049 0.414056
0.0581555 -0.0820448 0.414249
0.0585433 -0.0821914 0.414492
0.0589177 -0.0823336 0.414697
0.059272 -0.0824692 0.414846
0.0596005 -0.0825963 0.414926
0.0599863 -0.0827424 0.415153
0.0604002 -0.082898 0.41545
0.0609219 -0.0830895 0.416023
0.0382322 -0.073558 0.428603
0.0384789 -0.0736602 0.428382
0.0387153 -0.0737594 0.428119
0.0389323 -0.073853 0.427778
0.0391264 -0.0739398 0.427345
0.0393188 -0.074026 0.42691
0.0395012 -0.0741093 0.426439
0.0396872 -0.0741934 0.425987
0.039878 -0.0742788 0.42556
0.0400725 -0.0743652 0.425153
0.04028 -0.0744553 0.424802
0.040483 -0.0745439 0.424437
0.0406899 -0.0746336 0.424091
0.0409136 -0.0747282 0.423814
0.0411396 -0.0748234 0.423549
0.0413534 -0.0749149 0.423239
0.0415874 -0.0750123 0.423009
0.0418243 -0.0751106 0.422793
0.042063 -0.0752093 0.422585
0.0423035 -0.0753085 0.422385
0.0425611 -0.0754129 0.422251
0.0428175 -0.0755168 0.422113
0.0430685 -0.0756191 0.421956
0.0433017 -0.075716 0.421735
0.0435423 -0.0758151 0.421543
0.0437911 -0.0759166 0.421381
0.044023 -0.0760131 0.42116
0.0442498 -0.0761079 0.420922
0.04446 -0.0761976 0.420627
0.0446466 -0.0762801 0.420251
0.0448172 -0.0763576 0.419823
0.0450117 -0.0764424 0.419482
0.0452203 -0.0765313 0.419193
0.0454551 -0.0766282 0.418998
0.04567 -0.076719 0.418735
0.0458889 -0.0768109 0.418488
0.0461097 -0.0769034 0.41825
0.0463297 -0.0769956 0.418011
0.0465635 -0.077092 0.41782
0.0468266 -0.0771974 0.417728
0.0470832 -0.0773008 0.417614
0.047314 -0.0773962 0.417416
0.047543 -0.077491 0.417214
0.0477505 -0.0775791 0.416942
0.0479568 -0.0776668 0.416669
0.0481521 -0.077751 0.416363
0.048341 -0.0778331 0.416039
0.0485041 -0.077907 0.415635
0.048684 -0.0779862 0.415288
0.0488746 -0.0780686 0.414978
0.0490584 -0.0781488 0.414649
0.0492633 -0.0782356 0.414389
0.0494968 -0.0783314 0.414219
0.0497268 -0.078426 0.41404
0.0499588 -0.0785212 0.413868
0.0501954 -0.0786179 0.413711
0.0504297 -0.0787138 0.413547
0.0506624 -0.0788091 0.41338
0.0509066 -0.0789081 0.413248
0.0511587 -0.0790096 0.413141
0.0514438 -0.0791216 0.413132
0.0517254 -0.0792325 0.413112
0.0520178 -0.0793468 0.413123
0.05231 -0.0794611 0.413133
0.052608 -0.0795773 0.413158
0.0529023 -0.0796923 0.413173
0.0532078 -0.0798109 0.413218
0.0535017 -0.0799259 0.413229
0.0537889 -0.0800387 0.413219
0.0540697 -0.0801494 0.413191
0.0543395 -0.0802567 0.413132
0.0546151 -0.0803658 0.413088
0.0548917 -0.0804752 0.413047
0.0551864 -0.0805905 0.413056
0.055489 -0.0807084 0.413087
0.0558217 -0.080836 0.413199
0.0561694 -0.0809685 0.41335
0.0565246 -0.0811035 0.41352
0.0568616 -0.0812327 0.413637
0.0571957 -0.081361 0.413745
0.0575354 -0.0814911 0.413867
0.0578854 -0.0816246 0.414014
0.0582469 -0.081762 0.414189
0.0586278 -0.0819057 0.414414
0.0590079 -0.0820492 0.414634
0.0593561 -0.0821824 0.414767
0.0597044 -0.0823157 0.414898
0.0601432 -0.0824786 0.415263
0.0606094 -0.0826506 0.415694
0.0611704 -0.0828538 0.416366
0.0385622 -0.0733615 0.428248
0.0388019 -0.0734619 0.428
0.0390276 -0.0735583 0.427696
0.0392381 -0.0736504 0.427333
0.0394451 -0.0737414 0.426958
0.0396424 -0.0738296 0.426549
0.0398333 -0.0739158 0.426117
0.0400278 -0.0740029 0.425705
0.0402179 -0.0740886 0.42528
0.0404215 -0.0741781 0.424913
0.0406202 -0.0742661 0.424531
0.0408268 -0.0743562 0.424184
0.0410416 -0.0744486 0.423872
0.0412662 -0.0745438 0.423601
0.041479 -0.0746354 0.423287
0.0417123 -0.0747329 0.423055
0.0419447 -0.0748301 0.422821
0.0421827 -0.0749289 0.422611
0.042423 -0.0750283 0.42241
0.0426813 -0.0751329 0.422278
0.0429391 -0.0752374 0.422146
0.0431961 -0.0753416 0.422011
0.0434343 -0.0754403 0.421808
0.0436747 -0.0755395 0.421614
0.0439194 -0.0756401 0.421437
0.0441465 -0.0757353 0.421198
0.0443635 -0.0758275 0.420925
0.0445672 -0.0759157 0.420608
0.0447529 -0.0759985 0.420229
0.0449323 -0.0760793 0.419833
0.0451275 -0.0761647 0.419495
0.0453357 -0.0762539 0.419205
0.0455643 -0.0763492 0.418988
0.0457771 -0.0764397 0.418718
0.0459909 -0.0765304 0.418454
0.0462184 -0.0766252 0.418239
0.0464496 -0.076721 0.418038
0.0466994 -0.0768225 0.4179
0.0469676 -0.0769295 0.417825
0.0472254 -0.0770334 0.417715
0.0474503 -0.0771272 0.417497
0.047678 -0.0772218 0.41729
0.0478746 -0.077307 0.416983
0.0480658 -0.0773904 0.416661
0.0482543 -0.077473 0.416333
0.0484377 -0.0775538 0.415992
0.0485947 -0.0776265 0.41557
0.048775 -0.0777063 0.415225
0.0489711 -0.0777909 0.414933
0.0491608 -0.0778733 0.414623
0.0493708 -0.0779621 0.414379
0.0496045 -0.0780581 0.41421
0.0498393 -0.0781543 0.414045
0.0500761 -0.0782513 0.413888
0.0503084 -0.0783467 0.413718
0.0505426 -0.0784428 0.413554
0.0507694 -0.0785365 0.413369
0.0510024 -0.0786321 0.413204
0.0512432 -0.0787301 0.413063
0.0515172 -0.0788385 0.413021
0.0517816 -0.0789439 0.412951
0.0520609 -0.0790539 0.412924
0.0523455 -0.0791656 0.412912
0.0526429 -0.0792814 0.412937
0.0529494 -0.0794001 0.412987
0.0532726 -0.0795241 0.413084
0.0535905 -0.0796464 0.413164
0.0538905 -0.0797631 0.413191
0.0541834 -0.0798776 0.413197
0.0544595 -0.0799868 0.413155
0.0547412 -0.0800978 0.413128
0.0550184 -0.0802073 0.413089
0.0553128 -0.0803224 0.413097
0.0556142 -0.0804396 0.413123
0.0559412 -0.0805651 0.413218
0.056282 -0.080695 0.41335
0.0566318 -0.0808279 0.413505
0.0569755 -0.0809588 0.41364
0.0573059 -0.0810856 0.413738
0.057652 -0.0812174 0.413876
0.058002 -0.0813505 0.414022
0.0583632 -0.0814872 0.414196
0.0587378 -0.0816284 0.414404
0.0591174 -0.0817712 0.414621
0.0594662 -0.0819042 0.414755
0.0598273 -0.0820412 0.41492
0.0603014 -0.0822146 0.415375
0.0608064 -0.0823982 0.415906
0.061361 -0.0825979 0.416558
0.0617437 -0.0830612 0.417062
0.0619184 -0.0827988 0.417211
0.0386496 -0.0730642 0.428131
0.0388975 -0.0731671 0.427919
0.0391303 -0.0732659 0.427646
0.0393544 -0.0733622 0.427339
0.0395747 -0.0734574 0.42702
0.0397929 -0.0735519 0.426696
0.0399891 -0.0736403 0.426286
0.0401881 -0.0737293 0.425892
0.0403785 -0.0738158 0.425467
0.0405819 -0.0739057 0.425099
0.040777 -0.0739933 0.424701
0.0409834 -0.0740839 0.424353
0.0411938 -0.0741755 0.424023
0.0414138 -0.0742697 0.423734
0.0416211 -0.0743603 0.423398
0.0418487 -0.0744565 0.423144
0.0420757 -0.0745525 0.422889
0.0423132 -0.0746514 0.422676
0.0425572 -0.0747521 0.42249
0.0428202 -0.0748581 0.422375
0.0430833 -0.0749642 0.422261
0.0433417 -0.075069 0.42213
0.0435848 -0.0751693 0.421944
0.0438259 -0.075269 0.421753
0.044066 -0.0753684 0.421559
0.0442926 -0.0754638 0.421317
0.0445089 -0.0755562 0.421042
0.0447073 -0.0756433 0.420705
0.0448931 -0.0757267 0.420327
0.0450723 -0.0758081 0.419929
0.0452636 -0.0758928 0.419578
0.0454661 -0.0759808 0.419268
0.0456882 -0.0760744 0.419029
0.0458951 -0.0761635 0.418739
0.0461089 -0.0762546 0.418475
0.046338 -0.0763501 0.418265
0.0465754 -0.0764481 0.418085
0.0468357 -0.0765528 0.417982
0.047105 -0.0766601 0.41791
0.0473622 -0.0767639 0.417797
0.0475815 -0.0768563 0.41756
0.0478028 -0.0769493 0.417332
0.0479885 -0.0770316 0.41699
0.0481738 -0.0771137 0.416649
0.0483522 -0.0771937 0.41629
0.0485393 -0.0772761 0.415961
0.0486962 -0.0773495 0.415539
0.0488773 -0.07743 0.415197
0.0490787 -0.0775165 0.414922
0.0492737 -0.0776011 0.41463
0.0494791 -0.0776887 0.414371
0.0497127 -0.0777849 0.414202
0.049947 -0.0778811 0.414036
0.0501787 -0.0779766 0.413863
0.0504154 -0.0780736 0.413706
0.050655 -0.0781715 0.413559
0.0508821 -0.0782655 0.413375
0.051115 -0.0783613 0.41321
0.0513497 -0.0784575 0.413051
0.0516128 -0.0785625 0.412976
0.0518654 -0.0786643 0.412871
0.0521326 -0.0787705 0.412809
0.0524046 -0.0788782 0.412761
0.0527013 -0.0789936 0.412784
0.0530078 -0.0791119 0.412835
0.0533386 -0.0792379 0.412953
0.053669 -0.0793638 0.413069
0.0539816 -0.0794842 0.413133
0.054287 -0.0796025 0.413174
0.0545751 -0.0797153 0.413166
0.0548638 -0.0798284 0.413159
0.0551519 -0.0799413 0.413149
0.0554526 -0.0800582 0.413173
0.055748 -0.0801734 0.413183
0.0560732 -0.080298 0.413272
0.0564131 -0.0804273 0.413401
0.0567573 -0.0805579 0.413539
0.057102 -0.0806888 0.413677
0.0574383 -0.080817 0.41379
0.0577858 -0.0809489 0.413931
0.0581311 -0.0810802 0.414064
0.058487 -0.0812148 0.414223
0.0588549 -0.0813533 0.414412
0.0592283 -0.0814936 0.414613
0.0595768 -0.081626 0.414746
0.0599888 -0.0817787 0.415042
0.0605007 -0.0819632 0.415594
0.0610487 -0.0821593 0.416233
0.0616001 -0.0823567 0.416874
0.0621403 -0.0825507 0.41748
0.0389792 -0.0728689 0.42778
0.0392265 -0.0729719 0.427569
0.0394679 -0.0730732 0.427334
0.0397023 -0.0731725 0.427074
0.039936 -0.0732717 0.426812
0.0401415 -0.0733631 0.42644
0.0403448 -0.0734539 0.426062
0.0405392 -0.0735421 0.425653
0.040743 -0.0736328 0.425286
0.0409419 -0.073722 0.424903
0.0411489 -0.0738133 0.424556
0.0413592 -0.0739053 0.424225
0.0415746 -0.0739987 0.423917
0.0417768 -0.0740884 0.423561
0.0419956 -0.0741825 0.423272
0.0422175 -0.0742775 0.422998
0.0424501 -0.0743753 0.422766
0.0426935 -0.074476 0.422577
0.0429612 -0.0745835 0.422479
0.0432292 -0.074691 0.422382
0.0434926 -0.0747973 0.422269
0.0437404 -0.0748991 0.422099
0.0439817 -0.0749992 0.421907
0.0442169 -0.0750974 0.421695
0.0444385 -0.0751917 0.421435
0.0446495 -0.075283 0.42114
0.0448429 -0.0753692 0.420786
0.0450286 -0.0754531 0.420407
0.0452138 -0.0755368 0.420031
0.045406 -0.0756223 0.419682
0.0456038 -0.0757094 0.419356
0.0458194 -0.0758015 0.419094
0.0460244 -0.0758905 0.418798
0.0462346 -0.0759808 0.418522
0.0464696 -0.0760783 0.418332
0.0467175 -0.0761795 0.418186
0.0469869 -0.0762869 0.418113
0.047252 -0.0763931 0.418026
0.047504 -0.0764954 0.417895
0.0477132 -0.0765852 0.417625
0.0479275 -0.0766765 0.417374
0.0481075 -0.0767576 0.417013
0.0482974 -0.0768416 0.416688
0.0484816 -0.0769237 0.416347
0.0486741 -0.0770083 0.416036
0.0488266 -0.077081 0.4156
0.0490016 -0.0771602 0.415239
0.0491926 -0.077244 0.414932
0.0493822 -0.0773274 0.414622
0.0495825 -0.0774138 0.414348
0.0498163 -0.0775102 0.41418
0.0500498 -0.0776064 0.414012
0.0502809 -0.0777019 0.413837
0.0505228 -0.0778006 0.413696
0.0507684 -0.0779004 0.413567
0.0510016 -0.0779965 0.413402
0.051235 -0.0780926 0.413238
0.0514695 -0.0781889 0.413078
0.051726 -0.0782919 0.412984
0.0519674 -0.0783903 0.412846
0.0522235 -0.0784932 0.412751
0.0524892 -0.0785989 0.412685
0.0527743 -0.0787106 0.412674
0.05307 -0.0788254 0.412694
0.0534004 -0.0789509 0.412812
0.0537369 -0.0790783 0.412945
0.054056 -0.0792004 0.413027
0.0543848 -0.0793255 0.413135
0.0546854 -0.0794421 0.413162
0.0549862 -0.0795588 0.413188
0.0552814 -0.0796738 0.413198
0.0555876 -0.0797921 0.413237
0.0558783 -0.0799058 0.413232
0.0562036 -0.0800301 0.413322
0.0565438 -0.0801591 0.413451
0.056881 -0.0802872 0.413569
0.0572251 -0.0804174 0.413704
0.0575673 -0.0805472 0.413833
0.0579281 -0.0806828 0.414009
0.058275 -0.0808141 0.414145
0.0586306 -0.0809482 0.414303
0.058998 -0.0810861 0.414489
0.059364 -0.0812236 0.414669
0.0597138 -0.0813561 0.414805
0.0601676 -0.0815211 0.415209
0.0607109 -0.0817143 0.41584
0.0612638 -0.0819106 0.416489
0.0618074 -0.0821042 0.417108
0.0623291 -0.0822911 0.417664
0.0395829 -0.0727844 0.427335
0.0398235 -0.0728858 0.427101
0.0400661 -0.0729875 0.426875
0.0402835 -0.0730826 0.426551
0.0404923 -0.0731754 0.426195
0.0406912 -0.0732654 0.425804
0.0408987 -0.0733576 0.42545
0.041102 -0.0734486 0.425084
0.0413133 -0.0735415 0.424753
0.0415285 -0.0736354 0.42444
0.0417444 -0.0737294 0.424133
0.0419463 -0.0738195 0.423776
0.0421601 -0.0739128 0.423467
0.0423774 -0.0740068 0.423174
0.0426058 -0.0741038 0.422926
0.0428501 -0.074205 0.422739
0.043114 -0.0743116 0.422626
0.0433822 -0.0744193 0.422529
0.0436454 -0.0745255 0.422414
0.0438932 -0.0746276 0.422243
0.0441296 -0.0747265 0.422033
0.0443646 -0.074825 0.421819
0.0445809 -0.0749182 0.42154
0.0447906 -0.0750095 0.42124
0.0449847 -0.0750964 0.420888
0.0451802 -0.0751837 0.420544
0.0453762 -0.0752709 0.420205
0.0455739 -0.0753585 0.419874
0.0457714 -0.075446 0.419547
0.0459868 -0.0755384 0.419283
0.0461868 -0.0756264 0.418969
0.0463921 -0.0757158 0.418676
0.0466221 -0.0758121 0.418468
0.0468696 -0.0759133 0.41832
0.0471341 -0.0760194 0.41823
0.0473942 -0.0761241 0.418125
0.0476415 -0.0762253 0.417979
0.0478492 -0.076315 0.417704
0.0480582 -0.0764051 0.417435
0.0482379 -0.0764867 0.417074
0.0484287 -0.0765713 0.416751
0.048614 -0.0766544 0.416414
0.0488078 -0.0767397 0.416106
0.0489545 -0.0768114 0.415653
0.0491236 -0.0768894 0.415273
0.0493072 -0.0769716 0.414943
0.0494951 -0.0770549 0.414628
0.0496906 -0.0771403 0.41434
0.0499236 -0.0772366 0.414169
0.0501572 -0.077333 0.414001
0.0503879 -0.0774286 0.413826
0.0506304 -0.0775276 0.413687
0.0508823 -0.0776293 0.413577
0.0511229 -0.0777278 0.413434
0.0513623 -0.0778258 0.413287
0.0516012 -0.0779236 0.41314
0.0518569 -0.0780264 0.413043
0.0520931 -0.0781234 0.41289
0.0523437 -0.0782247 0.412778
0.0525991 -0.0783274 0.412682
0.0528723 -0.0784353 0.412637
0.0531497 -0.0785446 0.412603
0.053467 -0.0786658 0.412684
0.0537965 -0.0787906 0.412798
0.0541214 -0.0789142 0.412896
0.0544736 -0.079046 0.41307
0.0547996 -0.07917 0.413168
0.0551307 -0.0792956 0.413279
0.05545 -0.0794177 0.413354
0.0557687 -0.0795397 0.413427
0.0560558 -0.0796521 0.413411
