ply
format ascii 1.0
element vertex 1641
property float x
property float y
property float z
end_header
-0.154089 0.03558 0.87014
-0.154352 0.0370889 0.870163
-0.154663 0.0386126 0.870482
-0.154985 0.0401414 0.870875
-0.155319 0.0416748 0.871333
-0.155609 0.0431951 0.871522
-0.15587 0.0447056 0.87153
-0.156128 0.0462153 0.871523
-0.156386 0.0477244 0.871507
-0.156603 0.0492184 0.871249
-0.156862 0.0507278 0.871243
-0.157108 0.0522318 0.871159
-0.157297 0.0537124 0.870727
-0.15748 0.0551894 0.870264
-0.157616 0.0566444 0.869511
-0.157691 0.0580705 0.868391
-0.157789 0.0595033 0.867413
-0.157988 0.0609793 0.867053
-0.158215 0.0624674 0.866865
-0.158524 0.0639937 0.867169
-0.158905 0.0655558 0.867908
-0.159273 0.0671139 0.868568
-0.159656 0.0686811 0.869309
-0.160086 0.0702752 0.870338
-0.1606 0.0719156 0.871856
-0.161168 0.07359 0.8737
-0.161816 0.0753132 0.876012
-0.162483 0.0770526 0.878424
-0.163198 0.078827 0.88112
-0.163936 0.0806227 0.883943
-0.1647 0.0824414 0.886906
-0.165467 0.0842716 0.889878
-0.166219 0.0861004 0.892749
-0.166905 0.0878991 0.895225
-0.167527 0.0896663 0.897314
-0.142772 -0.05947 0.892634
-0.143007 -0.0579118 0.892418
-0.143237 -0.0563525 0.89217
-0.143441 -0.0547848 0.891744
-0.143672 -0.0532282 0.891508
-0.143963 -0.0516925 0.891683
-0.144238 -0.0501509 0.891746
-0.144524 -0.0486128 0.891886
-0.144816 -0.0470757 0.892064
-0.145037 -0.0455176 0.89176
-0.145191 -0.0439417 0.890996
-0.145326 -0.0423637 0.890109
-0.145427 -0.0407801 0.888995
-0.145471 -0.0391867 0.887503
-0.145526 -0.0376009 0.886086
-0.145543 -0.036012 0.884426
-0.145575 -0.0344317 0.882863
-0.145539 -0.0328437 0.880856
-0.145538 -0.0312691 0.879089
-0.145432 -0.0296824 0.876627
-0.145322 -0.0281038 0.874151
-0.145181 -0.026529 0.871474
-0.145197 -0.024985 0.869853
-0.145139 -0.0234371 0.867746
-0.145152 -0.0219047 0.866118
-0.145193 -0.0203807 0.864681
-0.145295 -0.0188672 0.863655
-0.145346 -0.017353 0.862291
-0.145548 -0.015854 0.86193
-0.145847 -0.0143619 0.862208
-0.146166 -0.0128697 0.862611
-0.146539 -0.0113781 0.863367
-0.146978 -0.00988574 0.864552
-0.147425 -0.00838941 0.865783
-0.147822 -0.00688884 0.86669
-0.148253 -0.00538492 0.867806
-0.14861 -0.00387859 0.868442
-0.148911 -0.00237184 0.868716
-0.1492 -0.000864714 0.86891
-0.149504 0.000643811 0.869195
-0.149783 0.00215184 0.869323
-0.150072 0.00366102 0.869518
-0.150344 0.00516944 0.869601
-0.150617 0.00667816 0.869683
-0.150861 0.00818415 0.869587
-0.15109 0.00968826 0.869399
-0.15129 0.0111877 0.869016
-0.15143 0.0126782 0.868266
-0.151607 0.0141714 0.867744
-0.151844 0.0156725 0.867607
-0.152122 0.0171798 0.867732
-0.152433 0.0186933 0.868059
-0.15285 0.0202278 0.869053
-0.153244 0.0217609 0.869901
-0.153617 0.0232925 0.870612
-0.15396 0.0248197 0.871133
-0.154292 0.0263462 0.871586
-0.154562 0.0278594 0.871648
-0.154805 0.0293662 0.871546
-0.155022 0.0308658 0.871276
-0.155222 0.03236 0.870906
-0.155431 0.0338557 0.870593
-0.155655 0.0353546 0.870376
-0.155903 0.0368598 0.870302
-0.156182 0.0383747 0.870426
-0.156502 0.0399025 0.870795
-0.156836 0.0414362 0.87125
-0.157114 0.0429528 0.871364
-0.157377 0.0444642 0.871384
-0.157646 0.0459779 0.87144
-0.157902 0.0474871 0.871418
-0.158135 0.0489874 0.871253
-0.158427 0.0505101 0.87145
-0.158722 0.0520345 0.871661
-0.15896 0.0535363 0.871526
-0.159177 0.0550297 0.871273
-0.159345 0.0565011 0.870717
-0.159435 0.0579371 0.869695
-0.159516 0.0593664 0.868628
-0.159668 0.0608241 0.867987
-0.159845 0.062291 0.867494
-0.160091 0.0637893 0.867422
-0.16044 0.0653363 0.867962
-0.160793 0.0668867 0.868521
-0.161162 0.0684471 0.869177
-0.161594 0.0700412 0.870199
-0.162107 0.0716797 0.871699
-0.162648 0.0733375 0.87336
-0.163283 0.075051 0.875572
-0.163952 0.0767898 0.877978
-0.164702 0.0785795 0.880848
-0.165463 0.0803854 0.88378
-0.166234 0.0822049 0.886753
-0.166989 0.084024 0.889625
-0.167709 0.085831 0.892282
-0.168333 0.0875899 0.894369
-0.168908 0.0893247 0.896168
-0.144307 -0.0597398 0.89245
-0.144553 -0.0581859 0.892316
-0.144791 -0.0566293 0.892126
-0.145017 -0.055069 0.891853
-0.145282 -0.0535231 0.891846
-0.145588 -0.0519914 0.892123
-0.145878 -0.0504532 0.892284
-0.146165 -0.0489137 0.892429
-0.146428 -0.0473663 0.892405
-0.146603 -0.0457937 0.891793
-0.146695 -0.0442005 0.890625
-0.146768 -0.042606 0.889329
-0.146822 -0.0410116 0.887919
-0.14685 -0.0394155 0.88633
-0.146906 -0.0378317 0.884944
-0.146938 -0.0362473 0.883396
-0.146996 -0.0346737 0.88203
-0.146984 -0.0330913 0.880208
-0.147008 -0.0315217 0.878624
-0.146912 -0.0299371 0.87626
-0.146825 -0.028362 0.87396
-0.146693 -0.0267882 0.871375
-0.146696 -0.0252417 0.869681
-0.146595 -0.0236881 0.867317
-0.146588 -0.0221533 0.865577
-0.146611 -0.0206275 0.86404
-0.1467 -0.0191132 0.862938
-0.146763 -0.0176005 0.861674
-0.146978 -0.0161028 0.861399
-0.14729 -0.0146118 0.861757
-0.147621 -0.0131205 0.862237
-0.148024 -0.0116303 0.863176
-0.148483 -0.0101383 0.864475
-0.148962 -0.00864232 0.865898
-0.149375 -0.00714131 0.866894
-0.149806 -0.0056368 0.868005
-0.150153 -0.00412988 0.868567
-0.150472 -0.00262201 0.868948
-0.150777 -0.00111327 0.869241
-0.151095 0.000397079 0.869618
-0.151387 0.001907 0.86982
-0.151688 0.00341836 0.870087
-0.151948 0.00492724 0.870087
-0.152218 0.00643713 0.870154
-0.152463 0.00794459 0.870062
-0.152693 0.00945018 0.869876
-0.152879 0.0109499 0.869418
-0.153031 0.0124433 0.868742
-0.153183 0.0139346 0.86807
-0.153391 0.0154323 0.867752
-0.153654 0.0169379 0.867778
-0.153963 0.0184516 0.86809
-0.154354 0.0199814 0.868916
-0.154746 0.0215141 0.86974
-0.155116 0.0230447 0.870422
-0.155441 0.0245683 0.870831
-0.155761 0.0260918 0.8712
-0.15605 0.0276092 0.871377
-0.156327 0.0291245 0.871486
-0.156564 0.0306299 0.871342
-0.15678 0.0321292 0.871072
-0.157001 0.0336293 0.870837
-0.157223 0.0351288 0.870608
-0.157439 0.0366258 0.870342
-0.157701 0.0381357 0.870354
-0.158019 0.0396632 0.870709
-0.158354 0.0411973 0.871167
-0.158622 0.0427106 0.871214
-0.158884 0.0442224 0.871233
-0.159152 0.045736 0.87128
-0.159393 0.0472401 0.871168
-0.159626 0.0487409 0.871005
-0.159949 0.0502751 0.871383
-0.16026 0.0518061 0.871692
-0.160542 0.0533263 0.871821
-0.160801 0.0548379 0.871818
-0.16101 0.0563282 0.871511
-0.161114 0.0577733 0.870586
-0.161212 0.0592125 0.869621
-0.161336 0.0606603 0.868816
-0.161483 0.0621163 0.868152
-0.161682 0.0635945 0.867802
-0.162003 0.0651287 0.868167
-0.162343 0.0666732 0.868644
-0.1627 0.0682279 0.869224
-0.163132 0.0698212 0.870234
-0.163629 0.0714511 0.87163
-0.16414 0.0730919 0.873097
-0.164746 0.0747881 0.875117
-0.165402 0.0765162 0.877418
-0.166141 0.0782966 0.880199
-0.166894 0.0800939 0.883052
-0.167669 0.0819115 0.886025
-0.168426 0.0837273 0.888878
-0.169145 0.0855305 0.891503
-0.169738 0.0872683 0.893394
-0.170296 0.08899 0.895074
-0.146081 -0.0584528 0.892084
-0.146328 -0.0568994 0.891958
-0.14656 -0.055341 0.891728
-0.146842 -0.0538009 0.891841
-0.147208 -0.0522882 0.89251
-0.147546 -0.0507642 0.892993
-0.147832 -0.0492223 0.893122
-0.148071 -0.0476661 0.892945
-0.148206 -0.0460806 0.892069
-0.148218 -0.0444643 0.89038
-0.148216 -0.04285 0.888599
-0.148241 -0.0412491 0.887011
-0.148256 -0.039651 0.885358
-0.148315 -0.0380689 0.884004
-0.148373 -0.0364915 0.88265
-0.148433 -0.034919 0.881312
-0.148421 -0.0333372 0.879508
-0.148456 -0.0317704 0.878019
-0.148368 -0.0301875 0.875731
-0.148291 -0.0286143 0.873525
-0.148183 -0.027044 0.871122
-0.148171 -0.0254954 0.869356
-0.148051 -0.023939 0.86689
-0.148023 -0.0224018 0.865035
-0.148028 -0.0208743 0.863395
-0.148104 -0.0193591 0.862223
-0.148194 -0.017849 0.861144
-0.14841 -0.0163516 0.860881
-0.148734 -0.0148617 0.861315
-0.149066 -0.0133706 0.861792
-0.149497 -0.011882 0.862906
-0.149963 -0.0103903 0.864233
-0.150459 -0.00889483 0.865751
-0.150873 -0.00739371 0.866744
-0.151306 -0.00588917 0.867844
-0.151637 -0.00438244 0.868307
-0.151971 -0.00287401 0.868775
-0.152291 -0.00136456 0.86916
-0.152625 0.000146774 0.86963
-0.152929 0.00165805 0.869913
-0.153231 0.00317003 0.870176
-0.153477 0.00467863 0.870093
-0.153721 0.00618684 0.869996
-0.153966 0.00769458 0.869901
-0.154183 0.00919924 0.869641
-0.154371 0.0106993 0.869191
-0.154551 0.0121971 0.868699
-0.154741 0.0136945 0.86827
-0.154937 0.0151917 0.867884
-0.155198 0.0166976 0.867892
-0.155493 0.0182094 0.868113
-0.155858 0.0197347 0.868766
-0.15621 0.0212595 0.869335
-0.156561 0.0227861 0.869898
-0.156883 0.0243083 0.87028
-0.157201 0.0258311 0.87064
-0.157494 0.0273489 0.870838
-0.1578 0.0288707 0.87112
-0.158068 0.0303839 0.87117
-0.1583 0.0318881 0.871003
-0.158538 0.0333933 0.87087
-0.158759 0.034893 0.870632
-0.158957 0.0363859 0.870264
-0.159203 0.0378914 0.870177
-0.159521 0.039419 0.870529
-0.159845 0.0409495 0.870915
-0.160115 0.0424637 0.870976
-0.160376 0.043975 0.870981
-0.160642 0.0454881 0.871019
-0.160868 0.0469872 0.870818
-0.161102 0.0484885 0.870663
-0.161439 0.0500279 0.871125
-0.16175 0.0515586 0.871428
-0.162029 0.0530779 0.871542
-0.162286 0.0545886 0.871524
-0.162509 0.0560851 0.871304
-0.162626 0.0575367 0.870462
-0.162756 0.058991 0.869696
-0.162897 0.060448 0.869001
-0.163059 0.061912 0.86843
-0.163256 0.0633904 0.868067
-0.163563 0.0649187 0.868346
-0.163904 0.0664643 0.868827
-0.164265 0.0680208 0.86942
-0.164685 0.0696077 0.870349
-0.165168 0.07123 0.871646
-0.165646 0.0728532 0.87291
-0.166206 0.0745229 0.874644
-0.166816 0.0762245 0.876658
-0.167512 0.0779779 0.879165
-0.168251 0.0797624 0.88191
-0.16903 0.0815774 0.884874
-0.169792 0.0833924 0.887731
-0.170529 0.0852015 0.890435
-0.171153 0.0869531 0.89249
-0.171697 0.0886641 0.894072
-0.147855 -0.0571657 0.891719
-0.148098 -0.055611 0.891565
-0.148387 -0.0540729 0.89172
-0.148858 -0.0525946 0.893081
-0.149268 -0.0510919 0.894033
-0.149538 -0.0495425 0.894053
-0.149725 -0.0479686 0.89353
-0.149805 -0.0463659 0.892302
-0.149734 -0.044726 0.890083
-0.149654 -0.0430916 0.887816
-0.149663 -0.0414873 0.886135
-0.149693 -0.0398941 0.884603
-0.149764 -0.0383157 0.883344
-0.149836 -0.0367417 0.882094
-0.149906 -0.0351719 0.88084
-0.149905 -0.0335925 0.879129
-0.149954 -0.0320281 0.877743
-0.149891 -0.0304494 0.875641
-0.149826 -0.0288776 0.873535
-0.149729 -0.0273084 0.871232
-0.149676 -0.025753 0.869217
-0.149532 -0.0241931 0.866629
-0.149481 -0.0226529 0.86464
-0.149467 -0.0211233 0.862904
-0.149532 -0.0196071 0.861673
-0.149663 -0.0181006 0.860864
-0.149894 -0.0166041 0.860699
-0.150221 -0.0151142 0.861142
-0.150566 -0.0136236 0.8617
-0.151013 -0.0121353 0.862904
-0.151483 -0.0106437 0.86424
-0.151971 -0.00914776 0.86569
-0.15237 -0.00764624 0.866579
-0.152785 -0.00614171 0.867558
-0.153101 -0.00463519 0.867912
-0.153433 -0.00312706 0.868368
-0.153756 -0.00161776 0.868769
-0.154107 -0.000105746 0.869342
-0.154414 0.00140561 0.869636
-0.154716 0.0029177 0.869903
-0.154948 0.00442542 0.869729
-0.155205 0.00593462 0.869714
-0.155464 0.00744392 0.869706
-0.155683 0.00894912 0.869457
-0.15587 0.0104497 0.869011
-0.156063 0.0119497 0.868606
-0.156253 0.0134478 0.86818
-0.156451 0.0149458 0.867805
-0.156726 0.0164544 0.867901
-0.157035 0.017969 0.868202
-0.157386 0.0194922 0.868766
-0.15771 0.0210121 0.86916
-0.158032 0.022533 0.86954
-0.158352 0.0240545 0.869905
-0.158671 0.025577 0.870262
-0.158977 0.0270978 0.870542
-0.159313 0.0286266 0.871004
-0.159608 0.0301467 0.871212
-0.159843 0.0316523 0.87106
-0.160067 0.0331545 0.870848
-0.160303 0.0346594 0.870705
-0.160489 0.0361494 0.87026
-0.16072 0.0376515 0.870091
-0.161039 0.0391794 0.870443
-0.161363 0.0407099 0.870821
-0.161605 0.0422154 0.870715
-0.161864 0.0437264 0.870712
-0.162129 0.0452391 0.87074
-0.162339 0.0467329 0.870447
-0.162557 0.0482286 0.870201
-0.162893 0.0497671 0.870652
-0.163189 0.0512916 0.870863
-0.163454 0.0528051 0.870893
-0.163709 0.0543146 0.870865
-0.163961 0.0558226 0.870817
-0.164098 0.0572828 0.870098
-0.164275 0.0587581 0.869619
-0.164448 0.0602298 0.869112
-0.16461 0.061695 0.868545
-0.164805 0.0631737 0.868173
-0.165109 0.0647013 0.868436
-0.165453 0.0662481 0.868923
-0.165819 0.067807 0.869536
-0.16624 0.0693947 0.87047
-0.166709 0.0710084 0.871668
-0.167155 0.0726149 0.872734
-0.167667 0.0742594 0.87418
-0.168229 0.075932 0.875898
-0.168859 0.0776482 0.878006
-0.169564 0.0794102 0.880532
-0.170329 0.0812125 0.88339
-0.171098 0.0830262 0.886261
-0.171864 0.0848465 0.889104
-0.172543 0.0866252 0.891447
-0.173091 0.0883354 0.893043
-0.151339 -0.0498916 0.895581
-0.151454 -0.048293 0.894586
-0.151487 -0.0466746 0.893061
-0.151345 -0.0450137 0.890403
-0.151198 -0.0433609 0.887724
-0.151162 -0.0417453 0.885775
-0.15119 -0.0401517 0.884245
-0.151246 -0.0385699 0.882902
-0.151313 -0.036995 0.881631
-0.15139 -0.0354268 0.880436
-0.151402 -0.0338502 0.878829
-0.151452 -0.0322859 0.877464
-0.151417 -0.0307119 0.875565
-0.151364 -0.0291415 0.873557
-0.151266 -0.0275713 0.87127
-0.151194 -0.0260125 0.869155
-0.151068 -0.0244542 0.86671
-0.151009 -0.0229122 0.864696
-0.150995 -0.0213816 0.862969
-0.151059 -0.0198645 0.861744
-0.151203 -0.0183582 0.861033
-0.151423 -0.0168601 0.860795
-0.151738 -0.0153687 0.86116
-0.152084 -0.0138777 0.86172
-0.152534 -0.0123891 0.862925
-0.152992 -0.0108967 0.864177
-0.153455 -0.00940014 0.865449
-0.153838 -0.00789856 0.866224
-0.154207 -0.00639433 0.866915
-0.154492 -0.00488864 0.867074
-0.154811 -0.00338176 0.867444
-0.15515 -0.00187306 0.867939
-0.155519 -0.000361381 0.86862
-0.155843 0.00115017 0.869017
-0.156147 0.00266183 0.86929
-0.156389 0.00416991 0.869181
-0.156631 0.00567762 0.869076
-0.156875 0.00718505 0.868976
-0.157107 0.00869105 0.86881
-0.157307 0.0101929 0.868448
-0.157528 0.0116961 0.868217
-0.157751 0.0131988 0.867995
-0.157981 0.0147017 0.867815
-0.158272 0.0162134 0.86801
-0.158593 0.0177308 0.868382
-0.158915 0.0192493 0.868762
-0.159224 0.0207667 0.869057
-0.159532 0.0222851 0.86935
-0.159838 0.0238039 0.869629
-0.160131 0.0253209 0.869828
-0.160437 0.0268413 0.870104
-0.160774 0.02837 0.870566
-0.161083 0.0298932 0.870858
-0.161319 0.0313992 0.870716
-0.161557 0.0329052 0.870584
-0.161795 0.0344107 0.870451
-0.161979 0.0359009 0.870006
-0.162211 0.0374035 0.869843
-0.162546 0.0389358 0.870281
-0.162869 0.0404665 0.870657
-0.163123 0.0419761 0.87062
-0.163395 0.0434915 0.87069
-0.16366 0.0450051 0.870722
-0.16387 0.0464996 0.870428
-0.164086 0.0479953 0.870173
-0.164408 0.0495284 0.870531
-0.164673 0.0510416 0.870561
-0.164936 0.0525545 0.870581
-0.165194 0.054065 0.870567
-0.16545 0.0555752 0.870547
-0.165605 0.0570436 0.869938
-0.165815 0.058533 0.869649
-0.165991 0.0600074 0.869169
-0.166152 0.0614736 0.868601
-0.166359 0.0629584 0.868302
-0.166647 0.0644794 0.86847
-0.166992 0.0660268 0.868958
-0.167358 0.0675859 0.869566
-0.16777 0.0691681 0.870431
-0.168223 0.0707742 0.871536
-0.168652 0.0723716 0.87249
-0.169131 0.0739966 0.873732
-0.169644 0.0756432 0.875156
-0.170206 0.0773195 0.876862
-0.170858 0.0790493 0.879061
-0.171603 0.0808367 0.881784
-0.172383 0.0826506 0.88469
-0.173195 0.0844912 0.88777
-0.173935 0.0863008 0.890434
-0.17452 0.0880289 0.892223
-0.153175 -0.0502503 0.897287
-0.153226 -0.0486295 0.89589
-0.153236 -0.0470019 0.894228
-0.153038 -0.0453235 0.891239
-0.152839 -0.0436553 0.88825
-0.152756 -0.0420266 0.886015
-0.152749 -0.0404239 0.884279
-0.152758 -0.0388308 0.882649
-0.152804 -0.0372515 0.881263
-0.152851 -0.0356771 0.879888
-0.152861 -0.0341005 0.878284
-0.152911 -0.0325365 0.876935
-0.152905 -0.0309677 0.87524
-0.152864 -0.0293992 0.873332
-0.15279 -0.0278323 0.87122
-0.152713 -0.0262722 0.869096
-0.152611 -0.0247163 0.866826
-0.152552 -0.0231732 0.864828
-0.152538 -0.0216417 0.863128
-0.152613 -0.0201246 0.861982
-0.152782 -0.0186194 0.861429
-0.152988 -0.0171188 0.861107
-0.153291 -0.0156256 0.861394
-0.153636 -0.0141337 0.861938
-0.154057 -0.0126431 0.862952
-0.15449 -0.0111495 0.864031
-0.154923 -0.0096523 0.865107
-0.155302 -0.00815077 0.86585
-0.155641 -0.0066468 0.866349
-0.15591 -0.00514173 0.866409
-0.15623 -0.00363543 0.866782
-0.156585 -0.00212687 0.867372
-0.156945 -0.000616112 0.867989
-0.15727 0.000894883 0.868387
-0.157572 0.00240583 0.868644
-0.157799 0.00391243 0.868447
-0.158026 0.00541828 0.868251
-0.158282 0.00692621 0.868232
-0.158528 0.00843303 0.868153
-0.158757 0.00993779 0.867969
-0.15901 0.0114447 0.867928
-0.159266 0.0129517 0.867907
-0.159514 0.0144579 0.867844
-0.15981 0.0159709 0.868063
-0.160117 0.0174864 0.868347
-0.160423 0.0190025 0.868623
-0.160714 0.020517 0.868812
-0.161005 0.0220321 0.869001
-0.161297 0.023548 0.869193
-0.16159 0.0250646 0.869389
-0.161885 0.0265825 0.869599
-0.162209 0.0281076 0.869979
-0.162506 0.0296273 0.870194
-0.162753 0.0311356 0.870118
-0.162992 0.0326416 0.869995
-0.163242 0.0341502 0.86994
-0.163442 0.0356446 0.869585
-0.16369 0.0371518 0.86952
-0.164023 0.0386834 0.869944
-0.164347 0.040214 0.87032
-0.164615 0.0417282 0.870368
-0.164906 0.0432496 0.870544
-0.165172 0.0447638 0.870582
-0.165368 0.0462543 0.870212
-0.165566 0.0477442 0.869854
-0.165855 0.0492653 0.870019
-0.166088 0.0507663 0.869862
-0.166336 0.0522729 0.869795
-0.166609 0.0537888 0.869871
-0.166883 0.0553054 0.869953
-0.167071 0.0567871 0.869539
-0.167312 0.05829 0.869433
-0.167517 0.0597773 0.869125
-0.167693 0.0612509 0.868647
-0.167917 0.062744 0.868443
-0.168189 0.0642579 0.868513
-0.168532 0.0658049 0.86899
-0.168898 0.0673636 0.86959
-0.169296 0.0689399 0.87037
-0.169736 0.0705383 0.871383
-0.170163 0.0721339 0.872322
-0.170611 0.073743 0.873378
-0.171077 0.0753633 0.874528
-0.171574 0.0770044 0.875849
-0.172172 0.0787021 0.877726
-0.172896 0.0804728 0.880309
-0.173697 0.0822932 0.883307
-0.174586 0.0841712 0.886786
-0.175423 0.0860308 0.889963
-0.176065 0.0877895 0.892051
-0.15503 -0.050614 0.899071
-0.15496 -0.0489543 0.896914
-0.154916 -0.0473091 0.894922
-0.154681 -0.0456194 0.891728
-0.154448 -0.0439415 0.888556
-0.154369 -0.0423127 0.886369
-0.154342 -0.0407041 0.884522
-0.154315 -0.0391021 0.882684
-0.154326 -0.0375145 0.881088
-0.154327 -0.0359305 0.879437
-0.154305 -0.0343479 0.877653
-0.154354 -0.0327843 0.876312
-0.154359 -0.0312179 0.874704
-0.154316 -0.0296492 0.872802
-0.154267 -0.0280863 0.870869
-0.154189 -0.026526 0.868763
-0.154116 -0.0249736 0.866695
-0.154075 -0.023432 0.864833
-0.154077 -0.0219015 0.863245
-0.154176 -0.0203858 0.862263
-0.154369 -0.0188814 0.861863
-0.154574 -0.0173794 0.861535
-0.154863 -0.015884 0.861728
-0.155204 -0.0143907 0.862244
-0.155581 -0.0128973 0.86297
-0.155969 -0.0114019 0.863769
-0.156372 -0.00990398 0.864655
-0.156751 -0.0084029 0.865389
-0.157077 -0.00689908 0.865798
-0.157376 -0.00539421 0.866043
-0.15771 -0.00388775 0.866496
-0.158068 -0.00237922 0.867098
-0.158427 -0.000868612 0.867699
-0.158737 0.000641622 0.868007
-0.159008 0.00215069 0.868075
-0.159218 0.00365582 0.867776
-0.159429 0.00516009 0.867488
-0.159689 0.0066676 0.867492
-0.15995 0.00817532 0.867502
-0.160211 0.009683 0.867513
-0.160498 0.0111938 0.867679
-0.160788 0.0127054 0.867858
-0.161054 0.0142147 0.867902
-0.161349 0.015728 0.868112
-0.161641 0.0172416 0.868305
-0.16193 0.0187554 0.868477
-0.162205 0.0202672 0.868567
-0.16248 0.0217794 0.86866
-0.162771 0.0232949 0.86884
-0.163062 0.024811 0.869024
-0.163369 0.0263315 0.869306
-0.16368 0.0278534 0.869602
-0.163977 0.0293731 0.869821
-0.164224 0.0308813 0.869743
-0.164463 0.0323873 0.869622
-0.1647 0.0338924 0.869488
-0.164913 0.0353907 0.869218
-0.165174 0.0369012 0.869223
-0.165511 0.0384342 0.869671
-0.165826 0.0399617 0.869988
-0.166109 0.0414804 0.870119
-0.166401 0.0430027 0.870307
-0.166658 0.0445138 0.870288
-0.166855 0.046005 0.869927
-0.167064 0.0474992 0.869637
-0.16732 0.0490086 0.86961
-0.167546 0.0505075 0.869419
-0.167792 0.052013 0.869338
-0.168066 0.053529 0.869419
-0.168343 0.0550464 0.869517
-0.168558 0.0565397 0.869265
-0.168813 0.0580483 0.869238
-0.169037 0.0595436 0.869035
-0.169231 0.0610257 0.868662
-0.169471 0.0625268 0.868553
-0.169745 0.0640423 0.868632
-0.170087 0.0655888 0.869094
-0.170451 0.0671469 0.869682
-0.170834 0.0687158 0.87037
-0.171259 0.0703066 0.871293
-0.171672 0.0718946 0.872139
-0.172106 0.0734961 0.873104
-0.172543 0.075101 0.874084
-0.172994 0.0767168 0.875134
-0.173555 0.0783924 0.876796
-0.174277 0.0801585 0.87934
-0.175098 0.0819856 0.88242
-0.176018 0.0838754 0.886037
-0.17693 0.0857726 0.889602
-0.17763 0.0875608 0.891987
-0.156604 -0.0508916 0.899031
-0.156537 -0.0492323 0.896913
-0.156495 -0.0475875 0.894955
-0.156259 -0.0458973 0.891787
-0.156037 -0.0442219 0.888718
-0.155941 -0.0425885 0.88645
-0.155894 -0.0409746 0.884497
-0.155845 -0.039367 0.882538
-0.155835 -0.0377749 0.880833
-0.155816 -0.0361867 0.879074
-0.155789 -0.0346029 0.877269
-0.155831 -0.0330382 0.875904
-0.155832 -0.0314712 0.874287
-0.155787 -0.0299024 0.872397
-0.155738 -0.0283394 0.87048
-0.155687 -0.0267828 0.868562
-0.155642 -0.0252336 0.866692
-0.155631 -0.0236948 0.865031
-0.155661 -0.0221662 0.863631
-0.155788 -0.0206518 0.862828
-0.155982 -0.0191459 0.862438
-0.156189 -0.0176425 0.862124
-0.156463 -0.0161444 0.862224
-0.156787 -0.0146489 0.862629
-0.157118 -0.0131523 0.863065
-0.157487 -0.0116555 0.863739
-0.157874 -0.0101569 0.864518
-0.158245 -0.00865554 0.865195
-0.158577 -0.00715174 0.865638
-0.158908 -0.0056463 0.86607
-0.15923 -0.00413962 0.86645
-0.159574 -0.00263109 0.866957
-0.15993 -0.00112032 0.867539
-0.160209 0.000388597 0.867651
-0.160446 0.00189576 0.867519
-0.160653 0.00340055 0.867207
-0.160848 0.00490335 0.86683
-0.161109 0.00641041 0.866835
-0.161403 0.00792079 0.867043
-0.1617 0.00943208 0.867267
-0.162008 0.0109453 0.867552
-0.162328 0.012461 0.86791
-0.162606 0.0139724 0.868021
-0.162899 0.0154862 0.868213
-0.163189 0.0170002 0.868393
-0.163463 0.0185121 0.868477
-0.163723 0.0200219 0.868477
-0.163982 0.0215316 0.868477
-0.164256 0.0230441 0.86856
-0.164546 0.0245601 0.868735
-0.164869 0.0260835 0.869099
-0.165164 0.0276023 0.869308
-0.165458 0.0291212 0.869502
-0.165703 0.030629 0.869414
-0.165928 0.0321316 0.869214
-0.166167 0.0336373 0.869093
-0.166412 0.0351441 0.869006
-0.16669 0.0366597 0.869111
-0.16703 0.0381935 0.869573
-0.167358 0.0397251 0.86996
-0.167644 0.0412454 0.870111
-0.167938 0.0427683 0.870301
-0.168182 0.0442758 0.870207
-0.168377 0.0457669 0.869838
-0.168569 0.0472561 0.869456
-0.168789 0.0487536 0.86923
-0.169 0.0502471 0.868951
-0.169243 0.0517515 0.868856
-0.169518 0.0532676 0.868942
-0.169794 0.0547842 0.869032
-0.170024 0.0562834 0.868866
-0.170281 0.0577927 0.868852
-0.170521 0.0592951 0.868742
-0.170734 0.0607855 0.868478
-0.170977 0.0622883 0.868388
-0.171268 0.0638114 0.86856
-0.17161 0.0653582 0.86902
-0.17196 0.0669096 0.86952
-0.172342 0.0684776 0.870197
-0.172769 0.0700682 0.871116
-0.173167 0.0716486 0.871875
-0.173602 0.0732489 0.872836
-0.174039 0.0748538 0.873809
-0.174476 0.0764618 0.874775
-0.175008 0.0781203 0.876257
-0.175748 0.0798924 0.878878
-0.176592 0.0817277 0.882052
-0.177538 0.083628 0.885782
-0.17848 0.0855364 0.889471
-0.179236 0.0873543 0.892142
-0.15809 -0.0511425 0.898433
-0.158042 -0.0494897 0.896459
-0.158025 -0.0478523 0.894678
-0.157805 -0.0461668 0.891643
-0.157627 -0.0445026 0.888875
-0.157548 -0.0428726 0.886735
-0.157498 -0.0412574 0.884789
-0.157433 -0.0396452 0.882748
-0.157404 -0.0380478 0.880937
-0.157349 -0.0364517 0.878981
-0.157287 -0.0348609 0.87698
-0.157295 -0.0332899 0.875418
-0.157264 -0.0317175 0.873622
-0.157216 -0.0301486 0.871728
-0.157164 -0.0285857 0.869821
-0.157155 -0.0270354 0.868179
-0.157151 -0.0254914 0.866572
-0.157194 -0.0239586 0.865262
-0.157267 -0.0224334 0.864136
-0.15744 -0.020922 0.863617
-0.157638 -0.0194144 0.86325
-0.157832 -0.017908 0.862865
-0.158078 -0.0164061 0.862787
-0.15836 -0.0149067 0.862931
-0.158629 -0.0134062 0.863
-0.158981 -0.0119085 0.863561
-0.159369 -0.0104099 0.864339
-0.159758 -0.0089086 0.865113
-0.160113 -0.00740453 0.86569
-0.160476 -0.00589847 0.866309
-0.160786 -0.00439111 0.866607
-0.161113 -0.00288226 0.86701
-0.161438 -0.0013721 0.867399
-0.161684 0.00013581 0.867318
-0.161891 0.00164141 0.867009
-0.162092 0.00314564 0.866668
-0.162272 0.00464722 0.866201
-0.162533 0.00615387 0.866211
-0.162858 0.00766662 0.866601
-0.163189 0.00918102 0.867016
-0.163515 0.0106964 0.867409
-0.163851 0.0122143 0.867853
-0.164126 0.0137257 0.867946
-0.164416 0.0152394 0.86812
-0.164691 0.0167514 0.86821
-0.164951 0.0182614 0.868212
-0.165211 0.0197712 0.86821
-0.165469 0.021281 0.868204
-0.165714 0.0227881 0.86812
-0.16599 0.024301 0.868211
-0.166312 0.025824 0.86857
-0.166594 0.0273391 0.868695
-0.166873 0.0288542 0.868805
-0.167128 0.030364 0.868779
-0.167381 0.0318731 0.868738
-0.167609 0.033376 0.868559
-0.167887 0.0348912 0.868661
-0.168198 0.0364157 0.86895
-0.16854 0.0379501 0.869419
-0.168855 0.0394778 0.86973
-0.169151 0.0410012 0.869934
-0.169426 0.0425184 0.870014
-0.169653 0.0440209 0.869829
-0.169845 0.0455111 0.869442
-0.170036 0.0470001 0.869057
-0.170242 0.0484928 0.868752
-0.170437 0.049981 0.868392
-0.170664 0.0514793 0.868209
-0.170923 0.0529889 0.868203
-0.171183 0.054499 0.868206
-0.171429 0.0560037 0.868131
-0.171703 0.0575191 0.868212
-0.171962 0.0590286 0.868205
-0.172206 0.0605323 0.868121
-0.172481 0.0620484 0.868205
-0.17279 0.0635797 0.868478
-0.173136 0.0651277 0.868951
-0.173488 0.0666802 0.869457
-0.173869 0.0682474 0.870119
-0.174296 0.0698378 0.871036
-0.174696 0.0714189 0.871798
-0.175134 0.0730198 0.872763
-0.175587 0.074632 0.873811
-0.176025 0.0762389 0.874774
-0.176529 0.0778829 0.876092
-0.177309 0.0796735 0.878901
-0.178194 0.0815268 0.882275
-0.179155 0.0834318 0.886046
-0.180105 0.0853417 0.889746
-0.180892 0.0871736 0.892556
-0.159474 -0.0513627 0.897208
-0.159439 -0.0497154 0.895331
-0.15945 -0.0480878 0.893749
-0.159307 -0.0464242 0.89122
-0.159175 -0.0447725 0.888768
-0.159155 -0.0431569 0.887011
-0.159136 -0.0415477 0.88527
-0.159068 -0.0399337 0.883233
-0.159022 -0.0383314 0.881338
-0.158934 -0.0367272 0.879195
-0.158837 -0.0351287 0.877001
-0.158812 -0.0335511 0.875257
-0.158759 -0.0319747 0.873348
-0.158693 -0.0304027 0.871363
-0.158651 -0.0288412 0.869534
-0.158655 -0.0272925 0.867988
-0.158664 -0.0257499 0.86648
-0.15874 -0.0242203 0.865373
-0.158842 -0.0226975 0.864435
-0.159034 -0.0211867 0.864033
-0.159247 -0.0196792 0.863762
-0.159453 -0.018172 0.863448
-0.159697 -0.0166685 0.86336
-0.159963 -0.0151667 0.863408
-0.160204 -0.0136634 0.863304
-0.160539 -0.012164 0.863758
-0.160928 -0.0106647 0.864532
-0.161324 -0.00916279 0.86534
-0.161698 -0.00765803 0.866017
-0.162076 -0.00615097 0.866722
-0.162399 -0.0046422 0.867092
-0.162694 -0.00313277 0.867305
-0.162974 -0.00162307 0.867425
-0.163187 -0.000115833 0.867151
-0.163376 0.00138922 0.86674
-0.163534 0.00289112 0.866149
-0.163713 0.00439247 0.865678
-0.163986 0.00589985 0.865762
-0.164327 0.00741357 0.866239
-0.164675 0.00892956 0.866749
-0.165018 0.0104468 0.867235
-0.165355 0.0119648 0.867679
-0.165629 0.0134764 0.867763
-0.16592 0.0149904 0.867944
-0.166198 0.0165031 0.868048
-0.166475 0.0180162 0.86815
-0.166735 0.0195266 0.86815
-0.166989 0.0210361 0.86812
-0.167217 0.0225405 0.867937
-0.167477 0.0240506 0.867939
-0.167787 0.0255709 0.868225
-0.168071 0.0270865 0.868362
-0.168349 0.0286014 0.868466
-0.168604 0.0301111 0.868435
-0.168871 0.0316238 0.868478
-0.169117 0.0331311 0.868395
-0.169414 0.0346517 0.868608
-0.16973 0.0361779 0.868924
-0.170073 0.0377125 0.869387
-0.170368 0.0392351 0.869585
-0.17063 0.0407483 0.869594
-0.170872 0.0422555 0.86949
-0.171077 0.0437512 0.869187
-0.171252 0.0452361 0.868712
-0.171442 0.0467241 0.86832
-0.171649 0.0482171 0.868031
-0.171845 0.049705 0.867675
-0.172055 0.0511971 0.867402
-0.17231 0.0527046 0.867378
-0.17257 0.0542138 0.867378
-0.172834 0.0557245 0.867402
-0.173128 0.0572472 0.867591
-0.173434 0.0587753 0.867848
-0.173711 0.0602919 0.867939
-0.174004 0.061816 0.868121
-0.174332 0.0633554 0.868495
-0.174679 0.0649044 0.868973
-0.175031 0.0664563 0.869472
-0.175413 0.0680242 0.870136
-0.175844 0.0696162 0.871059
-0.176249 0.0711993 0.871843
-0.176703 0.0728075 0.872887
-0.177158 0.0744204 0.873936
-0.177614 0.0760364 0.874983
-0.178154 0.0776975 0.876479
-0.178979 0.0795086 0.879506
-0.179892 0.0813742 0.882999
-0.180863 0.0832816 0.886787
-0.181798 0.085181 0.890368
-0.182553 0.0869931 0.89298
-0.160883 -0.0515909 0.896157
-0.160803 -0.0499323 0.894027
-0.160819 -0.0483076 0.892486
-0.160729 -0.0466602 0.890307
-0.160656 -0.0450249 0.888245
-0.160715 -0.0434294 0.88699
-0.160742 -0.0418305 0.88554
-0.160701 -0.0402215 0.883686
-0.160653 -0.0386175 0.881797
-0.16056 -0.0370111 0.879645
-0.16044 -0.0354069 0.877339
-0.160395 -0.0338243 0.875485
-0.160309 -0.0322411 0.873396
-0.160222 -0.0306651 0.871308
-0.160174 -0.0291022 0.869461
-0.160176 -0.0275526 0.86792
-0.160188 -0.0260097 0.866442
-0.160308 -0.0244848 0.865612
-0.160458 -0.0229661 0.864965
-0.160667 -0.0214555 0.864669
-0.16088 -0.0199463 0.864398
-0.161095 -0.0184381 0.864136
-0.161322 -0.0169316 0.863946
-0.161558 -0.0154263 0.863814
-0.161784 -0.013921 0.863624
-0.162119 -0.0124206 0.864071
-0.162494 -0.0109199 0.864756
-0.162877 -0.00941706 0.865481
-0.163252 -0.00791162 0.86616
-0.163647 -0.0064039 0.866946
-0.163968 -0.0048943 0.867305
-0.164263 -0.00338391 0.86751
-0.16454 -0.00187352 0.867611
-0.164735 -0.000365895 0.867234
-0.164892 0.00113854 0.866643
-0.165032 0.00263993 0.865956
-0.16521 0.00414168 0.865483
-0.16547 0.00564833 0.865489
-0.165812 0.00716201 0.865965
-0.166159 0.00867795 0.866469
-0.166499 0.0101948 0.866934
-0.166825 0.0117114 0.867309
-0.167101 0.0132231 0.867406
-0.167401 0.0147382 0.867633
-0.167722 0.0162572 0.867981
-0.168022 0.017774 0.86821
-0.168293 0.0192871 0.868274
-0.168537 0.0207955 0.868186
-0.16877 0.0223017 0.868032
-0.169012 0.0238093 0.867934
-0.169322 0.0253298 0.868214
-0.169607 0.0268462 0.868354
-0.169903 0.0283655 0.86856
-0.170159 0.0298763 0.868538
-0.170429 0.0313903 0.868592
-0.170676 0.0328987 0.868516
-0.170976 0.0344206 0.868741
-0.17129 0.035947 0.869044
-0.171618 0.0374778 0.869417
-0.171896 0.0389959 0.869517
-0.172138 0.0405041 0.869418
-0.172361 0.042006 0.86921
-0.172533 0.0434917 0.868725
-0.172706 0.0449761 0.868242
-0.172895 0.0464643 0.867855
-0.173106 0.0479582 0.867582
-0.1733 0.049446 0.867225
-0.173523 0.0509424 0.867021
-0.173775 0.0524487 0.86698
-0.17405 0.0539636 0.867064
-0.174333 0.0554817 0.867195
-0.174647 0.0570122 0.867492
-0.174974 0.0585484 0.867855
-0.175267 0.0600726 0.868039
-0.175579 0.0616048 0.868321
-0.175926 0.0631526 0.86879
-0.176277 0.0647037 0.869284
-0.176627 0.0662555 0.869768
-0.177025 0.0678309 0.870505
-0.177442 0.069417 0.871351
-0.177853 0.0710023 0.872153
-0.178313 0.0726135 0.87322
-0.178786 0.0742344 0.874355
-0.179277 0.0758676 0.875577
-0.179859 0.0775498 0.877284
-0.180712 0.0793733 0.880429
-0.181634 0.0812424 0.883936
-0.182576 0.0831314 0.887536
-0.183444 0.0849929 0.890725
-0.185129 0.0873029 0.898239
-0.162182 -0.0501534 0.892823
-0.16222 -0.0485368 0.89144
-0.162204 -0.0469105 0.88973
-0.162198 -0.045293 0.888089
-0.162295 -0.0437064 0.887074
-0.162363 -0.0421168 0.885893
-0.162353 -0.0405137 0.884242
-0.162319 -0.0389111 0.882453
-0.162236 -0.037305 0.880379
-0.162111 -0.0356979 0.87806
-0.162014 -0.0341042 0.875923
-0.161892 -0.0325134 0.873638
-0.161769 -0.0309304 0.871352
-0.161703 -0.0293641 0.869419
-0.161716 -0.0278154 0.867955
-0.161758 -0.0262757 0.866673
-0.16191 -0.0247535 0.866035
-0.162106 -0.0232385 0.865666
-0.16233 -0.0217275 0.865458
-0.162543 -0.0202162 0.865182
-0.162753 -0.0187058 0.8649
-0.162964 -0.0171962 0.864614
-0.163172 -0.0156875 0.864321
-0.163383 -0.0141799 0.86404
-0.163716 -0.0126782 0.864471
-0.164076 -0.011176 0.865059
-0.164443 -0.00967173 0.865684
-0.164832 -0.00816567 0.866432
-0.165227 -0.0066571 0.86722
-0.165552 -0.00514657 0.867593
-0.165865 -0.00363489 0.867897
-0.166143 -0.00212317 0.868005
-0.16632 -0.000614928 0.86753
-0.166471 0.000890507 0.866907
-0.166594 0.00239231 0.866125
-0.166756 0.00389413 0.865569
-0.167003 0.00540034 0.865495
-0.16733 0.00691328 0.865881
-0.16766 0.0084278 0.866282
-0.167984 0.00994295 0.866649
-0.168295 0.0114578 0.86694
-0.168574 0.0129699 0.867049
-0.168926 0.0144918 0.86757
-0.169616 0.0175389 0.868533
-0.169894 0.0190539 0.868632
-0.170131 0.0205624 0.8685
-0.170339 0.0220654 0.868212
-0.170585 0.0235744 0.868131
-0.170878 0.0250925 0.868316
-0.171164 0.0266096 0.868457
-0.171463 0.0281301 0.868675
-0.171722 0.0296424 0.86867
-0.171994 0.0311576 0.868734
-0.172238 0.0326664 0.868645
-0.172536 0.0341883 0.868855
-0.172833 0.0357108 0.86906
-0.173143 0.0372372 0.869333
-0.173419 0.038755 0.869417
-0.173646 0.0402593 0.869234
-0.173869 0.0417617 0.86903
-0.174041 0.043248 0.868547
-0.174212 0.0447326 0.868062
-0.174385 0.0462162 0.867588
-0.174594 0.04771 0.867308
-0.174772 0.0491928 0.866868
-0.174995 0.0506892 0.866665
-0.175262 0.0522011 0.866707
-0.175555 0.0537224 0.866887
-0.175873 0.0552539 0.867205
-0.176224 0.0567985 0.867696
-0.176586 0.0583492 0.868248
-0.176899 0.0598822 0.868533
-0.177247 0.0614299 0.869002
-0.177581 0.0629736 0.869397
-0.177915 0.0645187 0.869794
-0.178247 0.0660638 0.870178
-0.178643 0.0676385 0.870899
-0.179049 0.0692196 0.87167
-0.179478 0.0708137 0.872566
-0.179942 0.0724272 0.873643
-0.18045 0.0740644 0.874952
-0.180982 0.0757179 0.876377
-0.181591 0.0774125 0.878214
-0.182441 0.0792335 0.881309
-0.183351 0.0810936 0.884719
-0.184234 0.0829514 0.887972
-0.185029 0.0847718 0.890751
-0.186746 0.0870904 0.898365
-0.163702 -0.0471672 0.889297
-0.163753 -0.0455645 0.888012
-0.163896 -0.0439889 0.887282
-0.16401 -0.0424088 0.886378
-0.164031 -0.0408114 0.88493
-0.163999 -0.0392077 0.883173
-0.163931 -0.0376026 0.881204
-0.163797 -0.035992 0.878857
-0.163664 -0.0343896 0.876522
-0.163506 -0.0327909 0.874044
-0.16336 -0.0312031 0.871654
-0.163274 -0.0296323 0.869618
-0.16327 -0.0280803 0.868067
-0.163326 -0.0265413 0.866873
-0.163492 -0.02502 0.86633
-0.163706 -0.0235058 0.866064
-0.163948 -0.0219952 0.865959
-0.164174 -0.0204837 0.865768
-0.164386 -0.0189716 0.865491
-0.164594 -0.0174603 0.865194
-0.164802 -0.0159498 0.864898
-0.164997 -0.0144398 0.864529
-0.165299 -0.0129355 0.864778
-0.165626 -0.0114311 0.865167
-0.165975 -0.00992591 0.865682
-0.166335 -0.00841914 0.866261
-0.166749 -0.00691063 0.867142
-0.167109 -0.00539933 0.867714
-0.167474 -0.00388608 0.868313
-0.167773 -0.00237265 0.868534
-0.167996 -0.000861105 0.868322
-0.16816 0.000647041 0.867777
-0.168278 0.00215093 0.866975
-0.168423 0.00365391 0.866325
-0.168653 0.00516079 0.866155
-0.168949 0.00667267 0.866362
-0.169246 0.00818535 0.866574
-0.169559 0.00970038 0.866874
-0.169846 0.0112134 0.867026
-0.171547 0.0188281 0.869263
-0.171758 0.0203339 0.868987
-0.171976 0.0218401 0.868752
-0.172199 0.0233465 0.868544
-0.172477 0.0248628 0.868645
-0.172762 0.0263808 0.86878
-0.173075 0.0279053 0.86907
-0.17332 0.0294157 0.868987
-0.173606 0.0309352 0.869129
-0.173834 0.0324414 0.868953
-0.174096 0.0339555 0.868963
-0.174359 0.0354697 0.868976
-0.17465 0.0369915 0.869143
-0.174895 0.0385011 0.869059
-0.175123 0.0400059 0.868885
-0.175349 0.0415092 0.868696
-0.175523 0.0429967 0.868231
-0.175694 0.0444815 0.867746
-0.175863 0.0459642 0.867255
-0.176068 0.0474572 0.86696
-0.176246 0.0489401 0.866521
-0.176471 0.0504377 0.866332
-0.176758 0.0519566 0.866481
-0.177086 0.0534906 0.866848
-0.177441 0.0550355 0.867357
-0.17783 0.056595 0.868049
-0.178229 0.0581602 0.868787
-0.17856 0.0597014 0.869164
-0.178923 0.0612567 0.869713
-0.179258 0.062802 0.870109
-0.179595 0.0643493 0.870511
-0.179926 0.0658954 0.870883
-0.18032 0.0674703 0.871589
-0.180708 0.0690443 0.872259
-0.181141 0.070641 0.873161
-0.181606 0.0722553 0.874232
-0.182136 0.0739028 0.875644
-0.18269 0.0755665 0.877176
-0.183346 0.0772835 0.879233
-0.184188 0.0790998 0.882261
-0.185061 0.08094 0.885444
-0.185868 0.0827564 0.888266
-0.186601 0.0845438 0.890701
-0.16516 -0.0474131 0.888623
-0.165254 -0.0458221 0.887607
-0.165428 -0.0442541 0.887065
-0.165578 -0.0426823 0.886384
-0.165631 -0.0410915 0.88514
-0.165634 -0.0394942 0.883601
-0.165596 -0.0378941 0.881829
-0.165474 -0.036284 0.879572
-0.165318 -0.0346757 0.877124
-0.165149 -0.0330735 0.874607
-0.164967 -0.031478 0.872028
-0.164862 -0.0299031 0.8699
-0.164839 -0.0283472 0.868257
-0.16489 -0.0268067 0.867048
-0.165042 -0.0252827 0.866425
-0.165256 -0.0237676 0.866161
-0.1655 -0.0222565 0.866069
-0.165728 -0.0207443 0.86589
-0.165956 -0.0192327 0.865708
-0.166181 -0.0177215 0.865511
-0.166405 -0.0162109 0.865307
-0.166612 -0.0147001 0.86501
-0.166913 -0.0131944 0.865244
-0.167222 -0.0116881 0.86553
-0.167554 -0.0101814 0.865943
-0.167915 -0.00867381 0.866514
-0.168334 -0.00716444 0.867418
-0.168731 -0.00565212 0.868192
-0.169134 -0.0041372 0.868997
-0.169472 -0.00262099 0.869434
-0.169731 -0.00110608 0.869426
-0.169913 0.000405483 0.868986
-0.170017 0.00191158 0.868108
-0.170142 0.0034159 0.867352
-0.17035 0.00492382 0.867063
-0.170584 0.00643266 0.866919
-0.170835 0.00794256 0.866865
-0.171127 0.00945647 0.867047
-0.171392 0.010968 0.867076
-0.173409 0.0201084 0.869591
-0.173639 0.0216184 0.869421
-0.173866 0.0231275 0.869241
-0.174129 0.0246425 0.869252
-0.174413 0.0261619 0.86938
-0.174727 0.0276878 0.869671
-0.174953 0.0291958 0.869485
-0.175206 0.0307091 0.869444
-0.175399 0.0322082 0.869074
-0.175625 0.0337145 0.868891
-0.175854 0.0352204 0.868718
-0.176128 0.0367378 0.868792
-0.176371 0.0382471 0.868702
-0.176616 0.0397566 0.868618
-0.17686 0.0412655 0.868528
-0.177052 0.0427588 0.868162
-0.177239 0.0442493 0.867768
-0.177406 0.0457325 0.867271
-0.177608 0.0472252 0.866959
-0.1778 0.048714 0.866602
-0.178044 0.0502187 0.866514
-0.178353 0.0517458 0.866779
-0.178718 0.0532938 0.867338
-0.179095 0.0548477 0.867958
-0.179488 0.0564092 0.86866
-0.179907 0.0579831 0.869498
-0.180256 0.0595326 0.869965
-0.180622 0.0610902 0.87052
-0.180957 0.0626374 0.870914
-0.181293 0.0641857 0.871309
-0.181606 0.0657256 0.87158
-0.181986 0.067295 0.872201
-0.182358 0.0688626 0.872779
-0.182774 0.0704531 0.873586
-0.183239 0.0720673 0.874648
-0.183772 0.0737154 0.876059
-0.184366 0.0753976 0.87778
-0.185098 0.077151 0.880216
-0.185931 0.0789608 0.883167
-0.186769 0.0807827 0.886138
-0.18753 0.0825745 0.888701
-0.189135 0.0848045 0.895606
-0.166574 -0.0476476 0.8877
-0.166753 -0.0460792 0.887193
-0.166945 -0.0445156 0.88676
-0.167116 -0.0429488 0.886209
-0.167214 -0.0413678 0.885238
-0.16725 -0.0397768 0.883906
-0.167216 -0.0381763 0.88217
-0.167121 -0.0365704 0.880094
-0.166975 -0.0349622 0.877725
-0.166771 -0.0333525 0.875034
-0.166583 -0.0317546 0.872441
-0.166471 -0.0301772 0.870294
-0.166429 -0.0286173 0.868557
-0.16646 -0.0270729 0.867243
-0.166623 -0.0255491 0.866684
-0.166836 -0.0240329 0.866418
-0.167096 -0.0225223 0.866418
-0.167341 -0.0210106 0.866334
-0.167585 -0.0194988 0.866245
-0.167813 -0.0179863 0.866063
-0.168039 -0.0164743 0.865874
-0.168249 -0.014962 0.865594
-0.16855 -0.0134548 0.86583
-0.168859 -0.011947 0.866106
-0.169191 -0.0104387 0.866515
-0.169568 -0.00892986 0.86717
-0.170006 -0.00741922 0.86817
-0.170407 -0.00590524 0.868957
-0.170832 -0.00438831 0.869874
-0.171203 -0.00286955 0.87049
-0.171486 -0.0013515 0.870611
-0.171691 0.000163833 0.8703
-0.171813 0.00167389 0.869531
-0.171934 0.00318131 0.868755
-0.17215 0.00469276 0.868511
-0.172392 0.00620537 0.86841
-0.172605 0.00771505 0.868146
-0.172898 0.00923164 0.868325
-0.17318 0.0107477 0.868448
-0.173581 0.0122778 0.86922
-0.175035 0.0184008 0.871464
-0.175119 0.0198915 0.870498
-0.17536 0.0214054 0.870389
-0.175587 0.0229166 0.870203
-0.175851 0.024434 0.87022
-0.176103 0.0259493 0.870174
-0.176382 0.0274698 0.87027
-0.176558 0.0289688 0.869815
-0.17676 0.0304719 0.869495
-0.176914 0.0319629 0.868921
-0.177122 0.0334653 0.868641
-0.177331 0.0349668 0.868366
-0.177605 0.036484 0.868437
-0.177848 0.0379932 0.868344
-0.178108 0.039507 0.868344
-0.178384 0.0410252 0.868428
-0.178596 0.0425249 0.868168
-0.178801 0.0440219 0.867876
-0.179 0.045516 0.86755
-0.179219 0.0470153 0.86733
-0.179413 0.0485059 0.866984
-0.17969 0.0500231 0.867072
-0.180035 0.0515638 0.867522
-0.180422 0.0531204 0.868187
-0.180802 0.054677 0.868819
-0.181196 0.0562405 0.86952
-0.181598 0.0578092 0.870262
-0.181931 0.0593539 0.870639
-0.182283 0.060907 0.871114
-0.182621 0.062456 0.871512
-0.182958 0.064006 0.871907
-0.183272 0.0655482 0.872183
-0.183653 0.0671184 0.872803
-0.184027 0.0686888 0.873382
-0.184442 0.0702783 0.87418
-0.184907 0.0718926 0.87523
-0.185459 0.0735506 0.876723
-0.186076 0.0752429 0.878547
-0.186816 0.0769989 0.881002
-0.18764 0.0788033 0.883875
-0.188449 0.080609 0.886668
-0.189157 0.0823735 0.888937
-0.168251 -0.0463362 0.886773
-0.168439 -0.0447717 0.886322
-0.16863 -0.0432098 0.885893
-0.168768 -0.0416374 0.885157
-0.168851 -0.0400561 0.88411
-0.168849 -0.0384612 0.882576
-0.168802 -0.0368631 0.880792
-0.168668 -0.0352555 0.878518
-0.16846 -0.0336429 0.875825
-0.168253 -0.0320399 0.873145
-0.168137 -0.03046 0.870994
-0.168059 -0.028893 0.86907
-0.16807 -0.0273443 0.867652
-0.168214 -0.0258169 0.866992
-0.16841 -0.0242976 0.866629
-0.168655 -0.0227846 0.866545
-0.168915 -0.0212733 0.866545
-0.169175 -0.019762 0.866545
-0.16942 -0.0182496 0.866462
-0.169664 -0.0167373 0.866373
-0.169891 -0.0152245 0.866191
-0.170181 -0.0137151 0.866358
-0.170478 -0.0122054 0.866564
-0.170811 -0.010696 0.86697
-0.171205 -0.00918627 0.867717
-0.171648 -0.00767428 0.868734
-0.172067 -0.00615902 0.869614
-0.172503 -0.00464049 0.870584
-0.17289 -0.00311984 0.871275
-0.173204 -0.00159891 0.871569
-0.173448 -7.98014e-05 0.87147
-0.173605 0.00143483 0.870899
-0.173756 0.00294715 0.87029
-0.173987 0.00446286 0.870129
-0.174231 0.00597888 0.870033
-0.174515 0.00749807 0.87016
-0.176801 0.0196686 0.87123
-0.177036 0.0211833 0.871087
-0.177267 0.0226972 0.870924
-0.177529 0.0242161 0.87093
-0.177778 0.0257326 0.870867
-0.178025 0.0272482 0.870789
-0.178163 0.0287408 0.870128
-0.17834 0.0302399 0.869683
-0.178456 0.0317237 0.868911
-0.178629 0.0332183 0.868443
-0.178822 0.0347165 0.868086
-0.179097 0.0362339 0.86816
-0.179324 0.0377393 0.867986
-0.1796 0.0392574 0.86807
-0.179895 0.0407808 0.868251
-0.180142 0.0422912 0.868181
-0.180385 0.0438 0.868087
-0.180622 0.0453069 0.867965
-0.180861 0.046814 0.867854
-0.181087 0.0483166 0.867675
-0.181385 0.0498422 0.867871
-0.18175 0.0513911 0.868419
-0.18214 0.0529503 0.869095
-0.182518 0.0545074 0.869706
-0.182891 0.0560646 0.870287
-0.183273 0.0576271 0.870917
-0.18359 0.0591667 0.871204
-0.183927 0.0607153 0.871599
-0.184266 0.0622657 0.871998
-0.184602 0.0638162 0.872383
-0.184919 0.0653601 0.872667
-0.185303 0.0669336 0.873299
-0.185696 0.0685118 0.873974
-0.186114 0.070103 0.87477
-0.186582 0.0717199 0.875824
-0.187136 0.0733784 0.877317
-0.187741 0.0750647 0.879063
-0.188487 0.0768227 0.881525
-0.189302 0.0786204 0.88433
-0.190099 0.0804191 0.887037
-0.190777 0.0821668 0.889126
-0.169744 -0.0465918 0.886326
-0.169928 -0.0450267 0.885858
-0.170128 -0.0434669 0.885485
-0.17029 -0.0419001 0.884894
-0.170406 -0.0403256 0.884044
-0.170454 -0.0387402 0.882806
-0.170455 -0.0371505 0.881314
-0.170369 -0.0355499 0.879328
-0.17019 -0.0339404 0.876826
-0.169978 -0.0323341 0.87414
-0.169841 -0.0307486 0.871891
-0.169713 -0.0291723 0.869701
-0.169687 -0.0276169 0.868088
-0.169797 -0.0260839 0.867241
-0.169976 -0.0245615 0.866786
-0.170206 -0.0230461 0.866618
-0.170481 -0.0215355 0.866702
-0.170741 -0.0200232 0.866702
-0.171001 -0.018511 0.866702
-0.171261 -0.0169989 0.866702
-0.171506 -0.0154858 0.86662
-0.171813 -0.0139759 0.86688
-0.172126 -0.0124655 0.867173
-0.172476 -0.010955 0.867668
-0.172876 -0.00944365 0.868436
-0.173323 -0.00793018 0.86946
-0.173728 -0.00641339 0.870254
-0.17416 -0.00489357 0.871192
-0.174542 -0.00337147 0.871851
-0.174887 -0.00184821 0.872307
-0.175167 -0.000325912 0.872406
-0.175361 0.00119279 0.872036
-0.175548 0.00270985 0.871628
-0.175799 0.00422975 0.871576
-0.176078 0.00575147 0.871667
-0.176443 0.0072806 0.872231
-0.176827 0.00881334 0.872892
-0.178397 0.017949 0.872884
-0.178445 0.0194386 0.871737
-0.178666 0.0209528 0.871523
-0.178914 0.0224709 0.871452
-0.179176 0.0239911 0.871455
-0.179423 0.0255087 0.871377
-0.179664 0.0270248 0.87127
-0.179782 0.028515 0.870509
-0.17994 0.0300115 0.869962
-0.180034 0.0314917 0.869078
-0.180172 0.0329795 0.868432
-0.180332 0.0344704 0.8679
-0.180605 0.0359879 0.86797
-0.180834 0.037494 0.867802
-0.181145 0.0390217 0.868071
-0.181477 0.0405558 0.868445
-0.181778 0.0420825 0.868657
-0.182061 0.0436043 0.868772
-0.182336 0.0451241 0.868844
-0.182595 0.0466396 0.868837
-0.182843 0.0481514 0.868772
-0.183142 0.0496796 0.868972
-0.183492 0.0512252 0.869435
-0.183866 0.0527807 0.870019
-0.184209 0.0543268 0.870437
-0.184543 0.0558714 0.870814
-0.184886 0.0574205 0.871236
-0.185183 0.0589538 0.871421
-0.185504 0.0604963 0.871723
-0.185859 0.0620536 0.872204
-0.186213 0.0636119 0.872677
-0.18655 0.0651644 0.87306
-0.186955 0.0667465 0.87379
-0.18737 0.0683351 0.874569
-0.18779 0.0699289 0.87537
-0.18828 0.071555 0.876527
-0.188824 0.0732094 0.877948
-0.189414 0.0748891 0.879605
-0.190144 0.0766378 0.88196
-0.190941 0.0784265 0.884651
-0.191709 0.080209 0.887186
-0.193243 0.0823702 0.893569
-0.171446 -0.0452886 0.88556
-0.171665 -0.043733 0.885294
-0.17185 -0.0421711 0.884839
-0.172009 -0.0406051 0.884239
-0.172076 -0.0390227 0.883122
-0.172098 -0.0374358 0.881758
-0.172029 -0.035837 0.879886
-0.171878 -0.0342307 0.877564
-0.171661 -0.0326217 0.874878
-0.171519 -0.0310335 0.87262
-0.171382 -0.0294538 0.870396
-0.171351 -0.0278958 0.868769
-0.171424 -0.0263564 0.867729
-0.171586 -0.0248306 0.86718
-0.171798 -0.023312 0.866913
-0.172058 -0.0217989 0.866913
-0.172303 -0.0202843 0.866829
-0.172594 -0.0187737 0.866998
-0.172887 -0.0172626 0.867178
-0.173182 -0.0157509 0.867365
-0.173523 -0.0142409 0.867811
-0.173868 -0.0127294 0.868269
-0.174217 -0.0112165 0.868757
-0.174618 -0.00970299 0.869521
-0.175024 -0.00818699 0.870309
-0.175397 -0.00666814 0.870918
-0.175796 -0.00514722 0.871666
-0.17616 -0.00362427 0.872221
-0.176493 -0.00210021 0.872606
-0.176793 -0.000576122 0.872811
-0.177008 0.000944902 0.87256
-0.177229 0.0024654 0.872339
-0.177502 0.00398849 0.872401
-0.177811 0.00551421 0.872651
-0.178216 0.00704863 0.873421
-0.178666 0.00858948 0.874425
-0.179166 0.0101387 0.875699
-0.178278 0.0149552 0.875055
-0.179788 0.0132058 0.87621
-0.179807 0.0147042 0.874909
-0.17989 0.016207 0.873955
-0.179938 0.0177015 0.872818
-0.180033 0.0191994 0.871934
-0.18026 0.0207156 0.871749
-0.180506 0.0222343 0.871669
-0.180784 0.0237582 0.871754
-0.181047 0.0252799 0.87176
-0.181274 0.0267945 0.871578
-0.181409 0.0282899 0.870915
-0.181549 0.0297842 0.870281
-0.181625 0.0312623 0.869311
-0.181743 0.0327467 0.868562
-0.181896 0.0342373 0.868002
-0.182154 0.0357514 0.867987
-0.182399 0.0372624 0.867903
-0.182731 0.0387961 0.868276
-0.183086 0.040337 0.868764
-0.183427 0.0418759 0.869184
-0.183747 0.0434096 0.869486
-0.18406 0.0449426 0.869755
-0.184337 0.0464654 0.86984
-0.184618 0.0479896 0.86994
-0.184936 0.049526 0.870231
-0.18529 0.0510756 0.870711
-0.185645 0.0526264 0.871188
-0.185964 0.0541668 0.871485
-0.186261 0.0557001 0.871665
-0.186571 0.0572385 0.87191
-0.18685 0.0587668 0.872
-0.187168 0.0603096 0.872286
-0.187507 0.0618617 0.872679
-0.187863 0.0634216 0.873155
-0.188205 0.0649768 0.873558
-0.188614 0.0665613 0.874302
-0.189066 0.0681667 0.875258
-0.189527 0.0697786 0.876261
-0.190023 0.0714078 0.877435
-0.190571 0.0730645 0.878866
-0.191141 0.0747347 0.8804
-0.19178 0.0764423 0.882279
-0.192485 0.0781861 0.884484
-0.193178 0.0799301 0.886621
-0.172972 -0.0455523 0.885304
-0.173204 -0.0439998 0.885117
-0.173425 -0.0424453 0.884864
-0.173606 -0.0408833 0.88439
-0.1737 -0.0393057 0.883439
-0.173753 -0.0377234 0.882257
-0.173716 -0.0361289 0.880579
-0.173564 -0.0345206 0.878273
-0.173358 -0.0329115 0.875669
-0.173226 -0.0313227 0.873485
-0.173067 -0.0297376 0.871158
-0.173016 -0.028175 0.869436
-0.173083 -0.0266329 0.868368
-0.173242 -0.0251051 0.867811
-0.173422 -0.0235813 0.867366
-0.17368 -0.0220665 0.867352
-0.173923 -0.0205506 0.867259
-0.174217 -0.0190388 0.867443
-0.174516 -0.0175267 0.86765
-0.174831 -0.0160149 0.867946
