ply
format ascii 1.0
element vertex 1716
property float x
property float y
property float z
end_header
0.199439 0.0447935 0.95705
0.199369 0.0463275 0.957101
0.199226 0.0477962 0.956855
0.1991 0.0492801 0.956678
0.199134 0.0509118 0.957152
0.199121 0.0525034 0.957441
0.199174 0.0541581 0.957996
0.199347 0.055929 0.959041
0.199583 0.0577649 0.960344
0.199751 0.0595414 0.961373
0.199976 0.0613785 0.96264
0.200173 0.0631926 0.963788
0.200369 0.0650103 0.964931
0.200529 0.0667983 0.965934
0.200734 0.0686353 0.967119
0.201064 0.0706044 0.96882
0.201447 0.072634 0.970738
0.2018 0.0746404 0.972533
0.204133 0.00498846 0.972935
0.203974 0.00646842 0.97263
0.203712 0.00787451 0.971902
0.203459 0.00928535 0.971212
0.203199 0.0106892 0.970492
0.20283 0.0120118 0.96933
0.202398 0.0132847 0.967911
0.20202 0.0145923 0.966707
0.201621 0.0158812 0.96542
0.201192 0.017143 0.964009
0.200827 0.0184484 0.962851
0.200478 0.019764 0.961767
0.20011 0.0210613 0.960604
0.199741 0.0223533 0.95943
0.199414 0.0236758 0.958431
0.19911 0.0250142 0.957527
0.198875 0.0264057 0.956905
0.198686 0.0278329 0.956468
0.198541 0.0292951 0.956209
0.198414 0.0307728 0.956027
0.198308 0.0322684 0.955932
0.198226 0.0337841 0.955933
0.198208 0.0353551 0.956196
0.198192 0.0369305 0.956472
0.198156 0.0384894 0.956663
0.198173 0.040096 0.957069
0.198192 0.0417068 0.957485
0.198079 0.0432021 0.957362
0.198036 0.0447605 0.957525
0.197984 0.0463125 0.957654
0.197861 0.0477998 0.957489
0.197739 0.0492884 0.957328
0.197773 0.0509222 0.957807
0.197757 0.0525124 0.958086
0.197788 0.0541479 0.958554
0.197894 0.0558588 0.959337
0.198082 0.0576513 0.960454
0.198223 0.059403 0.961379
0.198445 0.0612386 0.96264
0.198643 0.0630558 0.963803
0.198858 0.0648944 0.965036
0.199056 0.0667218 0.966201
0.199259 0.0685599 0.96739
0.199568 0.0705106 0.969016
0.199945 0.0725373 0.970923
0.200271 0.0745199 0.972624
0.202659 0.00489844 0.973196
0.202468 0.00635607 0.972759
0.20219 0.00775008 0.971961
0.201913 0.00914303 0.971168
0.201599 0.0105075 0.970227
0.201209 0.0118118 0.968965
0.200755 0.0130664 0.967449
0.20034 0.0143441 0.966085
0.199922 0.015616 0.964712
0.199494 0.0168755 0.963295
0.199108 0.0181626 0.962047
0.198763 0.0194786 0.960973
0.198397 0.020774 0.959806
0.198054 0.0220838 0.958732
0.197768 0.0234375 0.9579
0.197513 0.0248129 0.95719
0.197324 0.02624 0.95675
0.197177 0.027701 0.956484
0.19705 0.0291787 0.956302
0.196924 0.0306564 0.95612
0.196817 0.0321515 0.956023
0.196734 0.0336666 0.956021
0.196694 0.0352197 0.956198
0.196659 0.0367787 0.956398
0.196621 0.0383361 0.956582
0.196638 0.0399442 0.956998
0.196659 0.041557 0.957426
0.196588 0.0430892 0.957474
0.196583 0.0446833 0.9578
0.196554 0.046256 0.958021
0.19645 0.0477627 0.95794
0.196347 0.0492699 0.95786
0.196381 0.0509049 0.958341
0.196363 0.0524951 0.958617
0.196373 0.0541118 0.959
0.196435 0.055782 0.959605
0.196576 0.0575315 0.960538
0.19669 0.0592582 0.961358
0.19689 0.0610749 0.962541
0.197089 0.062895 0.963719
0.197304 0.0647364 0.964965
0.197539 0.0666021 0.96629
0.19774 0.0684407 0.967482
0.198047 0.0703926 0.969115
0.198419 0.0724177 0.971016
0.198778 0.0744376 0.972868
0.201379 0.00335226 0.97391
0.201176 0.00480245 0.973422
0.200957 0.0062399 0.972865
0.200638 0.00760449 0.971897
0.20031 0.00895919 0.970887
0.199937 0.0102784 0.969694
0.199523 0.0115627 0.968325
0.19907 0.0128151 0.966803
0.198634 0.0140752 0.965348
0.1982 0.0153306 0.963892
0.19777 0.0165862 0.962461
0.197364 0.0178547 0.961123
0.197002 0.0191543 0.95997
0.196642 0.0204517 0.958823
0.196341 0.0217927 0.957921
0.196087 0.0231678 0.957206
0.195878 0.0245788 0.956684
0.195713 0.0260248 0.956344
0.195588 0.0275028 0.956168
0.19548 0.0289955 0.956064
0.195373 0.0304897 0.955966
0.195285 0.0320007 0.955949
0.19522 0.0335305 0.95602
0.195175 0.0350803 0.956182
0.195116 0.0366179 0.95628
0.195057 0.0381569 0.956381
0.195054 0.039747 0.956715
0.195055 0.0413426 0.957067
0.195004 0.0428928 0.957201
0.195022 0.0445071 0.957623
0.195035 0.0461201 0.958028
0.194973 0.0476644 0.958116
0.194892 0.0491923 0.958128
0.194942 0.0508444 0.958684
0.194923 0.0524345 0.958958
0.194912 0.0540328 0.95926
0.194951 0.0556824 0.959776
0.195085 0.057427 0.960688
0.195193 0.0591502 0.961493
0.195393 0.0609681 0.962682
0.195595 0.0627927 0.963879
0.195789 0.064616 0.96505
0.196 0.0664604 0.966288
0.196178 0.0682767 0.967391
0.196483 0.0702283 0.969025
0.196873 0.0722761 0.971021
0.197292 0.0743629 0.973142
0.200984 0.0784009 0.982419
0.19763 0.0763718 0.974921
0.199852 0.0032259 0.973957
0.19963 0.00466215 0.973387
0.199358 0.00606098 0.972606
0.198997 0.0073935 0.971456
0.198626 0.0087153 0.970263
0.198232 0.010016 0.968972
0.197797 0.0112833 0.967515
0.197365 0.0125476 0.966065
0.196915 0.0137935 0.96454
0.196463 0.0150328 0.963004
0.196011 0.0162676 0.961469
0.195586 0.0175179 0.960043
0.195205 0.0187986 0.9588
0.194869 0.0201113 0.957745
0.194614 0.0214862 0.957028
0.194402 0.0228941 0.95649
0.194238 0.0243401 0.956154
0.194095 0.0258031 0.955906
0.19399 0.0272965 0.955811
0.193883 0.0287896 0.955713
0.193779 0.0302849 0.955624
0.193675 0.0317815 0.955541
0.193589 0.0332935 0.95553
0.193523 0.034823 0.9556
0.193438 0.0363382 0.955598
0.193355 0.0378546 0.955598
0.193348 0.0394394 0.955916
0.193347 0.041032 0.956261
0.193333 0.0426152 0.956555
0.193392 0.0442679 0.957158
0.193451 0.0459223 0.957756
0.193435 0.0475097 0.958041
0.193393 0.0490747 0.958219
0.193442 0.0507273 0.958778
0.193424 0.0523174 0.959052
0.19341 0.0539156 0.959354
0.19343 0.0555468 0.959791
0.193561 0.0572898 0.960698
0.193687 0.0590323 0.961585
0.193888 0.060853 0.962787
0.194089 0.0626799 0.963995
0.194278 0.0644995 0.965152
0.19446 0.0663174 0.966281
0.194611 0.0681068 0.967275
0.194914 0.07006 0.968918
0.195328 0.0721354 0.971029
0.195813 0.0742951 0.973445
0.19626 0.0764236 0.975699
0.198291 0.00307528 0.973858
0.19804 0.00449048 0.973166
0.197719 0.00585268 0.972175
0.197308 0.00714717 0.970809
0.196879 0.00842338 0.969363
0.196464 0.00970626 0.96798
0.196034 0.0109732 0.96653
0.195629 0.0122541 0.965183
0.195165 0.0134858 0.963587
0.194735 0.0147388 0.962134
0.194264 0.0159556 0.960511
0.193837 0.0172008 0.959067
0.193457 0.0184797 0.957823
0.193161 0.0198211 0.956927
0.19293 0.021213 0.956307
0.192762 0.0226545 0.955949
0.192618 0.0241156 0.955695
0.192493 0.0255926 0.955522
0.192386 0.0270846 0.955425
0.192281 0.0285775 0.95533
0.192177 0.0300729 0.955247
0.192076 0.0315713 0.955175
0.191974 0.0330675 0.955092
0.191886 0.0345778 0.955075
0.191779 0.0360719 0.954978
0.191673 0.0375667 0.954883
0.191643 0.0391307 0.955109
0.191639 0.0407197 0.955446
0.19166 0.0423343 0.955892
0.191745 0.0440102 0.956608
0.191847 0.0457053 0.957396
0.191875 0.047334 0.957871
0.191874 0.0489375 0.958223
0.191924 0.0505926 0.958794
0.191923 0.0522003 0.959146
0.19191 0.0537985 0.959448
0.19191 0.0554118 0.959808
0.19204 0.0571557 0.96072
0.192188 0.0589215 0.961709
0.192389 0.060746 0.962927
0.19259 0.0625743 0.964142
0.192771 0.0643869 0.965269
0.192923 0.0661758 0.966281
0.193045 0.0679391 0.967168
0.193363 0.0699098 0.968886
0.193822 0.0720363 0.971205
0.194374 0.074271 0.973923
0.194907 0.0764979 0.976569
0.196969 0.00150076 0.97441
0.19668 0.00288912 0.973549
0.196384 0.00426991 0.972657
0.19603 0.00560696 0.971525
0.195597 0.00688254 0.970057
0.195127 0.00812597 0.96843
0.194717 0.00940926 0.967058
0.194314 0.0106928 0.96571
0.193916 0.011976 0.964383
0.193457 0.0132084 0.962799
0.193049 0.0144755 0.961431
0.192581 0.0156908 0.959806
0.192158 0.0169367 0.958371
0.191798 0.0182278 0.957199
0.191525 0.0195864 0.956399
0.191298 0.02098 0.955792
0.191151 0.0224378 0.955525
0.191025 0.0239128 0.955346
0.1909 0.0253885 0.955171
0.190792 0.0268786 0.955068
0.190685 0.0283701 0.95497
0.19058 0.0298636 0.954881
0.190476 0.0313586 0.954798
0.190372 0.032853 0.954709
0.190266 0.0343456 0.954611
0.190139 0.035821 0.95443
0.190013 0.0372965 0.954249
0.189962 0.0388414 0.954393
0.18994 0.0404126 0.954654
0.189982 0.0420461 0.955195
0.190086 0.0437387 0.955993
0.190228 0.0454727 0.956965
0.190297 0.0471398 0.957616
0.190336 0.0487821 0.958145
0.190406 0.0504566 0.958804
0.190423 0.0520832 0.95924
0.190409 0.0536814 0.959542
0.190407 0.055294 0.9599
0.190537 0.0570387 0.960816
0.190701 0.0588232 0.961884
0.190906 0.0606523 0.963124
0.191105 0.0624819 0.964343
0.191262 0.0642738 0.965385
0.191387 0.0660364 0.966288
0.191504 0.0677954 0.96716
0.191822 0.069768 0.968886
0.192319 0.0719402 0.971394
0.192949 0.0742644 0.974472
0.193543 0.0765621 0.977399
0.195322 0.00128934 0.973944
0.195021 0.00266801 0.97303
0.194693 0.00402431 0.972
0.194303 0.00533179 0.970701
0.19383 0.00657512 0.969055
0.193362 0.00781577 0.967421
0.19296 0.00910157 0.966073
0.192561 0.0103851 0.964736
0.192164 0.011667 0.963411
0.191728 0.0129134 0.961914
0.191325 0.0141801 0.960551
0.190883 0.0154127 0.959027
0.190485 0.0166763 0.957694
0.190131 0.0179698 0.956541
0.189898 0.0193579 0.955903
0.189674 0.0207525 0.955306
0.189512 0.0221965 0.954973
0.189386 0.0236695 0.95479
0.189276 0.025157 0.954679
0.189151 0.0266316 0.954504
0.189062 0.0281381 0.954488
0.188975 0.0296458 0.954473
0.188887 0.0311534 0.954456
0.18878 0.032645 0.954358
0.188672 0.0341357 0.954255
0.188545 0.0356104 0.954074
0.188419 0.0370851 0.953892
0.188369 0.0386303 0.954042
0.188329 0.0401846 0.954228
0.18837 0.0418174 0.954771
0.188471 0.0435079 0.955565
0.188614 0.0452419 0.956541
0.188698 0.0469248 0.957269
0.188778 0.0486062 0.957975
0.188867 0.0503009 0.958726
0.188904 0.0519483 0.959255
0.188908 0.0535641 0.959636
0.188904 0.0551755 0.959988
0.189029 0.0569178 0.960895
0.18921 0.0587195 0.962038
0.189412 0.0605499 0.963283
0.18961 0.0623813 0.964511
0.189768 0.0641748 0.965559
0.189873 0.0659181 0.966382
0.189988 0.067677 0.967255
0.190304 0.0696518 0.968992
0.190818 0.0718466 0.971592
0.191467 0.0741967 0.974775
0.192092 0.0765337 0.977859
0.193349 0.00243552 0.972442
0.193013 0.00378444 0.971374
0.192578 0.00505698 0.969878
0.192109 0.00629848 0.968229
0.191647 0.00754162 0.966618
0.191249 0.00882677 0.965274
0.190852 0.010109 0.963937
0.190436 0.0113729 0.96252
0.189999 0.0126147 0.961005
0.189616 0.0138946 0.959723
0.189204 0.0151477 0.958318
0.188835 0.0164306 0.957095
0.188523 0.0177561 0.956117
0.18831 0.0191591 0.955561
0.188086 0.020553 0.954965
0.187924 0.0219958 0.954629
0.187797 0.0234675 0.954443
0.187687 0.0249547 0.954336
0.187581 0.0264446 0.954241
0.187497 0.027954 0.954241
0.187412 0.0294632 0.954238
0.187324 0.0309708 0.954223
0.187215 0.0324606 0.95412
0.187089 0.0339345 0.953939
0.186963 0.0354085 0.953758
0.186836 0.0368824 0.953577
0.186786 0.038427 0.953727
0.186744 0.0399791 0.953906
0.186783 0.0416092 0.95444
0.186878 0.0432959 0.955221
0.187034 0.0450441 0.956265
0.187137 0.046745 0.957078
0.187236 0.048447 0.95788
0.187346 0.0501628 0.958727
0.187404 0.0518299 0.959344
0.187407 0.053447 0.95973
0.187384 0.05504 0.960004
0.187505 0.0567786 0.960895
0.187679 0.058578 0.962031
0.187879 0.0604061 0.963267
0.188079 0.0622412 0.964512
0.188271 0.0640739 0.965726
0.188396 0.0658401 0.966644
0.188533 0.0676234 0.967616
0.188846 0.0696006 0.969362
0.189357 0.0717961 0.971965
0.189975 0.0741197 0.975042
0.190576 0.0764363 0.978046
0.191945 0.000804873 0.972636
0.19164 0.00217616 0.971693
0.191282 0.0035053 0.970516
0.190863 0.00478582 0.969075
0.190398 0.00602806 0.967437
0.189942 0.00727216 0.96584
0.189525 0.00854029 0.964407
0.18911 0.00980555 0.962983
0.188672 0.0110484 0.961457
0.188253 0.0123009 0.960011
0.187894 0.013597 0.958828
0.187526 0.0148819 0.957603
0.187202 0.0161978 0.956563
0.186931 0.0175545 0.955757
0.186717 0.0189554 0.955194
0.186494 0.0203481 0.954595
0.186331 0.0217899 0.954257
0.186202 0.0232592 0.954064
0.186093 0.0247457 0.953957
0.185989 0.0262366 0.953871
0.185927 0.0277649 0.953971
0.185864 0.0292937 0.954067
0.185799 0.0308207 0.95415
0.185711 0.0323285 0.954135
0.185602 0.0338185 0.954032
0.185476 0.0352924 0.953851
0.185367 0.0367828 0.953748
0.185316 0.0383274 0.953898
0.185273 0.0398789 0.954074
0.185306 0.0415055 0.954592
0.185379 0.0431716 0.955278
0.185495 0.0448834 0.956159
0.185598 0.0465854 0.956979
0.185696 0.048287 0.95778
0.18581 0.0500081 0.958653
0.185885 0.0516945 0.959357
0.185906 0.0533298 0.959824
0.1859 0.054941 0.960176
0.18602 0.056681 0.961075
0.186194 0.058481 0.962212
0.186389 0.0603085 0.963447
0.186586 0.0621421 0.964686
0.186777 0.0639764 0.965907
0.186922 0.065766 0.966922
0.18708 0.0675739 0.967994
0.187391 0.0695523 0.969745
0.187875 0.0717244 0.972252
0.188444 0.0739996 0.975136
0.189015 0.0762894 0.978034
0.190967 0.0785337 0.980135
0.189382 0.0783653 0.980041
0.190198 0.000517491 0.971707
0.189897 0.00188857 0.970773
0.189538 0.00321493 0.969589
0.189149 0.0045149 0.968271
0.188692 0.00575972 0.966656
0.188258 0.00701719 0.965143
0.187841 0.00828165 0.963696
0.187404 0.00952734 0.962168
0.186951 0.0107546 0.960564
0.186552 0.0120206 0.959201
0.186217 0.0133314 0.958106
0.185876 0.0146358 0.956993
0.185592 0.0159824 0.956124
0.185341 0.0173537 0.9554
0.185127 0.0187534 0.954834
0.184905 0.0201451 0.954234
0.184723 0.0215695 0.953811
0.184594 0.0230384 0.953619
0.184484 0.0245235 0.953511
0.184381 0.0260139 0.953427
0.184337 0.0275576 0.953608
0.184314 0.0291214 0.953883
0.184272 0.0306683 0.954066
0.184205 0.0321954 0.954146
0.184115 0.0337024 0.954125
0.184006 0.0351925 0.954022
0.183919 0.0367021 0.954008
0.183869 0.0382488 0.954167
0.183824 0.0398011 0.954346
0.183854 0.0414244 0.954847
0.183908 0.0430751 0.955463
0.183984 0.0447494 0.956173
0.184083 0.0464497 0.956986
0.184179 0.0481511 0.957789
0.184274 0.0498534 0.958579
0.184347 0.0515395 0.959284
0.184385 0.0531927 0.959831
0.184399 0.0548239 0.960271
0.184522 0.0565693 0.961193
0.184714 0.0583901 0.962421
0.184908 0.0602188 0.963661
0.185097 0.0620478 0.96488
0.185286 0.0638817 0.966099
0.18545 0.0656935 0.967207
0.18563 0.0675277 0.968387
0.18592 0.0694876 0.970061
0.186372 0.0716307 0.972451
0.186869 0.0738328 0.975042
0.187371 0.0760511 0.977658
0.187697 0.0780817 0.979489
0.18883 -0.00108774 0.972042
0.188493 0.000258716 0.970949
0.188216 0.00164501 0.970114
0.187874 0.00298124 0.968996
0.187457 0.00425769 0.967546
0.18699 0.0054916 0.965875
0.186571 0.00675704 0.964415
0.186117 0.00799081 0.962801
0.185666 0.00922133 0.961196
0.185233 0.0104614 0.959672
0.18486 0.0117442 0.958411
0.184551 0.0130743 0.957429
0.184251 0.0144087 0.956485
0.183988 0.0157708 0.955705
0.18374 0.0171417 0.954982
0.183545 0.0185562 0.954499
0.183323 0.0199477 0.953902
0.183125 0.0213567 0.953402
0.182995 0.0228233 0.953204
0.182884 0.0243061 0.953088
0.182779 0.0257954 0.953004
0.182753 0.0273539 0.953263
0.182766 0.0289489 0.953696
0.182744 0.0305154 0.953978
0.182699 0.0320616 0.954153
0.182628 0.0335863 0.954219
0.182538 0.0350941 0.954199
0.182471 0.0366237 0.95428
0.182426 0.0381748 0.954458
0.182384 0.0397309 0.954654
0.182411 0.041354 0.955152
0.182443 0.0429841 0.955673
0.182481 0.0446229 0.956221
0.182573 0.0463177 0.957011
0.182663 0.0480139 0.957791
0.182736 0.0496973 0.9585
0.182809 0.0513829 0.959204
0.182862 0.0530529 0.959826
0.182896 0.0547052 0.960359
0.183041 0.0564752 0.961387
0.183254 0.0583211 0.962723
0.183444 0.0601482 0.963955
0.183627 0.0619731 0.965157
0.183812 0.0638048 0.966367
0.183974 0.0656193 0.967485
0.184155 0.0674569 0.968678
0.184443 0.0694169 0.970353
0.184867 0.071534 0.972638
0.185294 0.0736642 0.97494
0.185724 0.0758066 0.977255
0.186018 0.0778052 0.978964
0.186783 -5.98317e-06 0.970154
0.186511 0.00138132 0.969333
0.186164 0.00271116 0.968186
0.185734 0.00397537 0.966672
0.185283 0.00521749 0.965057
0.184831 0.00645448 0.963442
0.184378 0.00768548 0.961821
0.183947 0.00892858 0.960297
0.18356 0.0102009 0.958962
0.183213 0.011502 0.957809
0.182964 0.0128777 0.957081
0.182685 0.0142283 0.95623
0.182444 0.0156059 0.955535
0.182213 0.0169918 0.954894
0.182004 0.0183934 0.954345
0.181783 0.0197839 0.953744
0.181584 0.0211913 0.953238
0.181452 0.0226562 0.953033
0.181324 0.0241231 0.952839
0.181237 0.0256272 0.952833
0.181192 0.0271696 0.953014
0.181221 0.0287797 0.953525
0.181201 0.0303474 0.953815
0.181174 0.0319113 0.95408
0.181141 0.0334702 0.954312
0.181089 0.0350135 0.954462
0.181061 0.0365804 0.954719
0.18104 0.0381553 0.955006
0.181032 0.039745 0.955355
0.181058 0.04137 0.955859
0.181068 0.0429812 0.956288
0.181066 0.0445819 0.956658
0.181132 0.046254 0.957344
0.181183 0.0479134 0.957958
0.181217 0.0495586 0.958496
0.181286 0.051242 0.959192
0.181337 0.0529101 0.959808
0.181391 0.0545849 0.960439
0.181539 0.0563595 0.961489
0.18177 0.0582267 0.962916
0.181956 0.0600525 0.964143
0.182135 0.0618755 0.965337
0.182315 0.0637058 0.966542
0.182495 0.0655411 0.967746
0.182675 0.0673811 0.96895
0.18296 0.0693412 0.970624
0.183358 0.0714342 0.972812
0.183721 0.0734972 0.974844
0.184101 0.0755875 0.976954
0.184364 0.0775531 0.978536
0.185118 -0.000239471 0.969546
0.184822 0.00112831 0.968615
0.184423 0.00241671 0.967229
0.183975 0.00366301 0.96562
0.183505 0.0048873 0.963912
0.183053 0.00612006 0.962284
0.182622 0.0073645 0.960751
0.182219 0.00862548 0.959337
0.181873 0.00992811 0.958181
0.181569 0.0112605 0.957209
0.181343 0.0126533 0.956582
0.181085 0.0140183 0.955813
0.18088 0.0154257 0.955283
0.180654 0.0168134 0.954655
0.180448 0.0182156 0.95411
0.180226 0.0196046 0.953505
0.180024 0.0210086 0.952984
0.179892 0.0224729 0.95278
0.179782 0.0239555 0.952668
0.179699 0.0254626 0.952679
0.179653 0.0270039 0.952858
0.179697 0.0286278 0.953439
0.179675 0.0301948 0.953728
0.179651 0.0317605 0.954002
0.179654 0.0333543 0.954406
0.179658 0.0349506 0.95481
0.17967 0.0365562 0.955249
0.179687 0.0381699 0.955716
0.179698 0.0397798 0.956154
0.179721 0.0414036 0.956647
0.179692 0.042978 0.956902
0.179648 0.0445403 0.957094
0.179675 0.0461746 0.957606
0.179705 0.0478139 0.958129
0.179701 0.0494228 0.958506
0.179767 0.0511036 0.959192
0.179815 0.0527704 0.959803
0.179886 0.0544642 0.960519
0.180015 0.0562223 0.961498
0.180243 0.0580887 0.962923
0.180424 0.059911 0.964137
0.1806 0.0617326 0.965327
0.180764 0.0635467 0.966465
0.180961 0.0654036 0.967762
0.181157 0.0672625 0.969045
0.181438 0.0692224 0.97072
0.181814 0.0712949 0.972825
0.182134 0.0733141 0.974683
0.182487 0.0753773 0.976688
0.182726 0.0773193 0.978179
0.183482 -0.000453006 0.969058
0.183119 0.000862575 0.96782
0.18272 0.0021477 0.966422
0.182231 0.00335966 0.964619
0.181743 0.00456726 0.962824
0.181313 0.00581239 0.961277
0.180891 0.00706052 0.959775
0.180529 0.00835048 0.958535
0.180226 0.00968464 0.957563
0.179945 0.0110333 0.956686
0.179739 0.0124409 0.956146
0.179518 0.0138349 0.955539
0.179318 0.0152446 0.955025
0.179094 0.0166333 0.954405
0.178887 0.0180341 0.953856
0.178664 0.01942 0.953237
0.178443 0.0208065 0.952629
0.178331 0.0222871 0.952512
0.178241 0.0237881 0.952498
0.178179 0.0253139 0.952606
0.178133 0.0268555 0.952787
0.178191 0.0284922 0.953435
0.178166 0.0300563 0.95371
0.178143 0.0316245 0.953998
0.178168 0.0332384 0.954499
0.17821 0.0348722 0.955084
0.178244 0.0365009 0.955632
0.178281 0.0381342 0.956189
0.178312 0.0397651 0.956723
0.178315 0.0413713 0.957131
0.178264 0.0429258 0.957291
0.178213 0.0444827 0.957456
0.178219 0.0460976 0.957879
0.17823 0.047719 0.958321
0.178207 0.0493092 0.958614
0.178267 0.0509866 0.959286
0.178313 0.0526515 0.959889
0.178402 0.0543653 0.960692
0.178531 0.0561248 0.961678
0.178771 0.0580069 0.963171
0.178944 0.0598239 0.964363
0.179117 0.0616463 0.965556
0.179282 0.0634641 0.966709
0.179483 0.065326 0.968026
0.179676 0.0671866 0.969315
0.179953 0.0691444 0.970983
0.180305 0.0711957 0.973002
0.180586 0.0731736 0.974694
0.180917 0.0752157 0.976616
0.181153 0.0771565 0.978105
0.182375 -0.00186409 0.970549
0.181828 -0.000681596 0.968478
0.181418 0.000596844 0.967022
0.180978 0.00184754 0.965428
0.180452 0.0030274 0.963446
0.179968 0.00423341 0.961653
0.179564 0.00549506 0.960213
0.179167 0.00675866 0.958809
0.178847 0.00807913 0.957752
0.178566 0.00942801 0.95687
0.178286 0.0107757 0.955995
0.17808 0.0121818 0.955454
0.17788 0.0135909 0.954936
0.177681 0.0150002 0.954426
0.177479 0.0164053 0.953899
0.177289 0.0178193 0.953426
0.177081 0.0192171 0.952873
0.176879 0.0206188 0.952348
0.176786 0.0221155 0.952318
0.17672 0.0236371 0.952411
0.176678 0.0251813 0.952613
0.176633 0.0267232 0.952798
0.176669 0.0283422 0.953359
0.176641 0.0299038 0.953623
0.176619 0.031472 0.953913
0.176662 0.0331052 0.95451
0.176742 0.034776 0.955274
0.176814 0.0364418 0.955996
0.176871 0.0380964 0.956653
0.176918 0.0397444 0.957264
0.176919 0.0413506 0.957668
0.176866 0.0429047 0.957823
0.176814 0.0444615 0.957986
0.176801 0.0460591 0.958327
0.176793 0.0476633 0.95869
0.176766 0.0492497 0.958964
0.176805 0.0509085 0.959551
0.17685 0.0525737 0.960156
0.176958 0.054309 0.961051
0.177086 0.0560707 0.962046
0.177306 0.057934 0.963457
0.177491 0.0597661 0.964712
0.177659 0.0615863 0.965896
0.177827 0.0634096 0.967071
0.178027 0.0652752 0.968402
0.178235 0.0671549 0.96977
0.178489 0.0690916 0.971348
0.178818 0.0711201 0.973275
0.179092 0.0730947 0.974953
0.17942 0.0751375 0.976878
0.179655 0.0770813 0.97838
0.181229 -0.0033045 0.971887
0.180706 -0.0021013 0.969909
0.180113 -0.000957872 0.967606
0.179653 0.00027941 0.965912
0.179183 0.00150415 0.964175
0.178646 0.0026697 0.962121
0.178184 0.00388914 0.960419
0.177805 0.00516697 0.959085
0.177468 0.00647426 0.957942
0.17717 0.00781053 0.956982
0.176906 0.0091706 0.95617
0.176645 0.0105317 0.955378
0.17644 0.0119358 0.954832
0.176241 0.0133444 0.954318
0.176044 0.0147531 0.953811
0.175842 0.0161575 0.953287
0.175653 0.0175702 0.952813
0.175467 0.0189848 0.952355
0.175286 0.0204041 0.951926
0.175231 0.0219339 0.95207
0.175202 0.0234884 0.952335
0.175179 0.0250492 0.952623
0.175133 0.0265919 0.952813
0.175149 0.0281928 0.953284
0.175117 0.0297515 0.953537
0.175093 0.0313191 0.953827
0.175155 0.03297 0.95451
0.175272 0.0346771 0.95545
0.175379 0.0363785 0.956343
0.175451 0.03805 0.957077
0.175532 0.0397334 0.957851
0.175535 0.0413428 0.958267
0.175482 0.0428995 0.958431
0.175432 0.0444595 0.958603
0.175401 0.0460401 0.958864
0.175373 0.0476256 0.959139
0.175343 0.0492108 0.959406
0.175364 0.0508515 0.959911
0.175408 0.0525185 0.960521
0.175533 0.0542745 0.961506
0.175648 0.0560241 0.962446
0.175848 0.0578699 0.963781
0.176029 0.0597009 0.965031
0.176193 0.061519 0.966205
0.176359 0.0633429 0.967382
0.176559 0.0652115 0.968725
0.176782 0.0671113 0.970175
0.177045 0.0690627 0.971812
0.177352 0.0710697 0.97365
0.177604 0.0730234 0.975244
0.177925 0.0750624 0.977153
0.178155 0.0770034 0.978643
0.178403 -0.0012317 0.966748
0.177918 -1.70726e-05 0.964926
0.177445 0.00120114 0.963159
0.176913 0.00236655 0.961114
0.17646 0.00358863 0.959438
0.176122 0.0048964 0.958287
0.175808 0.00621937 0.957241
0.175512 0.00755469 0.956283
0.175235 0.00890154 0.955405
0.174973 0.0102589 0.954599
0.174732 0.0116313 0.953887
0.174532 0.0130366 0.953365
0.174335 0.0144434 0.952857
0.174152 0.0158614 0.952415
0.173984 0.0172912 0.952041
0.17382 0.0187234 0.951683
0.173678 0.0201748 0.951428
0.173661 0.0217382 0.95175
0.173669 0.0233254 0.952186
0.173663 0.0249031 0.952562
0.17365 0.0264762 0.952906
0.173647 0.0280597 0.953291
0.173612 0.0296159 0.953533
0.173585 0.0311806 0.953809
0.173647 0.0328338 0.954506
0.173782 0.0345597 0.955537
0.173907 0.0362809 0.956526
0.17398 0.0379547 0.957271
0.174076 0.039654 0.958119
0.174096 0.0412824 0.958622
0.174048 0.0428445 0.958808
0.174035 0.0444437 0.959158
0.174021 0.0460431 0.9595
0.17399 0.0476266 0.959763
0.173958 0.0492115 0.960025
0.173976 0.0508518 0.960524
0.174022 0.0525232 0.96115
0.174146 0.0542805 0.962138
0.174259 0.0560318 0.963082
0.174439 0.0578595 0.964337
0.174599 0.0596704 0.965498
0.174742 0.0614682 0.966583
0.174905 0.0632939 0.967767
0.175104 0.0651627 0.96911
0.175343 0.0670839 0.970647
0.175621 0.0690567 0.972372
0.175907 0.0710458 0.974134
0.176155 0.0729973 0.975717
0.176434 0.0749926 0.97745
0.17664 0.0769088 0.97884
0.176533 -0.00162962 0.965132
0.17607 -0.00040288 0.9634
0.175682 0.00087685 0.962016
0.175191 0.00206953 0.960142
0.17478 0.00332076 0.958646
0.174478 0.00465461 0.957653
0.17417 0.0059797 0.956626
0.173894 0.00732917 0.955755
0.173617 0.00867429 0.954873
0.173336 0.0100136 0.953972
0.173077 0.0113699 0.953178
0.172876 0.012772 0.952645
0.172664 0.0141629 0.952059
0.172482 0.0155805 0.951624
0.172315 0.0170092 0.951251
0.17217 0.0184564 0.95098
0.172051 0.0199266 0.950829
0.172055 0.0215079 0.951252
0.172081 0.0231126 0.951783
0.17211 0.0247215 0.952321
0.172116 0.0263116 0.952753
0.172111 0.027895 0.953141
0.172075 0.02945 0.95338
0.17206 0.0310277 0.953722
0.172106 0.0326651 0.954344
0.172225 0.0343765 0.955308
0.172366 0.0361144 0.95638
0.172454 0.0378046 0.957206
0.172567 0.0395232 0.958147
0.172624 0.0411895 0.958827
0.172631 0.0428077 0.959271
0.172637 0.0444276 0.959713
0.172639 0.0460465 0.96014
0.172606 0.0476304 0.9604
0.172573 0.0492154 0.960659
0.172576 0.050841 0.961089
0.172635 0.0525293 0.961787
0.172757 0.0542872 0.962774
0.172883 0.0560558 0.963788
0.173059 0.0578827 0.965036
0.173213 0.059691 0.966183
0.173336 0.0614688 0.96718
0.173512 0.0633113 0.968432
0.173695 0.0651669 0.969717
0.173933 0.0670929 0.971272
0.174212 0.0690704 0.973012
0.174478 0.0710403 0.974694
0.174707 0.0729742 0.976203
0.174977 0.0749638 0.977912
0.175179 0.0768783 0.979294
0.174574 -0.00209923 0.963076
0.174234 -0.000782852 0.961906
0.173927 0.000554794 0.960882
0.173479 0.00177766 0.959199
0.173107 0.0030561 0.95787
0.172827 0.00440538 0.956975
0.172556 0.00575823 0.956115
0.1723 0.0071216 0.955328
0.172021 0.00846383 0.954433
0.171724 0.00978768 0.953451
0.171445 0.0111244 0.952555
0.171226 0.0125097 0.951937
0.171014 0.0138995 0.951352
0.170835 0.0153167 0.950922
0.170669 0.0167449 0.950554
0.17054 0.0182042 0.950353
0.170435 0.0196864 0.950272
0.170425 0.0212542 0.950631
0.17047 0.0228761 0.951257
0.170516 0.0245016 0.951886
0.170523 0.0260934 0.952332
0.170506 0.0276636 0.952659
0.170484 0.0292325 0.952971
0.170469 0.0308092 0.953313
0.170513 0.0324444 0.953929
0.170645 0.0341706 0.95497
0.170818 0.0359408 0.9562
0.170941 0.0376664 0.957195
0.17109 0.039423 0.958317
0.171183 0.0411273 0.959174
0.171226 0.0427845 0.959797
0.17125 0.0444255 0.960332
0.171256 0.0460488 0.960775
0.171224 0.0476363 0.961048
0.171205 0.0492388 0.96138
0.171189 0.0508464 0.961727
0.171248 0.0525358 0.962425
0.171367 0.0542952 0.963415
0.171491 0.0560635 0.964426
0.171628 0.0578513 0.965502
0.171777 0.0596564 0.966633
0.171894 0.0614315 0.967617
0.172069 0.0632761 0.968876
0.172269 0.065155 0.970257
0.172542 0.0671244 0.971989
0.172823 0.0691088 0.973754
0.173084 0.0710775 0.975428
0.173306 0.073008 0.97692
0.173555 0.0749775 0.978544
0.173739 0.0768752 0.979858
0.177155 0.0809191 0.989078
0.174015 0.0788898 0.981611
0.172838 -0.00240263 0.96203
0.172509 -0.00108147 0.9609
0.172229 0.000274488 0.959996
0.171824 0.00152857 0.958506
0.171471 0.00281951 0.957258
0.171197 0.00417076 0.956381
0.170944 0.00553761 0.955607
0.170677 0.0068896 0.95476
0.170417 0.00824421 0.953941
0.170119 0.00956589 0.952952
0.169822 0.0108857 0.951968
0.169587 0.0122551 0.951269
0.169375 0.0136426 0.950679
0.16918 0.0150444 0.950173
0.169013 0.0164697 0.949798
0.16888 0.0179243 0.94958
0.168791 0.0194182 0.949568
0.168779 0.0209849 0.949928
0.168838 0.0226191 0.950624
0.168901 0.0242596 0.951337
0.168925 0.0258666 0.951866
0.16891 0.0274402 0.952215
0.168906 0.0290252 0.952612
0.168907 0.0306169 0.953031
0.168964 0.0322661 0.953719
0.169112 0.0340099 0.954849
0.1693 0.0357965 0.95616
0.169457 0.0375585 0.957329
0.169627 0.0393382 0.95856
0.169723 0.0410481 0.959443
0.169785 0.0427258 0.960159
0.169826 0.0443856 0.960779
0.169833 0.0460132 0.961239
0.169801 0.0476015 0.961513
0.169799 0.0492224 0.961924
0.169797 0.0508476 0.962346
0.169872 0.0525583 0.963135
0.169993 0.0543216 0.964139
0.170116 0.0560931 0.965159
0.170249 0.0578794 0.966225
0.170362 0.0596484 0.967198
0.170458 0.0614023 0.96809
0.170633 0.0632498 0.969358
0.170848 0.0651497 0.970825
0.171125 0.067127 0.972587
0.171416 0.069129 0.974424
0.171671 0.0710961 0.976088
0.171869 0.0730023 0.977478
0.172116 0.0749727 0.979104
0.172301 0.0768754 0.980434
0.172563 0.0788776 0.982137
0.170806 -0.00136526 0.959981
0.170538 -1.85404e-06 0.959132
0.170186 0.00129116 0.957881
0.169838 0.00258386 0.956649
0.169564 0.00393274 0.955765
0.1693 0.00528763 0.954929
0.16905 0.00665211 0.954161
0.168778 0.00799497 0.953282
0.168483 0.00931619 0.952297
0.168188 0.0106346 0.951311
0.167951 0.0120002 0.950599
0.167738 0.013386 0.950006
0.167561 0.0148008 0.949577
0.167396 0.0162266 0.94921
0.167263 0.0176801 0.948993
0.167171 0.0191712 0.948973
0.16714 0.0207188 0.949241
0.16718 0.0223353 0.949855
0.167255 0.0239866 0.950631
0.167295 0.0256095 0.951246
0.167296 0.0271972 0.951673
0.167309 0.0287988 0.952158
0.167343 0.030422 0.952736
0.16742 0.0320917 0.953528
0.167586 0.0338543 0.954751
0.167792 0.0356618 0.956165
0.167983 0.0374599 0.957507
0.168154 0.0392425 0.958752
0.168267 0.0409722 0.959727
0.168343 0.0426668 0.960521
0.168399 0.0443444 0.961221
0.168422 0.04599 0.961761
0.168406 0.0475974 0.962117
0.168421 0.0492388 0.962617
0.168437 0.0508852 0.963128
0.168532 0.0526204 0.96402
0.168635 0.0543692 0.964955
0.168773 0.0561606 0.966057
0.168888 0.0579306 0.967048
0.168981 0.0596798 0.967932
0.169058 0.0614154 0.968741
0.169229 0.0632625 0.970006
0.169444 0.0651665 0.971486
0.169719 0.0671457 0.973254
0.169991 0.0691302 0.975015
0.170224 0.0710753 0.976587
0.170395 0.0729541 0.977863
0.17064 0.0749263 0.979496
0.170841 0.0768519 0.980917
0.171103 0.0788596 0.982641
0.169056 -0.00168819 0.958825
0.168808 -0.000312064 0.958064
0.168504 0.00101639 0.957033
0.168174 0.0023204 0.955877
0.167898 0.00366577 0.95498
0.167633 0.00501672 0.95413
0.167384 0.00637956 0.953361
0.167132 0.00773741 0.952574
0.166856 0.00907284 0.951675
0.166584 0.0104078 0.950788
0.166363 0.0117858 0.950149
0.166167 0.0131844 0.94963
0.165991 0.0145996 0.949207
0.165829 0.0160271 0.948854
0.1657 0.0174829 0.948653
0.165592 0.0189591 0.948559
0.165525 0.0204726 0.948656
0.165544 0.0220698 0.949177
0.165599 0.0237019 0.949863
0.16564 0.0253242 0.950484
0.165657 0.0269277 0.950997
0.165704 0.0285617 0.95165
0.165771 0.0302186 0.9524
0.165883 0.0319247 0.953373
0.166072 0.033711 0.954713
0.166312 0.0355549 0.956303
0.166534 0.0373877 0.957811
0.166701 0.0391691 0.959049
0.166827 0.0409149 0.960098
0.166916 0.0426245 0.96096
0.166971 0.0443033 0.961663
0.166993 0.0459504 0.962208
0.166995 0.0475772 0.962648
0.167027 0.0492398 0.96324
0.167062 0.05091 0.963854
0.167161 0.0526513 0.964769
0.167264 0.0544034 0.965713
0.167414 0.0562116 0.966884
0.167508 0.0579614 0.967783
0.167581 0.0596914 0.968581
0.167657 0.0614283 0.969393
0.16782 0.0632708 0.970634
0.168016 0.0651561 0.972034
0.168269 0.0671159 0.97372
0.168521 0.0690805 0.975397
0.168731 0.0710023 0.976873
0.168881 0.0728581 0.978056
0.169104 0.0748078 0.979599
0.169337 0.076775 0.981187
0.169599 0.0787868 0.982926
0.167645 -0.00331691 0.958855
0.167373 -0.0019603 0.957973
0.167119 -0.000592145 0.957174
0.166818 0.000735517 0.956149
0.166478 0.00202767 0.954931
0.166184 0.00335625 0.953947
0.165915 0.00470088 0.953071
0.165651 0.00604803 0.952223
0.165417 0.00741815 0.951518
0.165164 0.00876998 0.950721
0.164911 0.0101194 0.949923
0.164696 0.0115004 0.949309
0.164519 0.0129134 0.948877
0.164361 0.0143429 0.948538
0.164219 0.0157863 0.948276
0.164107 0.0172578 0.948165
0.164016 0.0187481 0.94815
0.163947 0.0202593 0.948239
0.163944 0.0218354 0.948658
0.163979 0.0234495 0.949258
0.164017 0.025069 0.949872
0.164039 0.0266761 0.95041
0.16412 0.0283442 0.951238
0.164223 0.0300373 0.952171
0.164387 0.0317951 0.953399
0.164609 0.0336182 0.954918
0.164881 0.0354982 0.956681
0.165118 0.0373492 0.958274
0.16528 0.0391292 0.959504
0.165403 0.0408736 0.960544
0.165472 0.0425656 0.961322
0.165527 0.0442462 0.962033
0.165549 0.0458951 0.962584
0.165568 0.0475428 0.963118
0.165619 0.0492283 0.96381
0.165691 0.0509398 0.964603
0.165789 0.0526845 0.965529
0.165904 0.0544524 0.966538
0.16605 0.0562596 0.9677
0.166123 0.05799 0.968511
0.166177 0.0597018 0.969226
0.166247 0.0614346 0.970017
0.166374 0.063238 0.971091
0.166564 0.0651196 0.972474
0.166795 0.0670568 0.974064
0.167025 0.0690003 0.975654
0.167213 0.070899 0.977035
0.167342 0.0727322 0.978127
0.167507 0.0746137 0.979396
0.167753 0.0766018 0.981071
0.168032 0.0786368 0.982906
0.165701 -0.0022274 0.95715
0.165443 -0.000864385 0.956329
0.16513 0.000450973 0.955239
0.164797 0.0017464 0.954051
0.164488 0.00305809 0.952978
0.164202 0.00438667 0.95202
0.163923 0.00571738 0.951089
0.163689 0.00708422 0.950377
0.163456 0.00845022 0.94967
0.163225 0.00981674 0.948977
0.163031 0.0112142 0.948463
0.162872 0.0126417 0.948119
0.162732 0.0140851 0.947863
0.162607 0.0155427 0.947683
0.162499 0.0170159 0.947587
0.162423 0.0185202 0.947651
0.162368 0.0200444 0.947814
0.162348 0.021603 0.948147
0.162378 0.0232124 0.94873
0.162429 0.0248459 0.949421
0.162467 0.0264688 0.950044
0.16257 0.0281588 0.950984
0.162724 0.0299033 0.952173
0.162936 0.0317127 0.953654
0.16319 0.033571 0.955343
0.163478 0.0354711 0.957202
0.163712 0.0373234 0.958799
0.163872 0.0391039 0.960028
0.163976 0.040831 0.960985
0.164028 0.0425067 0.961685
0.164082 0.0441885 0.962399
0.164136 0.0458739 0.963115
0.164175 0.0475457 0.963755
0.164226 0.0492343 0.964458
0.164329 0.0509841 0.965419
0.164424 0.0527282 0.966336
0.164521 0.0544795 0.967268
0.164646 0.0562666 0.968339
0.164716 0.0579953 0.969138
0.164752 0.0596887 0.969772
0.164803 0.0614029 0.970481
0.16491 0.0631844 0.971461
0.165076 0.0650429 0.972746
0.165268 0.0669368 0.974156
0.165475 0.0688559 0.975647
0.16564 0.0707293 0.976926
0.165766 0.0725614 0.978016
0.165909 0.074418 0.979186
0.166185 0.0764469 0.981028
0.166461 0.0784821 0.982866
0.168436 0.080837 0.985364
0.166869 0.0806919 0.985365
0.168893 0.0831144 0.988088
0.167323 0.0829709 0.988099
0.163744 -0.00115735 0.955359
0.163429 0.000153117 0.954249
0.163105 0.00145275 0.953097
0.162797 0.00276191 0.952018
0.162496 0.00407468 0.950979
0.162217 0.00540231 0.950041
0.161986 0.00676982 0.949344
0.161786 0.00816155 0.948791
0.161591 0.00955705 0.948267
0.161432 0.0109838 0.947921
0.161291 0.0124265 0.947665
0.161166 0.0138833 0.947486
0.161041 0.01534 0.947307
0.160933 0.0168128 0.947213
0.160844 0.0183037 0.947212
0.160791 0.0198287 0.947384
0.160754 0.0213717 0.947642
0.160781 0.0229786 0.948218
0.160846 0.0246247 0.948978
0.160917 0.0262804 0.94977
0.161038 0.0279901 0.950813
0.161239 0.029785 0.952252
0.161485 0.0316302 0.95391
0.161739 0.033492 0.955617
0.162041 0.0354104 0.957562
0.162271 0.0372625 0.959157
0.162429 0.039044 0.960391
0.162531 0.0407712 0.961346
0.162597 0.0424648 0.962127
0.162651 0.044148 0.962846
0.162737 0.0458702 0.963727
0.162793 0.0475631 0.96446
0.162845 0.0492556 0.965175
0.162947 0.0510069 0.966139
0.16302 0.0527302 0.96696
0.163081 0.0544435 0.967723
0.163186 0.0562104 0.968703
0.16324 0.0579229 0.969431
0.163273 0.0596154 0.97006
0.163324 0.0613306 0.970773
0.163428 0.0631122 0.971752
0.163573 0.0649483 0.972943
0.163742 0.0668179 0.974253
0.163927 0.0687129 0.975645
0.164071 0.0705645 0.976837
0.164196 0.0723953 0.977923
0.164302 0.0742097 0.978926
0.164605 0.076275 0.980917
0.16488 0.0783136 0.982772
0.165268 0.0805034 0.985195
0.165684 0.0827392 0.98776
0.167728 0.0851984 0.990589
0.166076 0.0849533 0.990208
0.161914 -0.00156191 0.953715
0.161659 -0.000204778 0.952901
0.161405 0.00114897 0.95208
0.161099 0.00245724 0.951007
0.160799 0.00376737 0.949962
0.160504 0.00507895 0.948944
0.160289 0.00645698 0.948317
0.160094 0.00785096 0.947788
0.159919 0.0092614 0.947358
0.159777 0.0107019 0.947097
0.159668 0.0121711 0.946993
0.159559 0.0136418 0.946896
0.159451 0.0151132 0.946801
0.159359 0.0165999 0.946786
0.159285 0.0181037 0.946858
0.159215 0.0196129 0.946952
0.159163 0.0211409 0.947139
0.159174 0.0227323 0.947641
0.159237 0.0243768 0.9484
0.159324 0.0260487 0.94928
0.159475 0.0277899 0.950485
0.159727 0.0296374 0.952188
0.16002 0.0315349 0.954103
0.160306 0.0334328 0.955984
0.160623 0.0353708 0.958023
0.160863 0.037237 0.959684
0.161019 0.0390187 0.960915
0.161118 0.0407461 0.961869
0.161186 0.042444 0.962669
0.161252 0.0441439 0.96346
0.161339 0.0458696 0.964354
0.161395 0.0475647 0.965092
0.161448 0.0492605 0.965819
0.161545 0.0510102 0.966772
0.161582 0.0526944 0.967418
0.161638 0.054404 0.968161
0.161722 0.0561503 0.969051
0.161758 0.0578437 0.969695
0.161791 0.0595375 0.970329
0.161856 0.0612728 0.971127
0.161944 0.0630382 0.972037
0.162086 0.0648739 0.973225
0.162234 0.0667211 0.97444
0.162397 0.0685919 0.975734
0.162523 0.0704228 0.976842
0.162646 0.0722544 0.977933
0.162719 0.0740303 0.978782
0.163018 0.0760942 0.980771
0.163286 0.0781284 0.982611
0.163632 0.0802681 0.984839
0.164004 0.082451 0.987205
0.1644 0.0846776 0.989702
0.16013 -0.00193179 0.952277
0.159913 -0.000547842 0.951638
0.159692 0.000832079 0.950984
0.159389 0.00213938 0.949917
0.159088 0.0034452 0.948859
0.158809 0.00476662 0.947908
0.158598 0.00614581 0.947298
0.158422 0.00755481 0.946865
0.158267 0.0089805 0.946528
0.158157 0.0104481 0.946424
0.158064 0.011932 0.946409
0.157975 0.0134189 0.946404
0.157885 0.0149065 0.946402
0.157809 0.0164072 0.946466
0.157733 0.0179094 0.946533
0.157659 0.0194151 0.946613
0.157589 0.0209244 0.946707
0.157598 0.0225138 0.947205
0.157659 0.0241575 0.947965
0.157748 0.0258309 0.948858
0.157916 0.0275908 0.950161
0.158229 0.0295037 0.952192
0.158572 0.0314565 0.954379
0.158894 0.0333958 0.956461
0.159238 0.035367 0.958657
0.15949 0.0372488 0.960389
0.159625 0.0390127 0.961533
0.159707 0.0407248 0.962412
0.15979 0.0424422 0.963298
0.159858 0.0441461 0.964105
0.159961 0.0458927 0.96509
0.16003 0.0476058 0.965906
0.160082 0.049303 0.966634
0.160144 0.0510162 0.967419
0.160159 0.0526778 0.96796
0.160192 0.0543632 0.968595
0.16024 0.0560706 0.969314
0.160257 0.0577429 0.969866
0.160305 0.059457 0.970587
0.160387 0.0612135 0.971474
0.160459 0.0629635 0.972318
0.160584 0.0647806 0.973428
0.160726 0.0666236 0.974626
0.160868 0.0684719 0.975827
0.160975 0.0702818 0.976849
0.161097 0.0721164 0.977955
0.161186 0.0739123 0.978885
0.161463 0.0759534 0.980784
0.161723 0.0779803 0.982596
0.162027 0.080072 0.984638
0.162338 0.0821811 0.986715
0.16269 0.0843522 0.989005
0.164595 0.0866492 0.991177
0.162865 0.0862992 0.990392
0.158584 -0.00367093 0.95156
0.158442 -0.00222539 0.951296
0.158237 -0.000833744 0.950713
0.158009 0.000536964 0.950015
0.157726 0.00185798 0.949037
0.157427 0.00316348 0.947987
0.157148 0.00448188 0.947027
0.156952 0.00587251 0.946492
0.156796 0.00729664 0.946151
0.15666 0.00873895 0.945914
0.156598 0.0102497 0.946055
0.156539 0.0117638 0.946208
0.156469 0.0132686 0.946304
0.1564 0.0147753 0.946406
0.156324 0.0162778 0.94648
0.156231 0.0177635 0.946461
0.156139 0.0192505 0.946446
0.156063 0.0207549 0.946517
0.156054 0.0223258 0.946923
0.156113 0.0239681 0.947681
0.156199 0.0256407 0.948573
0.156381 0.0274165 0.94996
0.156713 0.0293519 0.952106
0.15709 0.0313438 0.954488
0.157446 0.0333226 0.956762
0.157821 0.0353306 0.959135
0.158087 0.0372322 0.960959
0.158232 0.0390103 0.962167
0.158331 0.0407428 0.963138
0.158429 0.0424793 0.964109
0.158499 0.044189 0.964937
0.158614 0.0459525 0.965996
0.158682 0.0476687 0.966819
0.158715 0.0493477 0.967459
0.158742 0.0510237 0.968073
0.158736 0.052664 0.968517
0.15873 0.0543064 0.96896
0.158744 0.055974 0.969503
0.158743 0.0576276 0.969975
0.158804 0.0593586 0.970768
0.158902 0.0611371 0.971749
0.158975 0.0628903 0.972606
0.159083 0.0646891 0.973639
0.159217 0.0665249 0.974807
0.159336 0.0683494 0.97591
0.159425 0.0701387 0.976848
0.159563 0.0719953 0.978045
0.159666 0.0738127 0.979064
0.159922 0.0758306 0.98087
0.160159 0.0778316 0.982581
0.16042 0.0798726 0.984423
0.160659 0.0818906 0.986147
0.160953 0.0839892 0.988159
0.161087 0.0858836 0.989345
0.156883 -0.00397611 0.950494
0.156734 -0.00253844 0.950196
0.156549 -0.00113267 0.949709
0.156298 0.000215725 0.94889
0.156021 0.00153832 0.947933
0.155725 0.00284201 0.946883
0.155462 0.00417233 0.946003
0.155268 0.00556141 0.94547
0.155145 0.00701412 0.9453
0.155042 0.00848552 0.945234
0.155031 0.0100411 0.945629
0.155007 0.0115874 0.945963
0.15497 0.0131246 0.946237
0.154917 0.0146464 0.94642
0.154857 0.0161636 0.946574
0.154748 0.0176343 0.946477
0.154653 0.019119 0.94645
0.154576 0.0206223 0.946517
0.15455 0.0221767 0.94684
0.154605 0.0238172 0.947591
0.154702 0.0255018 0.948547
0.154882 0.0272778 0.949936
0.155226 0.0292293 0.952164
0.155635 0.0312587 0.954731
0.156009 0.0332612 0.957121
0.156399 0.0352911 0.9596
0.156694 0.0372272 0.961587
0.15684 0.0390102 0.962814
0.156953 0.0407618 0.963871
0.157082 0.0425353 0.965009
0.157167 0.044266 0.965928
0.157269 0.0460179 0.966926
0.157333 0.0477322 0.967736
0.157346 0.0493922 0.968285
0.157323 0.0510123 0.968644
0.15728 0.0526114 0.968902
0.157253 0.0542315 0.969245
0.157247 0.0558776 0.969693
0.157244 0.0575307 0.970162
0.157305 0.059264 0.970965
0.157419 0.0610637 0.972037
0.157491 0.0628177 0.972897
0.157579 0.0645944 0.973836
0.15769 0.066406 0.974904
0.157787 0.0682033 0.975894
0.157857 0.0699727 0.976753
0.157995 0.0718311 0.97796
0.158098 0.0736506 0.978988
0.158334 0.0756454 0.980704
0.158564 0.0776424 0.982402
0.158788 0.0796378 0.984067
0.158987 0.0816065 0.985603
0.159238 0.0836521 0.987411
0.15951 0.0857317 0.989325
0.161197 0.0877513 0.990413
0.15978 0.0878201 0.991245
0.155191 -0.00427696 0.949454
0.155017 -0.0028633 0.949022
0.154822 -0.0014683 0.948484
0.154564 -0.000130135 0.947617
0.154305 0.00120533 0.946749
0.154044 0.00253739 0.945875
0.153815 0.00389461 0.945159
0.153637 0.00529578 0.944703
0.15353 0.00676148 0.944615
0.153447 0.00824972 0.94465
0.153456 0.00982393 0.945155
0.153464 0.0114004 0.945659
0.153459 0.0129675 0.946098
0.15342 0.014504 0.946364
0.153375 0.0160358 0.946595
0.15328 0.0175198 0.946569
0.153186 0.0190055 0.946548
0.15311 0.0205109 0.946626
0.153084 0.0220667 0.946957
0.15314 0.023709 0.947717
0.153232 0.0253907 0.948658
0.153423 0.0271798 0.950114
0.153776 0.0291461 0.952416
0.154198 0.0311933 0.955072
0.154597 0.0332282 0.957619
0.155017 0.0352945 0.960271
0.155328 0.0372537 0.962364
0.155491 0.0390596 0.963695
0.155636 0.0408489 0.964923
0.155768 0.0426308 0.966093
0.155853 0.0443648 0.967021
0.155935 0.0460987 0.967929
0.155978 0.0477928 0.968641
0.155956 0.0494142 0.96901
0.155911 0.0510128 0.969269
0.15585 0.052592 0.969434
0.155821 0.0542108 0.969769
0.155797 0.0558378 0.970131
0.155793 0.0574916 0.970601
0.155854 0.0592263 0.971408
0.155982 0.0610476 0.97257
0.156056 0.062807 0.97345
0.156138 0.0645806 0.974373
0.156229 0.0663685 0.97534
0.156303 0.0681402 0.976223
0.15634 0.0698685 0.976911
0.156459 0.071707 0.978037
0.156577 0.0735489 0.979158
0.156795 0.075525 0.9808
0.157006 0.0774999 0.982411
0.157207 0.0794684 0.98397
0.15735 0.0813666 0.985229
0.157512 0.0832941 0.986583
0.15793 0.0855758 0.989291
0.158374 0.087906 0.992144
0.153754 -0.00592526 0.949244
0.153521 -0.00456238 0.948504
0.15333 -0.0031659 0.947979
0.153116 -0.00178903 0.947345
0.152847 -0.000463297 0.946416
0.152624 0.000900144 0.945725
0.152412 0.00227271 0.945097
0.152218 0.003659 0.944556
0.152058 0.00507587 0.944195
0.151984 0.00656991 0.944272
0.151915 0.0080713 0.944385
0.15194 0.00966134 0.944981
0.151964 0.0112542 0.945577
0.151975 0.0128369 0.946104
0.151951 0.0143879 0.946447
0.151907 0.0159201 0.946681
0.151811 0.0174051 0.946661
0.151733 0.0189071 0.946724
0.151675 0.0204306 0.946895
0.151653 0.021992 0.947254
0.151709 0.0236346 0.948014
0.151798 0.0253163 0.948954
0.151985 0.0271047 0.950407
0.152336 0.0290729 0.952718
0.152782 0.0311513 0.955526
0.153208 0.0332205 0.958239
0.153655 0.0353234 0.961065
0.153979 0.037302 0.963247
0.154158 0.0391294 0.964674
0.154304 0.0409251 0.965926
0.154435 0.0427087 0.967098
0.154504 0.0444279 0.96795
0.154566 0.0461437 0.96877
0.154588 0.0478157 0.969375
0.154527 0.0493947 0.969549
0.154465 0.050973 0.969714
0.154402 0.0525526 0.969879
0.154358 0.0541556 0.970141
0.154333 0.0557831 0.970504
0.154359 0.0574749 0.971137
0.154421 0.0592125 0.971954
0.15455 0.0610395 0.973138
0.154636 0.0628166 0.97409
0.154702 0.064573 0.974938
0.154772 0.0663394 0.975812
0.154827 0.0680892 0.976602
0.154859 0.0698135 0.977273
0.154975 0.0716493 0.978387
0.155108 0.0735147 0.979602
0.155309 0.0754738 0.981174
0.155499 0.0774253 0.982689
0.15566 0.0793438 0.984051
0.155746 0.0811675 0.985017
0.156011 0.0832394 0.986939
0.156583 0.0857397 0.990495
0.15723 0.0883577 0.994455
0.15211 -0.00618976 0.948411
0.151871 -0.00483348 0.947641
0.15166 -0.00345663 0.947007
0.151415 -0.00210992 0.946202
0.151164 -0.000770869 0.945365
0.150975 0.000620688 0.94485
0.150817 0.00203877 0.944494
0.15066 0.00345684 0.944142
0.15052 0.00489094 0.943885
0.150458 0.00639683 0.944032
0.150402 0.00790979 0.944213
0.15041 0.00948459 0.944727
0.150449 0.0110911 0.945402
0.150473 0.0126875 0.946007
0.150466 0.0142555 0.946443
0.150422 0.0157896 0.946689
0.150344 0.0172906 0.946753
0.150281 0.0188081 0.946898
0.150238 0.0203482 0.947154
0.150217 0.0219125 0.947526
0.150272 0.0235558 0.948289
0.150359 0.0252384 0.949234
0.150544 0.0270272 0.950687
0.150894 0.0289985 0.953015
0.151354 0.031099 0.955932
0.15181 0.0332054 0.958825
0.152284 0.0353432 0.961816
0.152637 0.037361 0.964182
0.152846 0.0392256 0.96578
0.153004 0.0410396 0.96711
0.153132 0.0428248 0.968281
0.153196 0.044543 0.969121
0.153222 0.0462194 0.969753
0.153208 0.0478533 0.970178
0.153128 0.0494109 0.970249
0.153049 0.0509709 0.970327
0.152971 0.0525352 0.970421
0.152915 0.0541243 0.970619
0.152889 0.0557525 0.970982
0.152928 0.0574629 0.971693
0.153004 0.0592217 0.9726
0.153136 0.0610545 0.973805
0.153238 0.0628552 0.974853
0.153301 0.064612 0.975698
0.153353 0.066358 0.976483
0.153375 0.0680686 0.977107
0.153401 0.069789 0.97776
0.153514 0.071625 0.978873
0.153645 0.0734905 0.980086
0.153828 0.0754306 0.981579
0.153998 0.077359 0.983002
0.154117 0.0792241 0.984151
0.154353 0.0812567 0.985941
0.154768 0.0835394 0.988683
0.155532 0.086317 0.993309
0.156412 0.0892735 0.998561
0.15074 -0.00778081 0.948536
0.150516 -0.00641247 0.947834
0.150257 -0.00507624 0.946948
0.150011 -0.00373109 0.94613
0.149737 -0.0024132 0.945163
0.149505 -0.00105993 0.944422
0.149337 0.000347669 0.94401
0.149227 0.00180811 0.943909
0.149122 0.00327194 0.943826
0.149002 0.0047233 0.943671
0.148953 0.00624154 0.943892
0.148893 0.00775112 0.944056
0.148881 0.00930663 0.944467
0.148919 0.0109136 0.945149
0.148958 0.012525 0.945838
0.148968 0.0141102 0.94637
0.148939 0.0156598 0.9467
0.148875 0.0171759 0.946845
0.148811 0.0186934 0.94699
0.148768 0.0202335 0.947246
0.148747 0.0217971 0.947615
0.148798 0.0234394 0.948375
0.148882 0.0251188 0.949303
0.149078 0.0269234 0.950837
0.149472 0.028948 0.953429
0.149996 0.0311225 0.956709
0.150502 0.0332907 0.959899
0.151023 0.0354888 0.963175
0.151404 0.0375443 0.965713
0.15161 0.0394101 0.967304
0.151735 0.0411936 0.968482
0.151841 0.0429587 0.96955
0.151886 0.044657 0.970288
0.151876 0.0462965 0.970743
0.151829 0.0478941 0.970996
0.151731 0.0494332 0.970979
0.151635 0.0509748 0.97097
0.151543 0.0525219 0.970982
0.151485 0.0541105 0.971175
0.151472 0.055758 0.97162
0.151527 0.0574902 0.972422
0.151607 0.0592569 0.973357
0.151737 0.0610925 0.97457
0.151835 0.0628918 0.975609
0.151894 0.0646467 0.976442
0.15193 0.0663753 0.97715
0.151935 0.068067 0.977692
0.151961 0.0697888 0.978347
0.152069 0.0716228 0.979449
0.152185 0.0734719 0.980593
0.152349 0.0753915 0.982002
0.152511 0.0773134 0.983398
0.152608 0.0791515 0.984438
0.153011 0.0814177 0.987151
0.153602 0.0839538 0.990878
0.154569 0.0870298 0.996655
0.155572 0.090178 1.00262
0.149427 -0.00932507 0.948952
0.149169 -0.00798401 0.948073
0.148903 -0.00665399 0.947141
0.14863 -0.0053322 0.946173
0.148374 -0.00399856 0.945295
0.148102 -0.00268163 0.944331
0.147886 -0.00131698 0.943666
0.14775 0.000118419 0.943425
0.147672 0.00160706 0.943495
