ply
format ascii 1.0
element vertex 1575
property float x
property float y
property float z
end_header
-0.00748372 -0.152457 0.113151
-0.00727504 -0.152648 0.113218
-0.00706591 -0.152837 0.113277
-0.00685698 -0.153038 0.113364
-0.00664857 -0.153261 0.113506
-0.00643966 -0.153487 0.113653
-0.00623066 -0.153726 0.113833
-0.00602112 -0.153968 0.114017
-0.00581081 -0.154208 0.114196
-0.00560023 -0.154459 0.1144
-0.00538886 -0.154712 0.114608
-0.00517705 -0.154987 0.114867
-0.0049648 -0.155302 0.11522
-0.00475135 -0.155626 0.115596
-0.00453676 -0.155929 0.115917
-0.00432121 -0.156221 0.116211
-0.00410495 -0.156473 0.116406
-0.0162836 -0.147543 0.118768
-0.0160534 -0.147633 0.118551
-0.0158274 -0.147741 0.118382
-0.0155946 -0.147812 0.118115
-0.0153662 -0.147903 0.117902
-0.0151378 -0.14799 0.11768
-0.0149062 -0.148058 0.117406
-0.0146699 -0.148096 0.117051
-0.0144334 -0.148126 0.116678
-0.0141953 -0.148142 0.116268
-0.0139603 -0.14817 0.11589
-0.0137266 -0.148197 0.115516
-0.013498 -0.148251 0.115213
-0.0132698 -0.148301 0.114903
-0.0130466 -0.148378 0.114667
-0.0128253 -0.148463 0.114453
-0.0126075 -0.148568 0.114296
-0.0123909 -0.14868 0.114156
-0.0121762 -0.148802 0.114043
-0.0119604 -0.148915 0.113907
-0.0117418 -0.149004 0.113709
-0.0115241 -0.149095 0.113517
-0.0113053 -0.149174 0.113294
-0.0110893 -0.149272 0.113121
-0.0108766 -0.149394 0.113014
-0.0106677 -0.149551 0.112996
-0.0104589 -0.149707 0.112979
-0.0102521 -0.149885 0.113016
-0.0100452 -0.150064 0.113055
-0.00983788 -0.150239 0.113086
-0.00963167 -0.150431 0.113157
-0.00942528 -0.150623 0.113228
-0.00921708 -0.150798 0.113257
-0.00900781 -0.150961 0.113253
-0.00879867 -0.151127 0.113257
-0.00858788 -0.151272 0.113207
-0.00837748 -0.151422 0.113173
-0.00816825 -0.15159 0.11318
-0.00795926 -0.151764 0.113203
-0.00774977 -0.151933 0.113216
-0.00754051 -0.152108 0.113241
-0.00733125 -0.152288 0.113278
-0.00712203 -0.152474 0.113331
-0.00691252 -0.152658 0.113377
-0.00670316 -0.152853 0.11345
-0.0064942 -0.153069 0.113577
-0.00628508 -0.153294 0.113722
-0.00607561 -0.153527 0.113887
-0.00586563 -0.153762 0.114055
-0.00565509 -0.154001 0.114233
-0.00544431 -0.154258 0.114451
-0.00523261 -0.154511 0.114661
-0.00502053 -0.154787 0.114924
-0.00480778 -0.155107 0.115292
-0.00459389 -0.155438 0.115682
-0.00437886 -0.155747 0.116018
-0.00416277 -0.156045 0.116328
-0.00394603 -0.156311 0.116558
-0.016118 -0.147295 0.118701
-0.0158904 -0.147396 0.118513
-0.015665 -0.147506 0.118351
-0.0154357 -0.147594 0.118129
-0.0152106 -0.1477 0.117958
-0.0149843 -0.147798 0.117766
-0.014753 -0.147866 0.117493
-0.0145189 -0.147915 0.117167
-0.0142826 -0.147947 0.116795
-0.0140448 -0.147964 0.116386
-0.0138111 -0.147997 0.116024
-0.0135784 -0.148031 0.115665
-0.0133502 -0.148086 0.115365
-0.0131228 -0.148142 0.115068
-0.0129005 -0.148225 0.114847
-0.0126796 -0.148314 0.114644
-0.0124626 -0.148426 0.114502
-0.012246 -0.148538 0.114363
-0.0120312 -0.148662 0.114254
-0.0118159 -0.148779 0.11413
-0.0115974 -0.14887 0.113934
-0.0113793 -0.148961 0.113741
-0.0111606 -0.149041 0.11352
-0.0109443 -0.149138 0.113344
-0.01073 -0.149249 0.113205
-0.0105197 -0.149394 0.113157
-0.0103095 -0.14954 0.113111
-0.010102 -0.149712 0.113132
-0.00989478 -0.14989 0.11317
-0.00968761 -0.15007 0.113213
-0.00948134 -0.150263 0.113287
-0.00927454 -0.150454 0.113357
-0.00906614 -0.150628 0.113382
-0.00885617 -0.150785 0.113363
-0.0086461 -0.150941 0.113341
-0.00843526 -0.151086 0.113292
-0.00822485 -0.151236 0.113256
-0.00801543 -0.151404 0.113264
-0.0078062 -0.151578 0.113289
-0.00759698 -0.151754 0.113316
-0.00738759 -0.151929 0.113344
-0.0071784 -0.152115 0.113395
-0.00696897 -0.152301 0.113448
-0.00675918 -0.152484 0.113493
-0.00654981 -0.152685 0.11358
-0.00634038 -0.152896 0.113693
-0.00613079 -0.153114 0.113823
-0.00592087 -0.153341 0.113974
-0.00571045 -0.153575 0.114138
-0.00549959 -0.153808 0.114303
-0.00528846 -0.154071 0.114536
-0.00507654 -0.154326 0.114751
-0.004864 -0.154602 0.115016
-0.00465075 -0.154916 0.115369
-0.00443634 -0.155237 0.115739
-0.0042209 -0.155544 0.116071
-0.00400435 -0.155849 0.116398
-0.00378704 -0.156129 0.116662
-0.0155041 -0.147277 0.118339
-0.0152776 -0.147378 0.118153
-0.015055 -0.147497 0.118017
-0.0148308 -0.147605 0.117853
-0.0145999 -0.147676 0.117583
-0.014367 -0.147731 0.117275
-0.014133 -0.147775 0.116934
-0.0138962 -0.147797 0.116538
-0.0136644 -0.147841 0.116204
-0.0134334 -0.147886 0.115872
-0.0132054 -0.147942 0.115574
-0.012978 -0.147999 0.115278
-0.0127564 -0.148087 0.115069
-0.0125345 -0.148171 0.11485
-0.0123174 -0.148283 0.114708
-0.0121004 -0.148395 0.114567
-0.0118855 -0.148518 0.114458
-0.0116698 -0.148635 0.114332
-0.0114519 -0.148732 0.11415
-0.0112334 -0.148819 0.113947
-0.0110152 -0.148905 0.113739
-0.0107986 -0.149002 0.113561
-0.0105831 -0.149102 0.113394
-0.0103713 -0.149236 0.113315
-0.0101603 -0.149376 0.113252
-0.00995139 -0.149536 0.113244
-0.00974352 -0.149709 0.113268
-0.00953615 -0.149889 0.113311
-0.00932914 -0.150076 0.113371
-0.00912169 -0.150261 0.113425
-0.00891307 -0.150435 0.113449
-0.00870301 -0.150591 0.113428
-0.00849283 -0.150747 0.113406
-0.00828272 -0.150903 0.113384
-0.00807253 -0.151059 0.113364
-0.00786298 -0.151227 0.113373
-0.00765374 -0.151402 0.113399
-0.00744461 -0.151584 0.113443
-0.00723501 -0.151761 0.113472
-0.0070256 -0.151947 0.113525
-0.00681611 -0.152138 0.113592
-0.00660631 -0.152327 0.113649
-0.00639644 -0.152522 0.113723
-0.00618655 -0.152728 0.113823
-0.0059765 -0.152946 0.113953
-0.00576603 -0.153161 0.114075
-0.00555528 -0.153389 0.114225
-0.00534413 -0.153627 0.114403
-0.00513266 -0.153896 0.114653
-0.0049204 -0.154158 0.114885
-0.00470748 -0.154446 0.11518
-0.00449364 -0.154758 0.115528
-0.00427864 -0.155065 0.115866
-0.00406265 -0.15537 0.116194
-0.00384006 -0.15623 0.117859
-0.0153457 -0.147061 0.118361
-0.0151226 -0.147179 0.118222
-0.0149009 -0.147303 0.1181
-0.0146772 -0.147413 0.117941
-0.0144482 -0.147494 0.1177
-0.0142167 -0.147556 0.117409
-0.013984 -0.147607 0.117086
-0.0137486 -0.147637 0.116708
-0.0135175 -0.147686 0.116386
-0.0132865 -0.14773 0.116052
-0.0130592 -0.147792 0.115766
-0.012832 -0.147849 0.115471
-0.0126102 -0.147937 0.115262
-0.0123877 -0.148017 0.115029
-0.0121702 -0.148128 0.114884
-0.0119525 -0.148235 0.114729
-0.0117365 -0.148353 0.114603
-0.0115201 -0.148464 0.114461
-0.0113027 -0.148565 0.11429
-0.0110841 -0.148653 0.114087
-0.0108661 -0.14874 0.113883
-0.0106502 -0.148844 0.113722
-0.010435 -0.148949 0.113566
-0.0102225 -0.149077 0.113471
-0.0100107 -0.14921 0.113391
-0.00980097 -0.149364 0.113366
-0.00959246 -0.149531 0.113375
-0.00938493 -0.149712 0.113419
-0.00917771 -0.149899 0.11348
-0.00897003 -0.150084 0.113534
-0.00876114 -0.150257 0.113556
-0.00855097 -0.150413 0.113534
-0.00834034 -0.150564 0.113499
-0.00813012 -0.15072 0.113478
-0.00791986 -0.150877 0.113459
-0.00771016 -0.151046 0.11347
-0.00750097 -0.151227 0.113511
-0.00729194 -0.151415 0.113569
-0.00708234 -0.151597 0.113613
-0.00687299 -0.151789 0.113681
-0.00666351 -0.151986 0.113763
-0.00645337 -0.152176 0.113823
-0.00624297 -0.152365 0.113883
-0.00603254 -0.152565 0.113967
-0.00582207 -0.152777 0.114082
-0.00561106 -0.15298 0.114173
-0.00539988 -0.153201 0.11431
-0.00518854 -0.153451 0.114515
-0.00497675 -0.153727 0.114785
-0.00476412 -0.153997 0.115035
-0.00455061 -0.15429 0.115343
-0.0043361 -0.1546 0.115689
-0.00412071 -0.154895 0.115998
-0.00390418 -0.155193 0.11631
-0.0149675 -0.146979 0.118291
-0.014749 -0.14712 0.118215
-0.0145267 -0.147239 0.118081
-0.0142992 -0.147328 0.11786
-0.0140679 -0.147391 0.11757
-0.0138361 -0.147447 0.117262
-0.0136011 -0.147479 0.116886
-0.0133701 -0.147529 0.116565
-0.0131393 -0.147574 0.116232
-0.0129119 -0.147636 0.115945
-0.0126847 -0.147693 0.115649
-0.0124629 -0.147782 0.115438
-0.0122395 -0.147856 0.115192
-0.0120219 -0.147967 0.115044
-0.0118033 -0.148068 0.114874
-0.0115865 -0.14818 0.114731
-0.0113694 -0.148287 0.114574
-0.0111517 -0.148386 0.114399
-0.0109327 -0.14847 0.114183
-0.0107152 -0.148562 0.113992
-0.0104996 -0.148667 0.113835
-0.0102845 -0.148774 0.113683
-0.010072 -0.148902 0.113587
-0.00985983 -0.149034 0.113503
-0.00964957 -0.149183 0.113464
-0.00944076 -0.149349 0.113472
-0.00923311 -0.149531 0.113517
-0.00902571 -0.149718 0.113578
-0.00881791 -0.149903 0.113633
-0.00860889 -0.150076 0.113655
-0.00839849 -0.150232 0.113635
-0.00818776 -0.150383 0.113599
-0.00797746 -0.15054 0.113579
-0.00776736 -0.150703 0.113574
-0.00755786 -0.150878 0.113601
-0.00734873 -0.151064 0.113656
-0.00713968 -0.151257 0.113727
-0.00693001 -0.151444 0.113785
-0.00672051 -0.151643 0.113869
-0.00651078 -0.151842 0.113954
-0.0063003 -0.152031 0.114014
-0.00608961 -0.152221 0.114074
-0.00587861 -0.152414 0.114143
-0.00566764 -0.152619 0.114239
-0.00545612 -0.152815 0.114313
-0.00524462 -0.153035 0.114449
-0.00503297 -0.153286 0.114657
-0.0048207 -0.153569 0.114944
-0.0046075 -0.15384 0.115198
-0.00439355 -0.154134 0.115508
-0.00417844 -0.154444 0.115856
-0.0039624 -0.154739 0.116165
-0.00374531 -0.155037 0.116479
-0.0146013 -0.14696 0.118396
-0.0143775 -0.147072 0.11824
-0.0141513 -0.147168 0.118039
-0.0139188 -0.147226 0.117732
-0.0136873 -0.147283 0.117426
-0.013454 -0.147325 0.117078
-0.013224 -0.147381 0.116771
-0.0129932 -0.147427 0.116438
-0.0127643 -0.147479 0.116123
-0.012537 -0.147536 0.115824
-0.0123136 -0.147615 0.115586
-0.0120895 -0.147684 0.115323
-0.0118704 -0.147784 0.115146
-0.0116518 -0.147885 0.114972
-0.0114337 -0.147987 0.114802
-0.0112159 -0.148088 0.114631
-0.0109977 -0.148182 0.114441
-0.0107794 -0.14827 0.114235
-0.010562 -0.148363 0.114045
-0.0103471 -0.148474 0.113903
-0.0101326 -0.148587 0.113768
-0.00992052 -0.148721 0.113688
-0.00970855 -0.148854 0.113605
-0.00949802 -0.149002 0.113565
-0.00928913 -0.149169 0.113572
-0.00908127 -0.14935 0.113618
-0.00887363 -0.149537 0.113679
-0.00866567 -0.149724 0.113737
-0.00845686 -0.149902 0.113774
-0.00824648 -0.150059 0.113754
-0.00803597 -0.150216 0.113733
-0.00782567 -0.150377 0.113726
-0.00761568 -0.150546 0.113736
-0.00740562 -0.150715 0.113748
-0.00719651 -0.150907 0.113816
-0.00698716 -0.1511 0.113889
-0.00677726 -0.151289 0.113949
-0.00656772 -0.151493 0.114049
-0.00635773 -0.151699 0.114149
-0.00614689 -0.151889 0.114211
-0.00593581 -0.152077 0.114268
-0.00572444 -0.152264 0.11432
-0.00551285 -0.152456 0.114386
-0.00530099 -0.152646 0.114444
-0.00508917 -0.152866 0.114578
-0.00487699 -0.153117 0.114788
-0.00466429 -0.1534 0.115077
-0.00445071 -0.153678 0.115349
-0.00423606 -0.153977 0.115673
-0.00402037 -0.154288 0.116023
-0.00380377 -0.154583 0.116334
-0.00358598 -0.154888 0.116666
-0.0144592 -0.146832 0.11867
-0.0142314 -0.146923 0.118453
-0.0140053 -0.147021 0.118256
-0.0137699 -0.147062 0.117901
-0.0135374 -0.147114 0.117578
-0.013305 -0.147162 0.117244
-0.0130761 -0.147225 0.116954
-0.0128454 -0.147271 0.116621
-0.0126171 -0.147327 0.116316
-0.0123897 -0.147384 0.116014
-0.0121655 -0.147457 0.115759
-0.0119406 -0.147521 0.11548
-0.0117206 -0.147615 0.115287
-0.0115011 -0.14771 0.115097
-0.0112824 -0.147807 0.114913
-0.0110635 -0.147898 0.114713
-0.0108454 -0.147993 0.114523
-0.0106269 -0.14808 0.114315
-0.0104103 -0.148178 0.114138
-0.0101958 -0.148295 0.11401
-0.00998259 -0.14842 0.113905
-0.00977092 -0.148559 0.113841
-0.00955935 -0.148699 0.113775
-0.00934868 -0.148848 0.113736
-0.00913916 -0.14901 0.113732
-0.00893058 -0.149185 0.113761
-0.00872225 -0.149367 0.113808
-0.00851359 -0.149548 0.113851
-0.00830468 -0.149727 0.113889
-0.00809412 -0.149884 0.113871
-0.00788378 -0.150047 0.113865
-0.00767399 -0.150219 0.113886
-0.0074643 -0.150399 0.113924
-0.00725397 -0.150569 0.113938
-0.00704479 -0.150767 0.114023
-0.00683528 -0.150965 0.114108
-0.00662506 -0.151155 0.11417
-0.00641489 -0.151355 0.114258
-0.0062045 -0.15156 0.114359
-0.00599335 -0.15175 0.114418
-0.00578166 -0.151927 0.114447
-0.00556978 -0.152108 0.114484
-0.0053578 -0.152294 0.114535
-0.00514568 -0.152483 0.114593
-0.00493343 -0.152704 0.114727
-0.0047209 -0.15296 0.114952
-0.00450767 -0.153244 0.115242
-0.00429348 -0.153532 0.11554
-0.00407832 -0.153831 0.115865
-0.00386181 -0.154148 0.116232
-0.00364455 -0.154444 0.116544
-0.0143312 -0.146784 0.119172
-0.0140976 -0.146846 0.118871
-0.0138644 -0.146905 0.118564
-0.0136259 -0.14693 0.118158
-0.0133909 -0.146967 0.117792
-0.0131586 -0.147015 0.117457
-0.0129288 -0.147073 0.117153
-0.0126974 -0.147115 0.116806
-0.012469 -0.147171 0.116499
-0.0122416 -0.147227 0.116194
-0.0120158 -0.14729 0.115909
-0.0117917 -0.147359 0.115643
-0.0115708 -0.147448 0.115433
-0.0113506 -0.147537 0.115226
-0.0111311 -0.147628 0.115024
-0.0109116 -0.147714 0.11481
-0.0106928 -0.147803 0.114604
-0.0104746 -0.147891 0.114397
-0.010258 -0.14799 0.114222
-0.0100437 -0.148108 0.114096
-0.0098314 -0.148243 0.114019
-0.00962019 -0.148389 0.11397
-0.00940902 -0.148534 0.11392
-0.00919829 -0.148685 0.113884
-0.0089889 -0.148851 0.113892
-0.00877996 -0.149026 0.113919
-0.0085713 -0.149207 0.113963
-0.00836235 -0.149387 0.114004
-0.00815349 -0.149571 0.114055
-0.00794275 -0.149729 0.114037
-0.00773252 -0.149897 0.114048
-0.00752247 -0.150071 0.114072
-0.00731259 -0.150253 0.114115
-0.00710211 -0.150424 0.114131
-0.00689271 -0.150627 0.114228
-0.00668252 -0.15082 0.114301
-0.00647201 -0.151009 0.114362
-0.00626149 -0.151209 0.114449
-0.00605055 -0.151408 0.114535
-0.00583878 -0.151586 0.114565
-0.0056267 -0.151757 0.114578
-0.00541466 -0.151938 0.114614
-0.00520236 -0.152119 0.114653
-0.00499006 -0.152315 0.114726
-0.00477748 -0.152541 0.114877
-0.00456461 -0.152809 0.11513
-0.00435073 -0.153099 0.115436
-0.0041359 -0.153398 0.115764
-0.00391996 -0.153698 0.11609
-0.00370293 -0.154014 0.116456
-0.0034849 -0.15431 0.11677
-0.0142081 -0.146766 0.119766
-0.0139638 -0.146771 0.1193
-0.0137234 -0.146792 0.11888
-0.0134818 -0.146798 0.118421
-0.0132447 -0.146824 0.118019
-0.0130116 -0.146867 0.11767
-0.0127819 -0.146927 0.117367
-0.0125505 -0.146969 0.117018
-0.0123213 -0.147019 0.116694
-0.012093 -0.14707 0.116373
-0.0118666 -0.147128 0.116074
-0.0116426 -0.147198 0.115809
-0.0114217 -0.147287 0.115599
-0.0112014 -0.147377 0.115391
-0.0109818 -0.147467 0.115186
-0.0107615 -0.147547 0.114953
-0.0105427 -0.147635 0.114746
-0.0103245 -0.147724 0.114539
-0.0101085 -0.14783 0.11438
-0.0098942 -0.147949 0.114258
-0.00968224 -0.148089 0.114195
-0.00947129 -0.14824 0.11416
-0.00926035 -0.148391 0.114125
-0.0090494 -0.148542 0.11409
-0.0088397 -0.148709 0.114097
-0.00863005 -0.148878 0.114108
-0.00842023 -0.149047 0.114122
-0.00821066 -0.149221 0.114147
-0.00800111 -0.1494 0.114184
-0.00778985 -0.149553 0.114153
-0.00757981 -0.149727 0.114178
-0.00737012 -0.149912 0.114231
-0.00716028 -0.1501 0.114292
-0.00694996 -0.150284 0.11434
-0.00674045 -0.150492 0.114452
-0.00652987 -0.150685 0.114521
-0.00631874 -0.150868 0.114566
-0.00610761 -0.151062 0.114638
-0.00589623 -0.151255 0.114708
-0.00568419 -0.151431 0.114735
-0.00547181 -0.151601 0.114745
-0.00525949 -0.151787 0.114795
-0.00504699 -0.15197 0.114836
-0.00483433 -0.152173 0.114927
-0.00462144 -0.152411 0.115107
-0.00440781 -0.152686 0.115381
-0.00419328 -0.152978 0.115692
-0.00397767 -0.15329 0.116052
-0.00376101 -0.15359 0.116381
-0.0035432 -0.153895 0.11672
-0.00332469 -0.154184 0.117015
-0.0143133 -0.146649 0.120569
-0.0140746 -0.146695 0.120214
-0.0138314 -0.146709 0.119768
-0.0135874 -0.14671 0.11929
-0.0133436 -0.146705 0.118794
-0.0131028 -0.146709 0.118328
-0.0128685 -0.146746 0.117957
-0.0126361 -0.146789 0.117608
-0.0124032 -0.146821 0.11723
-0.0121731 -0.146866 0.116889
-0.0119456 -0.146922 0.11658
-0.0117185 -0.146976 0.116267
-0.0114952 -0.147052 0.116018
-0.0112743 -0.147142 0.11581
-0.011054 -0.147233 0.115603
-0.0108336 -0.147318 0.115382
-0.0106137 -0.147402 0.115161
-0.0103949 -0.147491 0.114952
-0.0101771 -0.147585 0.11476
-0.00996146 -0.147697 0.114616
-0.00974747 -0.147821 0.114508
-0.00953528 -0.147963 0.114445
-0.00932402 -0.148114 0.11441
-0.00911276 -0.148265 0.114375
-0.00890149 -0.148416 0.11434
-0.00869101 -0.148578 0.114333
-0.00848053 -0.148741 0.114329
-0.00827044 -0.14891 0.114342
-0.00806018 -0.149079 0.114353
-0.00784996 -0.149253 0.114377
-0.00763845 -0.149405 0.114344
-0.00742831 -0.149584 0.11438
-0.00721835 -0.14977 0.114436
-0.00700817 -0.149959 0.114499
-0.00679753 -0.150143 0.114548
-0.00658737 -0.150346 0.114645
-0.00637623 -0.150532 0.114699
-0.00616462 -0.15071 0.114729
-0.00595305 -0.150897 0.114785
-0.0057412 -0.151085 0.11484
-0.00552894 -0.151261 0.114865
-0.00531641 -0.15143 0.114875
-0.00510386 -0.151617 0.114927
-0.00489113 -0.151806 0.114984
-0.00467825 -0.152021 0.115105
-0.00446487 -0.152276 0.11533
-0.00425064 -0.152571 0.115652
-0.00403531 -0.152877 0.116
-0.00381862 -0.153203 0.116395
-0.00360104 -0.153509 0.11674
-0.00338266 -0.153802 0.117049
-0.00316372 -0.154071 0.117297
-0.0143998 -0.146425 0.121071
-0.0141677 -0.146513 0.120834
-0.0139319 -0.146576 0.120525
-0.0136923 -0.146611 0.120138
-0.0134503 -0.146626 0.119695
-0.013207 -0.146625 0.119208
-0.0129648 -0.146622 0.118719
-0.0127283 -0.146647 0.118313
-0.0124926 -0.146669 0.117901
-0.0122578 -0.14669 0.117487
-0.0120269 -0.146729 0.117127
-0.0117984 -0.14678 0.116803
-0.0115714 -0.146834 0.11649
-0.0113494 -0.146921 0.11627
-0.0111298 -0.147023 0.116093
-0.0109099 -0.147119 0.115901
-0.0106899 -0.147211 0.115696
-0.0104704 -0.147301 0.115489
-0.0102513 -0.147391 0.115282
-0.0100333 -0.147486 0.11509
-0.00981741 -0.147598 0.114946
-0.00960306 -0.147722 0.114836
-0.00938991 -0.147858 0.114759
-0.00917813 -0.148009 0.114723
-0.00896606 -0.148156 0.114673
-0.00875405 -0.148302 0.114624
-0.00854237 -0.148454 0.114589
-0.00833116 -0.148611 0.114569
-0.00812027 -0.148774 0.114565
-0.00790934 -0.148938 0.114564
-0.00769862 -0.149107 0.114573
-0.00748706 -0.149265 0.114554
-0.00727677 -0.149447 0.114601
-0.0070664 -0.149634 0.114657
-0.00685612 -0.149828 0.114735
-0.00664534 -0.150018 0.114799
-0.00643455 -0.150216 0.114881
-0.00622281 -0.150396 0.114919
-0.00601068 -0.150567 0.114932
-0.00579864 -0.150749 0.114974
-0.00558625 -0.150926 0.115002
-0.0053738 -0.151108 0.115042
-0.00516111 -0.151289 0.115082
-0.00494835 -0.151489 0.115166
-0.00473526 -0.151685 0.115242
-0.00452183 -0.151922 0.11542
-0.00430771 -0.152196 0.115691
-0.00409258 -0.152505 0.116049
-0.00387621 -0.15282 0.116421
-0.00365848 -0.153152 0.116832
-0.00343992 -0.153452 0.117162
-0.00322097 -0.153727 0.117425
-0.00300195 -0.153971 0.117611
-0.0140186 -0.146359 0.121046
-0.0137852 -0.146436 0.120778
-0.0135498 -0.146497 0.120463
-0.0133115 -0.146535 0.120083
-0.0130702 -0.146548 0.119634
-0.0128276 -0.146544 0.11914
-0.0125906 -0.146567 0.118725
-0.0123519 -0.146571 0.11826
-0.0121153 -0.146581 0.117811
-0.0118826 -0.146608 0.117417
-0.0116539 -0.146659 0.117088
-0.0114268 -0.146714 0.116777
-0.0112054 -0.146808 0.116573
-0.0109862 -0.146916 0.116411
-0.0107674 -0.147023 0.11625
-0.0105472 -0.147116 0.116047
-0.010328 -0.147213 0.115857
-0.0101087 -0.147304 0.115652
-0.00989034 -0.1474 0.11546
-0.00967305 -0.147501 0.115286
-0.00945768 -0.14762 0.115159
-0.00924317 -0.147745 0.11505
-0.00903063 -0.147891 0.114998
-0.00881771 -0.148032 0.114934
-0.00860539 -0.148178 0.114883
-0.00839333 -0.148329 0.114846
-0.00818172 -0.148485 0.114823
-0.00797069 -0.148653 0.114832
-0.00775976 -0.148823 0.114844
-0.00754862 -0.148993 0.114857
-0.00733697 -0.149155 0.11485
-0.00712652 -0.149344 0.114913
-0.00691536 -0.149526 0.114956
-0.00670443 -0.149716 0.115021
-0.00649309 -0.149905 0.115081
-0.00628162 -0.150096 0.115147
-0.00606929 -0.150271 0.11517
-0.00585675 -0.150441 0.115182
-0.0056443 -0.150624 0.115225
-0.00543161 -0.150801 0.115253
-0.00521884 -0.150994 0.115322
-0.00500579 -0.151189 0.115395
-0.00479261 -0.151397 0.1155
-0.00457891 -0.151607 0.11561
-0.00436483 -0.151855 0.115818
-0.00414984 -0.152137 0.11611
-0.00393358 -0.152454 0.116489
-0.00371603 -0.152777 0.116879
-0.00349733 -0.153103 0.117278
-0.00327801 -0.153395 0.117588
-0.00305857 -0.15365 0.117801
-0.00283931 -0.153876 0.117939
-0.0136337 -0.14627 0.120956
-0.0134026 -0.146358 0.120718
-0.0131689 -0.146425 0.12042
-0.0129307 -0.146457 0.120025
-0.0126906 -0.146471 0.119577
-0.0124532 -0.146494 0.119161
-0.0122126 -0.146487 0.11866
-0.0119742 -0.146485 0.118174
-0.0117403 -0.146506 0.117759
-0.0115107 -0.146551 0.117414
-0.0112842 -0.146613 0.117117
-0.0110626 -0.146708 0.116916
-0.0108442 -0.146826 0.116783
-0.0106257 -0.14694 0.116636
-0.0104057 -0.147039 0.116449
-0.0101868 -0.147142 0.116275
-0.00996753 -0.147238 0.116083
-0.00974875 -0.147334 0.11589
-0.00953046 -0.14743 0.115697
-0.00931404 -0.147542 0.115552
-0.00909808 -0.147656 0.11541
-0.00888451 -0.147796 0.115341
-0.00867083 -0.147931 0.11526
-0.0084583 -0.148083 0.115223
-0.00824548 -0.148229 0.115172
-0.00803304 -0.14838 0.115135
-0.00782195 -0.148553 0.115156
-0.00761081 -0.148729 0.115183
-0.00739925 -0.148901 0.115201
-0.00718775 -0.149076 0.115226
-0.00697715 -0.149276 0.11532
-0.00676524 -0.149454 0.11535
-0.00655344 -0.149638 0.1154
-0.00634145 -0.149826 0.115458
-0.00612912 -0.150012 0.115509
-0.00591622 -0.150182 0.115518
-0.00570326 -0.150358 0.115544
-0.00549048 -0.150552 0.115615
-0.00527725 -0.150735 0.115659
-0.005064 -0.150947 0.115776
-0.0048504 -0.15116 0.115895
-0.00463629 -0.151371 0.116008
-0.0044218 -0.151588 0.116135
-0.00420676 -0.151843 0.11636
-0.00399059 -0.152125 0.116652
-0.00377336 -0.152434 0.117009
-0.00355464 -0.152756 0.117399
-0.00333509 -0.153063 0.117749
-0.00311529 -0.153336 0.11801
-0.00289548 -0.153572 0.118175
-0.00267587 -0.153785 0.118283
-0.013475 -0.146064 0.121018
-0.0132514 -0.146196 0.120907
-0.0130221 -0.14629 0.120688
-0.012788 -0.146351 0.120373
-0.0125506 -0.146383 0.119978
-0.0123139 -0.146413 0.119576
-0.0120718 -0.146397 0.119044
-0.0118324 -0.146389 0.11854
-0.0115982 -0.146409 0.118121
-0.0113691 -0.14646 0.117789
-0.0111425 -0.146523 0.117494
-0.010921 -0.146623 0.117307
-0.0107024 -0.146743 0.117175
-0.0104832 -0.146856 0.117026
-0.010263 -0.146955 0.116837
-0.0100446 -0.147069 0.11669
-0.00982504 -0.147166 0.116498
-0.00960588 -0.147262 0.116304
-0.0093865 -0.147352 0.116093
-0.00916954 -0.147463 0.115943
-0.00895225 -0.147565 0.115769
-0.00873784 -0.1477 0.115685
-0.00852361 -0.147836 0.115603
-0.00831108 -0.147993 0.11558
-0.00809755 -0.148135 0.115518
-0.00788461 -0.148287 0.115482
-0.00767334 -0.148466 0.115518
-0.00746191 -0.148648 0.115561
-0.00725024 -0.148827 0.115597
-0.00703865 -0.149015 0.115657
-0.00682792 -0.149228 0.115783
-0.00661534 -0.149406 0.115814
-0.00640272 -0.14959 0.115861
-0.0061899 -0.149772 0.115903
-0.00597688 -0.149958 0.115954
-0.00576326 -0.150129 0.115965
-0.0055498 -0.150312 0.116008
-0.00533636 -0.150514 0.116098
-0.00512247 -0.150704 0.11616
-0.00490845 -0.150923 0.116294
-0.00469404 -0.151144 0.116432
-0.00447908 -0.151356 0.116548
-0.00426365 -0.151578 0.116687
-0.00404749 -0.151839 0.116925
-0.00383029 -0.152116 0.117205
-0.00361199 -0.152413 0.117531
-0.00339232 -0.152728 0.117903
-0.00317211 -0.153016 0.118204
-0.00295183 -0.15327 0.118417
-0.00273188 -0.153488 0.118537
-0.00251179 -0.153695 0.118628
-0.0133154 -0.145853 0.121067
-0.0130935 -0.145995 0.120984
-0.0128671 -0.146108 0.120818
-0.0126364 -0.14619 0.120563
-0.0124032 -0.14625 0.120246
-0.0121674 -0.146286 0.119862
-0.0119268 -0.146281 0.119359
-0.0116888 -0.146283 0.118883
-0.0114554 -0.146311 0.118481
-0.0112262 -0.146363 0.118152
-0.0110005 -0.146437 0.117885
-0.0107787 -0.146538 0.117697
-0.010559 -0.146652 0.117548
-0.0103394 -0.146765 0.117396
-0.0101193 -0.146869 0.11722
-0.00990004 -0.146978 0.11706
-0.00968067 -0.147081 0.116882
-0.00946105 -0.147178 0.116687
-0.00924091 -0.147262 0.116461
-0.0090231 -0.147368 0.116294
-0.00880538 -0.147471 0.116119
-0.00859019 -0.147601 0.116021
-0.0083756 -0.147737 0.11594
-0.00816303 -0.1479 0.115933
-0.00794907 -0.148044 0.115873
-0.0077361 -0.148203 0.115854
-0.00752427 -0.148382 0.11589
-0.0073128 -0.148575 0.115963
-0.00710076 -0.148761 0.116018
-0.00688915 -0.148962 0.116111
-0.00667763 -0.149177 0.11624
-0.00646455 -0.14936 0.116284
-0.00625104 -0.149538 0.116315
-0.00603749 -0.149719 0.116354
-0.00582386 -0.149907 0.116407
-0.00560967 -0.150085 0.116437
-0.00539568 -0.150276 0.116499
-0.00518154 -0.150489 0.116618
-0.00496685 -0.150687 0.1167
-0.00475205 -0.150919 0.116867
-0.00453662 -0.151147 0.117022
-0.00432066 -0.151363 0.117149
-0.00410429 -0.151585 0.117285
-0.00388705 -0.151844 0.11752
-0.00366883 -0.152112 0.117774
-0.00344973 -0.15239 0.118054
-0.00322933 -0.152686 0.118376
-0.00300871 -0.152949 0.118612
-0.00278821 -0.153179 0.118765
-0.00256819 -0.15338 0.11884
-0.00234797 -0.153575 0.118902
-0.00227215 -0.154439 0.120072
-0.00212698 -0.153784 0.118997
-0.012935 -0.14579 0.12105
-0.0127093 -0.145907 0.120896
-0.0124798 -0.145997 0.120662
-0.0122483 -0.146069 0.120379
-0.0120145 -0.146118 0.12003
-0.0117756 -0.146123 0.119556
-0.0115392 -0.146138 0.119112
-0.0113075 -0.146179 0.118746
-0.0110798 -0.146244 0.118451
-0.0108558 -0.146333 0.118228
-0.0106343 -0.146439 0.118053
-0.0104141 -0.146553 0.1179
-0.010194 -0.146666 0.117747
-0.00997358 -0.146769 0.117569
-0.00975361 -0.146875 0.117395
-0.00953435 -0.146984 0.117234
-0.00931458 -0.147081 0.11704
-0.00909412 -0.147167 0.116814
-0.00887635 -0.147278 0.11666
-0.00865884 -0.147387 0.116501
-0.00844283 -0.147514 0.116393
-0.0082282 -0.147655 0.116326
-0.00801567 -0.147829 0.116346
-0.00780158 -0.147979 0.116302
-0.00758837 -0.148144 0.116301
-0.00737617 -0.148329 0.116351
-0.00716423 -0.148527 0.116437
-0.00695149 -0.148714 0.116491
-0.0067391 -0.148916 0.116588
-0.00652658 -0.149127 0.116705
-0.00631282 -0.14931 0.116749
-0.00609838 -0.149482 0.116763
-0.00588399 -0.149659 0.116789
-0.0056697 -0.149847 0.116844
-0.00545509 -0.150032 0.11689
-0.00524037 -0.15023 0.11697
-0.00502548 -0.15045 0.117107
-0.00481015 -0.15066 0.117216
-0.00459437 -0.150892 0.117385
-0.00437807 -0.151115 0.117528
-0.00416129 -0.151332 0.117653
-0.00394405 -0.151553 0.117788
-0.00372592 -0.151803 0.117997
-0.00350702 -0.152059 0.118222
-0.00328717 -0.152325 0.118469
-0.00306625 -0.152601 0.118742
-0.00284546 -0.152845 0.11893
-0.00262487 -0.153058 0.119037
-0.00240479 -0.153246 0.11908
-0.00218425 -0.15344 0.119138
-0.00196315 -0.153642 0.119215
-0.012551 -0.145704 0.120968
-0.0123221 -0.145797 0.120742
-0.0120918 -0.145877 0.12048
-0.0118581 -0.145926 0.120129
-0.0116203 -0.145937 0.119671
-0.0113856 -0.145963 0.119258
-0.0111556 -0.146017 0.118927
-0.0109295 -0.146095 0.118668
-0.0107067 -0.146196 0.118478
-0.0104856 -0.146307 0.118316
-0.0102651 -0.146421 0.118164
-0.0100448 -0.146534 0.11801
-0.00982465 -0.146644 0.117847
-0.00960501 -0.146755 0.117688
-0.00938651 -0.146875 0.117557
-0.00916733 -0.146984 0.117392
-0.00894799 -0.147086 0.117212
-0.00873065 -0.147209 0.117089
-0.00851353 -0.14733 0.116962
-0.00829711 -0.147457 0.116853
-0.00808188 -0.1476 0.116787
-0.00786859 -0.147773 0.116805
-0.00765394 -0.147923 0.116761
-0.00744014 -0.148091 0.116763
-0.00722712 -0.148277 0.116816
-0.00701453 -0.148475 0.116901
-0.00680067 -0.148654 0.116936
-0.00658735 -0.148851 0.117016
-0.00637374 -0.149051 0.117104
-0.00615918 -0.149229 0.117133
-0.00594409 -0.149395 0.11713
-0.00572904 -0.149567 0.11714
-0.00551413 -0.149755 0.117195
-0.00529898 -0.149942 0.117245
-0.00508364 -0.150139 0.117324
-0.00486827 -0.150365 0.117476
-0.00465227 -0.150585 0.117614
-0.00443571 -0.150814 0.117771
-0.00421877 -0.151042 0.117928
-0.00400118 -0.151266 0.11807
-0.00378314 -0.151487 0.118206
-0.00356434 -0.151727 0.11839
-0.00334481 -0.151978 0.118599
-0.00312452 -0.152226 0.118801
-0.0029034 -0.152483 0.119024
-0.00268248 -0.152709 0.119165
-0.00246195 -0.152908 0.119238
-0.00224179 -0.153089 0.119263
-0.00202096 -0.153282 0.119319
-0.00179974 -0.153478 0.11938
-0.0121604 -0.145571 0.120746
-0.0119307 -0.145652 0.120486
-0.0116972 -0.145702 0.120137
-0.0114605 -0.145719 0.119693
-0.011227 -0.145752 0.119298
-0.0109987 -0.145817 0.118998
-0.0107734 -0.145901 0.118757
-0.0105514 -0.146009 0.118584
-0.0103309 -0.146126 0.118441
-0.0101111 -0.146247 0.118306
-0.00989141 -0.146366 0.118169
-0.00967272 -0.146492 0.11805
-0.00945431 -0.146619 0.117935
-0.00923672 -0.146751 0.117836
-0.00901822 -0.146871 0.117705
-0.00880031 -0.146996 0.117585
-0.0085836 -0.147131 0.117495
-0.00836639 -0.147259 0.117387
-0.00814992 -0.147393 0.117294
-0.00793434 -0.147539 0.117237
-0.00772007 -0.147706 0.117239
-0.00750478 -0.147858 0.117195
-0.00729068 -0.148031 0.117214
-0.00707688 -0.148214 0.117257
-0.00686316 -0.148406 0.117324
-0.00664845 -0.148578 0.117339
-0.00643405 -0.148762 0.117384
-0.00621913 -0.148941 0.117413
-0.00600387 -0.149112 0.117424
-0.00578822 -0.149273 0.117403
-0.00557257 -0.149433 0.117382
-0.00535717 -0.149615 0.117422
-0.00514162 -0.149806 0.117483
-0.00492591 -0.150005 0.117564
-0.00470995 -0.150225 0.117701
-0.00449352 -0.150451 0.117853
-0.00427658 -0.150674 0.117997
-0.00405906 -0.150903 0.118155
-0.00384091 -0.151132 0.118314
-0.00362229 -0.151361 0.118469
-0.00340302 -0.151597 0.118641
-0.00318285 -0.151846 0.118847
-0.00296227 -0.152087 0.11903
-0.00274113 -0.152326 0.119206
-0.0025202 -0.152538 0.119315
-0.00229954 -0.152731 0.11937
-0.00207966 -0.1529 0.119365
-0.00185889 -0.153087 0.119405
-0.00163777 -0.153277 0.119452
-0.0015549 -0.154166 0.12069
-0.00141632 -0.153469 0.119503
-0.0122281 -0.145258 0.120992
-0.0119981 -0.14534 0.120734
-0.0117686 -0.145422 0.120476
-0.0115351 -0.145468 0.120113
-0.0112994 -0.14549 0.119683
-0.0110664 -0.145524 0.119289
-0.0108388 -0.145594 0.119004
-0.0106138 -0.145679 0.118762
-0.0103932 -0.145796 0.118618
-0.0101734 -0.14592 0.118492
-0.00995487 -0.146052 0.11839
-0.00973681 -0.146188 0.1183
-0.00951958 -0.146331 0.11823
-0.00930216 -0.14647 0.118151
-0.00908579 -0.146619 0.118099
-0.00886854 -0.146757 0.118016
-0.00865131 -0.146895 0.117931
-0.008435 -0.147043 0.117877
-0.00821818 -0.147182 0.117799
-0.00800143 -0.147321 0.11772
-0.00778534 -0.147468 0.117663
-0.00757016 -0.14763 0.117647
-0.00735456 -0.147785 0.117615
-0.00713981 -0.14796 0.117635
-0.00692515 -0.148138 0.117665
-0.00671021 -0.148314 0.117689
-0.00649446 -0.148474 0.117668
-0.00627871 -0.148635 0.117648
-0.00606279 -0.14879 0.117614
-0.00584685 -0.148945 0.117578
-0.00563089 -0.149099 0.117539
-0.00541491 -0.149257 0.117515
-0.00519924 -0.149435 0.11754
-0.00498359 -0.149631 0.117615
-0.00476763 -0.149835 0.11771
-0.00455131 -0.15006 0.117862
-0.00433441 -0.150286 0.118016
-0.00411702 -0.150509 0.118159
-0.00389911 -0.150739 0.11832
-0.00368069 -0.150968 0.118478
-0.00346174 -0.151193 0.118622
-0.00324215 -0.151422 0.118778
-0.00302164 -0.151671 0.118983
-0.00280075 -0.151904 0.119147
-0.00257959 -0.152131 0.119293
-0.00235867 -0.152337 0.119384
-0.00213814 -0.152523 0.119424
-0.00191844 -0.152687 0.119403
-0.00169784 -0.152869 0.119431
-0.00147652 -0.153059 0.119479
-0.00125502 -0.15325 0.119529
-0.0122903 -0.144907 0.121126
-0.012063 -0.14501 0.120929
-0.0118329 -0.14509 0.120664
-0.0116029 -0.145165 0.120384
-0.0113699 -0.145212 0.120023
-0.011137 -0.145251 0.119642
-0.0109056 -0.145295 0.119277
-0.0106785 -0.145365 0.118993
-0.0104541 -0.145454 0.118761
-0.0102334 -0.145571 0.118614
-0.0100144 -0.1457 0.118502
-0.00979653 -0.145838 0.11842
-0.00957976 -0.145987 0.118366
-0.00936315 -0.146137 0.118316
-0.00914684 -0.146288 0.118271
-0.00893082 -0.146445 0.118241
-0.00871479 -0.1466 0.118205
-0.00849853 -0.146753 0.118166
-0.00828352 -0.146924 0.118174
-0.00806759 -0.147081 0.118145
-0.0078511 -0.147231 0.118097
-0.00763478 -0.147383 0.118052
-0.00741906 -0.147545 0.118037
-0.00720291 -0.147701 0.118004
-0.00698713 -0.147865 0.117995
-0.00677168 -0.148038 0.118008
-0.00655541 -0.148193 0.117971
-0.00633863 -0.148335 0.1179
-0.00612196 -0.148472 0.117816
-0.00590548 -0.148615 0.117748
-0.00568907 -0.148758 0.11768
-0.00547299 -0.148911 0.117638
-0.00525681 -0.149064 0.117599
-0.00504106 -0.149241 0.117624
-0.00482506 -0.149432 0.117685
-0.00460887 -0.149636 0.117782
-0.00439237 -0.149857 0.117922
-0.00417519 -0.150089 0.118092
-0.00395768 -0.150306 0.118221
-0.00373941 -0.150535 0.11838
-0.00352073 -0.150763 0.118535
-0.00330158 -0.150987 0.118678
-0.00308194 -0.151211 0.118819
-0.00286123 -0.151453 0.119009
-0.00264042 -0.151679 0.119154
-0.00241929 -0.1519 0.119285
-0.00219849 -0.1521 0.119362
-0.00197796 -0.152286 0.119402
-0.00175798 -0.152455 0.119396
-0.0015371 -0.152643 0.119438
-0.00131612 -0.152827 0.119472
-0.00109422 -0.153024 0.119536
-0.0123468 -0.144517 0.121147
-0.0121212 -0.144633 0.120985
-0.0118948 -0.144739 0.120797
-0.0116659 -0.144824 0.120546
-0.0114362 -0.144899 0.120265
-0.0112043 -0.144949 0.119915
-0.0109738 -0.145005 0.119583
-0.0107438 -0.145056 0.119235
-0.0105171 -0.145128 0.118953
-0.0102929 -0.145216 0.118721
-0.0100724 -0.145332 0.118572
-0.00985296 -0.145456 0.118445
-0.00963528 -0.145595 0.118364
-0.00941926 -0.145749 0.118326
-0.00920374 -0.14591 0.118308
-0.00898835 -0.146073 0.118296
-0.00877329 -0.14624 0.118296
-0.00855836 -0.146411 0.118305
-0.00834319 -0.146581 0.118313
-0.00812846 -0.146758 0.118341
-0.007913 -0.146927 0.118344
-0.00769697 -0.147089 0.118329
-0.00748103 -0.147253 0.118317
-0.00726497 -0.147416 0.118305
-0.00704875 -0.147578 0.118287
-0.00683259 -0.147741 0.118274
-0.00661663 -0.147913 0.118285
-0.00639955 -0.148055 0.118213
-0.00618216 -0.148185 0.118108
-0.0059648 -0.148309 0.117987
-0.00574778 -0.148436 0.117872
-0.00553094 -0.148562 0.117759
-0.0053146 -0.148705 0.117689
-0.0050984 -0.148853 0.117636
-0.00488248 -0.149025 0.117648
-0.00466643 -0.149217 0.117712
-0.00445014 -0.149426 0.117823
-0.00423332 -0.149648 0.117966
-0.00401593 -0.149885 0.11815
-0.0037981 -0.150102 0.118279
-0.0035797 -0.150329 0.118434
-0.00336093 -0.150545 0.118558
-0.00314168 -0.150767 0.118697
-0.00292211 -0.150979 0.118808
-0.00270145 -0.151215 0.11898
-0.00248072 -0.151435 0.119112
-0.00225958 -0.151655 0.119241
-0.00203897 -0.15185 0.119304
-0.0018184 -0.152036 0.119345
-0.0015985 -0.152205 0.119339
-0.00137767 -0.152392 0.119381
-0.00115673 -0.152576 0.119413
-0.000934896 -0.152773 0.119478
-0.000842535 -0.153715 0.120866
-0.000712416 -0.152974 0.119555
-0.0125694 -0.144381 0.121248
-0.0124032 -0.144128 0.121169
-0.0121793 -0.144254 0.121039
-0.0119529 -0.144362 0.120853
-0.0117263 -0.144464 0.120652
-0.0114977 -0.144548 0.120397
-0.0112685 -0.144622 0.120115
-0.0110394 -0.144692 0.119819
-0.0108122 -0.14477 0.119551
-0.0105844 -0.144838 0.119256
-0.0103582 -0.144911 0.118978
-0.0101338 -0.144996 0.118734
-0.00991224 -0.145101 0.118551
-0.00969184 -0.145213 0.118391
-0.00947329 -0.145342 0.118279
-0.00925742 -0.145496 0.118241
-0.00904245 -0.145661 0.118236
-0.00882793 -0.145833 0.11825
-0.00861331 -0.146005 0.118265
-0.00839878 -0.146181 0.118291
-0.00818443 -0.146362 0.11833
-0.0079704 -0.146551 0.118391
-0.00775553 -0.146732 0.118428
-0.00754045 -0.146911 0.11846
-0.00732514 -0.147092 0.118498
-0.00710916 -0.147262 0.118505
-0.00689301 -0.14743 0.118504
-0.00667643 -0.147593 0.118489
-0.00645997 -0.147759 0.118482
-0.00624232 -0.14789 0.118378
-0.00602461 -0.148014 0.118256
-0.00580691 -0.148127 0.118103
-0.00558956 -0.148241 0.117955
-0.00537253 -0.148352 0.117797
-0.00515614 -0.148488 0.117711
-0.00493988 -0.148631 0.117644
-0.00472384 -0.148798 0.117641
-0.00450777 -0.148989 0.117703
-0.00429135 -0.149203 0.117828
-0.00407438 -0.149424 0.11797
-0.00385685 -0.149657 0.118143
-0.00363887 -0.149878 0.118284
-0.00342042 -0.1501 0.118424
-0.00320161 -0.150309 0.118532
-0.00298249 -0.150519 0.118638
-0.00276296 -0.15073 0.118748
-0.00254265 -0.150953 0.118889
-0.00232203 -0.151167 0.119006
-0.00210093 -0.151386 0.119132
-0.00188013 -0.151585 0.119209
-0.00165971 -0.151773 0.119252
-0.00143994 -0.151942 0.119247
-0.0012188 -0.152134 0.119303
-0.000998044 -0.152317 0.119335
-0.000776202 -0.152513 0.119399
-0.00055334 -0.152721 0.119492
-0.0124587 -0.143733 0.121172
-0.0122371 -0.143874 0.121085
-0.0120132 -0.143999 0.12095
-0.0117852 -0.144093 0.120726
-0.0115578 -0.144187 0.120499
-0.0113299 -0.144273 0.120248
-0.011102 -0.144354 0.119987
-0.010875 -0.144436 0.11973
-0.0106508 -0.144536 0.119526
-0.0104259 -0.144626 0.119295
-0.0102006 -0.144707 0.119037
-0.00997637 -0.144792 0.118793
-0.0097542 -0.14489 0.118591
-0.00953277 -0.144991 0.118394
-0.00931287 -0.145103 0.118234
-0.00909646 -0.145251 0.118178
-0.00888114 -0.14541 0.118158
-0.00866625 -0.145577 0.118157
-0.00845206 -0.145754 0.118185
-0.00823806 -0.145935 0.118227
-0.00802431 -0.146123 0.118285
-0.00781086 -0.146322 0.118377
-0.00759691 -0.146518 0.118459
-0.00738195 -0.146703 0.118509
-0.00716704 -0.146891 0.118566
-0.00695106 -0.147064 0.118578
-0.00673475 -0.147232 0.118579
-0.00651789 -0.147389 0.118548
-0.00630114 -0.147549 0.118526
-0.00608339 -0.147676 0.118411
-0.00586565 -0.147796 0.118276
-0.00564799 -0.147904 0.118108
-0.00543078 -0.148017 0.117957
-0.00521385 -0.148126 0.117795
-0.00499755 -0.148262 0.117706
-0.00478136 -0.148409 0.11765
-0.00456538 -0.148581 0.117659
-0.0043492 -0.148771 0.11772
-0.00413266 -0.14898 0.117831
-0.00391558 -0.149199 0.117971
-0.00369788 -0.149426 0.118128
-0.0034797 -0.149647 0.11827
-0.00326124 -0.149864 0.118398
-0.0030424 -0.150073 0.118505
-0.00282355 -0.150271 0.118581
-0.00260423 -0.150474 0.118671
-0.00238422 -0.150685 0.118781
-0.00216396 -0.150892 0.118879
-0.00194315 -0.151105 0.118991
-0.0017225 -0.151304 0.119068
-0.00150193 -0.151496 0.119125
-0.001282 -0.151672 0.119138
-0.00106056 -0.15187 0.11921
-0.000839532 -0.152059 0.119257
-0.00061737 -0.152261 0.119336
-0.000394066 -0.152474 0.119444
-0.0125086 -0.143303 0.121064
-0.0122879 -0.143449 0.120995
-0.0120658 -0.143585 0.120894
-0.0118419 -0.143707 0.12075
-0.0116142 -0.143799 0.120519
-0.0113876 -0.143895 0.120297
-0.0111616 -0.143991 0.12008
-0.0109357 -0.144084 0.119854
-0.0107111 -0.144183 0.119644
-0.010489 -0.144299 0.11949
-0.0102664 -0.144406 0.11931
-0.0100415 -0.144489 0.119057
-0.00981744 -0.144574 0.11881
-0.00959469 -0.144664 0.118584
-0.00937219 -0.144752 0.118351
-0.00915201 -0.144859 0.118173
-0.00893534 -0.145002 0.118103
-0.00871971 -0.145156 0.118068
-0.00850454 -0.145317 0.11805
-0.00829012 -0.145488 0.118064
-0.00807592 -0.145665 0.118094
-0.0078626 -0.145858 0.118169
-0.00764932 -0.146058 0.118262
-0.00743572 -0.146259 0.118359
-0.00722144 -0.146454 0.118438
-0.00700678 -0.146648 0.118513
-0.00679082 -0.14682 0.118526
-0.00657461 -0.146987 0.118524
-0.00635784 -0.147143 0.11849
-0.00614104 -0.147299 0.118454
-0.00592371 -0.147432 0.118357
-0.00570627 -0.147558 0.11824
-0.00548907 -0.147677 0.118104
-0.00527197 -0.147791 0.117953
-0.00505517 -0.147899 0.117787
-0.00483901 -0.148034 0.117696
-0.00462293 -0.148176 0.117625
-0.00440688 -0.148348 0.117637
-0.00419071 -0.148538 0.117698
-0.00397403 -0.148745 0.117805
-0.00375695 -0.14896 0.117931
-0.00353917 -0.149184 0.118084
-0.00332099 -0.149401 0.118214
-0.00310246 -0.149616 0.11834
-0.00288355 -0.149826 0.118449
-0.00266476 -0.150023 0.118524
-0.00244563 -0.15022 0.118597
-0.00222586 -0.150423 0.118687
-0.00200595 -0.150623 0.118768
-0.00178543 -0.150829 0.118863
-0.00156512 -0.151023 0.118926
-0.00134434 -0.151221 0.119
-0.00112418 -0.151403 0.119029
-0.000902843 -0.151602 0.119105
-0.000681454 -0.151797 0.119169
-0.000458928 -0.152005 0.119264
-0.000236054 -0.152212 0.119359
-0.000134345 -0.153188 0.120846
-1.18604e-05 -0.152432 0.119484
-0.0125593 -0.142881 0.120978
-0.0123386 -0.143025 0.120903
-0.0121181 -0.143169 0.120829
-0.0118956 -0.143301 0.120715
-0.0116712 -0.143416 0.120552
-0.0114447 -0.143513 0.120335
-0.01122 -0.14362 0.120148
-0.0109958 -0.143727 0.119963
-0.0107717 -0.143831 0.119768
-0.0105485 -0.143938 0.119586
-0.0103273 -0.144061 0.119449
-0.010105 -0.14417 0.119273
-0.00988105 -0.144258 0.119036
-0.00965716 -0.144342 0.118788
-0.00943454 -0.144432 0.118559
-0.00921188 -0.144515 0.118309
-0.00899183 -0.144621 0.118131
-0.0087749 -0.144759 0.118048
-0.00855904 -0.144909 0.117998
-0.00834392 -0.145069 0.117978
-0.00812957 -0.145239 0.117989
-0.00791512 -0.145411 0.118003
-0.00770156 -0.145599 0.118066
-0.00748829 -0.145798 0.118158
-0.00727446 -0.145993 0.11824
-0.00706017 -0.146188 0.118318
-0.00684561 -0.146381 0.118392
-0.00662983 -0.146552 0.118403
-0.00641367 -0.146718 0.118397
-0.00619728 -0.146878 0.118375
-0.00598059 -0.147032 0.118337
-0.00576377 -0.147177 0.118272
-0.00554678 -0.14731 0.118174
-0.00532985 -0.147436 0.118056
-0.00511305 -0.14755 0.117905
-0.00489649 -0.147659 0.117742
-0.0046804 -0.147794 0.117654
-0.0044645 -0.147948 0.117615
-0.00424853 -0.148127 0.117645
-0.00403211 -0.148323 0.117723
-0.00381538 -0.14853 0.117831
-0.00359814 -0.148737 0.117938
-0.00338039 -0.14895 0.11806
-0.0031623 -0.14916 0.118172
-0.00294382 -0.14937 0.118283
-0.00272491 -0.149579 0.118393
-0.00250604 -0.149776 0.118468
-0.00228717 -0.149967 0.118527
-0.00206769 -0.150164 0.1186
-0.0018481 -0.150356 0.118662
-0.00162797 -0.150556 0.118741
-0.00140775 -0.150749 0.118803
-0.00118673 -0.150953 0.118892
-0.000966311 -0.151141 0.118939
-0.000744549 -0.151347 0.119033
-0.00052242 -0.151554 0.119128
-0.000299766 -0.151761 0.119225
-7.68084e-05 -0.151969 0.119319
0.000147761 -0.152193 0.119457
0.000254239 -0.15318 0.120974
0.000374502 -0.152437 0.119647
-0.0126097 -0.142457 0.120886
-0.0123908 -0.142611 0.120842
-0.0121685 -0.142743 0.12073
-0.0119472 -0.14288 0.120634
-0.0117247 -0.143009 0.120511
-0.0115013 -0.143128 0.120359
-0.0112767 -0.143237 0.120178
-0.011054 -0.143355 0.120025
-0.0108309 -0.143468 0.119859
-0.0106082 -0.143581 0.119691
-0.0103858 -0.143693 0.119523
-0.0101655 -0.14382 0.119402
-0.0099444 -0.143939 0.119255
-0.00972179 -0.144038 0.119049
-0.00949856 -0.144127 0.118814
-0.0092759 -0.144214 0.118575
-0.00905343 -0.144297 0.118328
-0.00883325 -0.1444 0.118138
-0.00861612 -0.144534 0.118042
-0.00839947 -0.144674 0.117963
-0.00818399 -0.144827 0.117924
-0.00796921 -0.144991 0.117916
-0.00775445 -0.145156 0.117914
-0.00754067 -0.145339 0.117959
-0.00732733 -0.145536 0.11805
-0.00711377 -0.145735 0.118142
-0.00689964 -0.145929 0.118219
-0.00668485 -0.146117 0.118279
-0.00646918 -0.146289 0.118291
-0.00625315 -0.146453 0.118281
-0.00603667 -0.146602 0.118229
-0.00582 -0.146746 0.118162
-0.00560357 -0.146895 0.11811
-0.00538707 -0.147034 0.118028
-0.00517044 -0.147161 0.117916
-0.00495406 -0.147287 0.117798
-0.00473793 -0.147412 0.117679
-0.00452206 -0.147554 0.117607
-0.00430619 -0.14772 0.117605
-0.00409009 -0.147911 0.117669
-0.00387348 -0.148113 0.117765
-0.00365662 -0.148315 0.117859
-0.00343942 -0.148516 0.117948
-0.00322189 -0.148711 0.118023
-0.00300393 -0.148914 0.118115
-0.00278554 -0.149117 0.118211
-0.00256664 -0.149326 0.118319
-0.002348 -0.149519 0.118383
-0.00212883 -0.149714 0.118455
-0.00190971 -0.149905 0.118514
-0.00169052 -0.150092 0.11856
-0.00147071 -0.150285 0.118622
-0.0012507 -0.150477 0.118682
-0.00102974 -0.150681 0.118772
-0.000809053 -0.150875 0.118836
-0.00058718 -0.151081 0.118932
-0.000364707 -0.151293 0.119042
-0.000141281 -0.151511 0.119166
8.17182e-05 -0.151719 0.119263
0.00030638 -0.151943 0.119402
0.000532697 -0.15218 0.119574
0.000603274 -0.152697 0.119876
0.000759832 -0.152421 0.119753
-0.0126607 -0.142038 0.120807
-0.0124405 -0.142184 0.120736
-0.0122208 -0.142331 0.120672
-0.0119977 -0.142455 0.120535
-0.0117756 -0.142585 0.120416
-0.0115531 -0.142709 0.120281
-0.0113316 -0.142839 0.120162
-0.0111097 -0.142964 0.120032
-0.0108881 -0.143089 0.1199
-0.0106661 -0.143207 0.119749
-0.0104442 -0.143325 0.119597
-0.0102222 -0.143438 0.119431
-0.0100021 -0.143565 0.11931
-0.00978191 -0.143689 0.119179
-0.00956051 -0.143798 0.119002
-0.00933831 -0.143894 0.118788
-0.00911652 -0.143988 0.118569
-0.00889482 -0.144077 0.118338
-0.00867521 -0.144185 0.118163
-0.00845806 -0.144319 0.118066
-0.00824111 -0.144453 0.11797
-0.00802488 -0.144596 0.1179
-0.0078094 -0.144748 0.117858
-0.00759414 -0.144903 0.117825
-0.00737971 -0.145074 0.117839
-0.00716628 -0.145266 0.117913
-0.00695249 -0.145459 0.117988
-0.00673823 -0.145647 0.118052
-0.0065235 -0.14583 0.118096
-0.00630794 -0.145996 0.118094
-0.00609203 -0.146155 0.118072
-0.00587584 -0.146304 0.118019
-0.00565951 -0.146448 0.117951
-0.0054435 -0.146601 0.117912
-0.00522747 -0.146746 0.117847
-0.00501136 -0.146884 0.117765
-0.00479539 -0.14702 0.117678
-0.00457949 -0.147167 0.117619
-0.00436379 -0.147326 0.117596
-0.00414778 -0.147509 0.117642
-0.00393141 -0.147712 0.11774
-0.00371461 -0.147921 0.117853
-0.00349762 -0.148116 0.11793
-0.00328022 -0.148315 0.118014
-0.00306273 -0.148504 0.118072
-0.00284493 -0.148695 0.118133
-0.00262663 -0.148892 0.118212
-0.00240787 -0.149094 0.118302
-0.00218953 -0.149275 0.118336
-0.00197086 -0.149461 0.118382
-0.00175174 -0.149652 0.11844
-0.00153257 -0.149838 0.118485
-0.00131312 -0.150024 0.118531
-0.00109352 -0.15021 0.118576
-0.000872283 -0.150419 0.11868
-0.000651647 -0.150613 0.118745
-0.00043024 -0.150814 0.118827
-0.000207318 -0.151031 0.118951
1.69052e-05 -0.151259 0.119104
0.000239936 -0.151468 0.119203
0.000464895 -0.151693 0.119346
0.00069119 -0.15193 0.119517
0.000917225 -0.152157 0.119663
0.000988195 -0.152669 0.119951
0.00114439 -0.152391 0.119824
-0.0124951 -0.141787 0.120726
-0.0122735 -0.141922 0.120621
-0.0120523 -0.142058 0.120523
-0.0118276 -0.142169 0.120345
-0.011605 -0.142293 0.120207
-0.0113829 -0.142417 0.120073
-0.0111626 -0.142552 0.119971
-0.010943 -0.142693 0.119888
-0.0107225 -0.142823 0.119774
-0.0105009 -0.142943 0.119628
-0.0102794 -0.143061 0.119476
-0.0100577 -0.143174 0.119309
-0.00983756 -0.143297 0.119176
-0.00961782 -0.143422 0.119048
-0.00939737 -0.143537 0.11889
-0.0091766 -0.143644 0.11871
-0.008956 -0.143749 0.118522
-0.00873548 -0.143849 0.118323
-0.0085168 -0.143966 0.118174
-0.00830006 -0.144104 0.11809
-0.0080828 -0.144233 0.117978
-0.00786624 -0.14437 0.117891
-0.00765017 -0.144511 0.117817
-0.0074343 -0.144654 0.11775
-0.00721922 -0.14481 0.11772
-0.00700558 -0.144997 0.117778
-0.00679164 -0.145184 0.117839
-0.00657756 -0.145371 0.1179
-0.00636288 -0.145554 0.117946
-0.00614772 -0.145725 0.117958
-0.00593204 -0.145885 0.117937
-0.00571607 -0.146033 0.117884
-0.00550005 -0.146177 0.117816
-0.00528436 -0.146335 0.11779
-0.00506859 -0.146489 0.117754
-0.00485278 -0.146639 0.117706
-0.00463698 -0.146788 0.117653
-0.00442129 -0.14695 0.11764
-0.0042055 -0.147121 0.11765
-0.00398928 -0.147312 0.117716
-0.00377268 -0.147515 0.117815
-0.00355564 -0.147722 0.117926
-0.00333846 -0.147916 0.117999
-0.00312107 -0.14811 0.118069
-0.0029037 -0.148288 0.118098
-0.00268597 -0.148473 0.118143
-0.00246779 -0.148663 0.118202
-0.0022494 -0.148854 0.118262
-0.00203148 -0.149028 0.118277
-0.00181283 -0.149212 0.11832
-0.0015938 -0.149402 0.118377
-0.0013749 -0.149584 0.11841
-0.00115558 -0.14977 0.118456
-0.000936053 -0.149955 0.118499
-0.000715227 -0.150157 0.118587
-0.000494584 -0.150351 0.11865
-0.00027323 -0.150551 0.118732
-5.03698e-05 -0.150767 0.118855
0.000174355 -0.151002 0.119024
0.000397997 -0.151217 0.119142
0.000623175 -0.151444 0.11929
0.000850102 -0.151685 0.119476
0.00107558 -0.151906 0.119604
0.00130224 -0.152132 0.119748
0.00137516 -0.152655 0.120065
0.00153239 -0.152389 0.11997
-0.0125504 -0.141395 0.120729
-0.0123285 -0.141528 0.120619
-0.0121059 -0.141656 0.120492
-0.0118848 -0.14179 0.120388
-0.0116594 -0.141895 0.120189
-0.0114373 -0.142019 0.120052
-0.0112169 -0.142153 0.119949
-0.0109975 -0.142293 0.119865
-0.010779 -0.142439 0.119799
-0.0105594 -0.142575 0.119701
-0.0103385 -0.142699 0.119568
-0.0101167 -0.142812 0.119399
-0.00989521 -0.142924 0.119232
-0.00967427 -0.143039 0.11907
-0.00945536 -0.143169 0.118957
-0.00923569 -0.143289 0.118816
-0.00901613 -0.143407 0.118668
-0.00879632 -0.143517 0.118498
-0.00857716 -0.143632 0.118342
-0.00835862 -0.14375 0.118195
-0.00814194 -0.143888 0.118112
-0.00792449 -0.144013 0.117987
-0.00770772 -0.144144 0.117884
-0.00749132 -0.144279 0.117792
-0.00727519 -0.144417 0.117707
-0.00705971 -0.144562 0.117645
-0.00684603 -0.144747 0.117701
