ply
format ascii 1.0
element vertex 1655
property float x
property float y
property float z
end_header
0.0189089 -0.00321868 0.580191
0.0188356 -0.00446921 0.581361
0.0187654 -0.00571809 0.582698
0.018701 -0.00696164 0.584371
0.0186339 -0.00821326 0.58592
0.0185735 -0.00946049 0.587852
0.0185141 -0.0107112 0.589852
0.0184576 -0.0119647 0.592047
0.0284426 0.104208 0.594715
0.0283319 0.102791 0.594405
0.0282164 0.10135 0.593931
0.0280982 0.0998955 0.593367
0.0279733 0.0984062 0.592568
0.0278497 0.0969265 0.591808
0.0277091 0.0953583 0.590466
0.027568 0.0937916 0.5891
0.0274394 0.0922931 0.58814
0.0273184 0.0908363 0.587427
0.027204 0.0894149 0.586929
0.027105 0.0880742 0.586956
0.027008 0.0867436 0.587047
0.0268977 0.0853465 0.586679
0.0267846 0.0839371 0.586212
0.0266775 0.0825584 0.585946
0.0265644 0.0811515 0.585467
0.0264412 0.0796964 0.584625
0.0263347 0.0783246 0.584364
0.0262264 0.0769451 0.584034
0.0261126 0.0755412 0.583509
0.0259992 0.07414 0.582985
0.0258867 0.0727442 0.582484
0.0257655 0.0713103 0.581669
0.0256424 0.0698696 0.580772
0.025514 0.0684073 0.579673
0.0253912 0.0669734 0.57877
0.0252627 0.0655164 0.577645
0.0251262 0.0640272 0.576213
0.0249876 0.062532 0.574686
0.0248609 0.0610928 0.573588
0.0247366 0.0596666 0.572564
0.0246262 0.058303 0.572057
0.0245267 0.0569866 0.571951
0.0244287 0.0556779 0.571907
0.0243284 0.0543596 0.571766
0.0242258 0.0530328 0.571535
0.0241333 0.0517481 0.571692
0.0240463 0.0504855 0.572062
0.0239665 0.0492502 0.572708
0.0238824 0.0479979 0.573197
0.0237966 0.0467377 0.573618
0.0236982 0.0454295 0.573547
0.0235981 0.044115 0.573401
0.0234908 0.0427753 0.572971
0.0233725 0.0413959 0.572084
0.0232483 0.0399986 0.570955
0.0231215 0.0385949 0.569703
0.0229869 0.0371677 0.568122
0.0228523 0.0357448 0.56652
0.0227285 0.034363 0.565343
0.0226067 0.0329916 0.564237
0.0224841 0.0316212 0.563089
0.022368 0.0302746 0.562188
0.022259 0.0289541 0.561583
0.0221574 0.0276587 0.56128
0.0220638 0.0263891 0.561307
0.021976 0.0251378 0.561585
0.021883 0.0238709 0.561642
0.0217957 0.022621 0.561944
0.0217065 0.0213651 0.562162
0.0216201 0.020117 0.562503
0.0215364 0.0188759 0.562963
0.0214594 0.0176522 0.563722
0.0213752 0.016408 0.564168
0.0212968 0.0151781 0.564879
0.0212142 0.0139358 0.565397
0.0211302 0.0126896 0.565868
0.0210507 0.0114533 0.56654
0.0209754 0.0102256 0.567414
0.0208943 0.00898267 0.568027
0.0208211 0.00775573 0.569004
0.0207542 0.00654038 0.570289
0.0206911 0.0053295 0.571761
0.0206284 0.00411606 0.573271
0.0205685 0.00290391 0.574919
0.0205014 0.00167439 0.576248
0.0204319 0.000437228 0.577479
0.0203572 -0.000811883 0.578474
0.0202809 -0.00206619 0.579394
0.0202062 -0.00332012 0.580402
0.0201328 -0.00457425 0.581485
0.0200628 -0.00582597 0.582745
0.0199991 -0.00707227 0.584326
0.0199342 -0.00832484 0.58587
0.0198767 -0.00957206 0.587803
0.0198206 -0.010823 0.589826
0.0298248 0.104304 0.595844
0.0296998 0.102818 0.595125
0.0295724 0.101319 0.594317
0.0294468 0.0998334 0.593561
0.0293145 0.0983154 0.592588
0.0291819 0.0967985 0.591595
0.0290358 0.0952169 0.590165
0.0288962 0.0936701 0.588924
0.0287686 0.0921863 0.588058
0.0286493 0.0907456 0.587452
0.0285391 0.0893507 0.58713
0.0284421 0.0880205 0.587231
0.0283395 0.0866637 0.587149
0.0282233 0.085243 0.586622
0.028107 0.0838236 0.586086
0.0279989 0.0824438 0.585811
0.027887 0.0810477 0.585408
0.0277645 0.079604 0.584649
0.0276574 0.0782329 0.584394
0.0275506 0.0768642 0.584146
0.0274357 0.0754601 0.583622
0.0273209 0.0740581 0.583096
0.0272095 0.0726726 0.582676
0.0270914 0.0712593 0.582024
0.0269669 0.0698203 0.581147
0.0268382 0.0683656 0.580114
0.0267109 0.0669201 0.579122
0.0265752 0.0654415 0.577826
0.0264312 0.0639321 0.576229
0.0262891 0.0624345 0.574682
0.0261605 0.0609967 0.573596
0.0260343 0.0595714 0.572582
0.0259229 0.0582081 0.572078
0.0258227 0.0568912 0.57197
0.0257246 0.0555827 0.571931
0.0256242 0.0542662 0.571808
0.0255212 0.052941 0.571594
0.0254285 0.051655 0.571741
0.025341 0.050389 0.572081
0.025259 0.049143 0.572625
0.0251727 0.0478803 0.573012
0.0250873 0.0466202 0.573433
0.0249884 0.045312 0.573361
0.0248878 0.0439983 0.573221
0.0247815 0.0426652 0.572861
0.0246654 0.0413002 0.57213
0.024546 0.0399262 0.571264
0.0244216 0.0385384 0.5702
0.0242886 0.0371252 0.568792
0.0241525 0.0357066 0.567254
0.0240262 0.0343233 0.566074
0.0238985 0.0329395 0.564831
0.0237736 0.0315677 0.563677
0.0236532 0.0302132 0.562689
0.0235407 0.0288856 0.562003
0.0234382 0.0275894 0.5617
0.023348 0.0263296 0.561874
0.023261 0.0250793 0.562184
0.0231706 0.0238189 0.562355
0.0230872 0.0225778 0.562807
0.0229994 0.0213243 0.563087
0.0229117 0.0200706 0.563367
0.0228282 0.0188275 0.563823
0.0227498 0.0175966 0.564492
0.0226617 0.0163407 0.564768
0.0225802 0.0150998 0.56531
0.0224956 0.013851 0.565731
0.02241 0.0125995 0.566116
0.022331 0.0113617 0.566773
0.0222549 0.0101293 0.567568
0.0221742 0.00888503 0.568165
0.022104 0.00766152 0.569226
0.0220414 0.00644991 0.57061
0.0219846 0.0052463 0.572266
0.021928 0.00403877 0.573945
0.0218705 0.00282551 0.575605
0.0218049 0.00159398 0.576924
0.0217351 0.00035201 0.578062
0.0216583 -0.000903934 0.578904
0.0215815 -0.00216122 0.579752
0.0215078 -0.003417 0.580749
0.0214341 -0.00467392 0.581755
0.0213641 -0.00592909 0.582936
0.021299 -0.0071812 0.584357
0.0212346 -0.00843561 0.585814
0.0211766 -0.00968668 0.587589
0.021119 -0.0109428 0.589399
0.0313573 0.105987 0.598254
0.0312135 0.104411 0.597039
0.0310749 0.102864 0.595966
0.0309331 0.101303 0.594787
0.0307966 0.099772 0.593761
0.0306542 0.0982145 0.592544
0.030512 0.0966613 0.591324
0.0303655 0.0950911 0.589964
0.0302285 0.093569 0.588879
0.0301049 0.0921121 0.588188
0.0299855 0.0906771 0.587622
0.0298816 0.0893148 0.587519
0.0297835 0.0879794 0.587591
0.0296771 0.0866074 0.587412
0.0295545 0.0851633 0.586728
0.0294364 0.0837408 0.586173
0.0293227 0.0823396 0.58575
0.0292094 0.0809422 0.585339
0.0290856 0.0794996 0.584586
0.0289783 0.0781309 0.58435
0.0288706 0.0767617 0.584099
0.028759 0.0753763 0.583716
0.0286429 0.073974 0.583189
0.0285312 0.0725912 0.582793
0.0284164 0.0711976 0.582297
0.028293 0.0697702 0.581516
0.0281622 0.0683152 0.580486
0.0280307 0.0668602 0.579423
0.0278893 0.0653688 0.578026
0.0277375 0.0638403 0.576273
0.0275924 0.0623426 0.574726
0.027462 0.0609058 0.573649
0.0273339 0.0594807 0.572637
0.0272209 0.0581161 0.572125
0.0271218 0.0568046 0.572069
0.0270231 0.0554955 0.572026
0.0269224 0.0541798 0.571915
0.0268213 0.0528633 0.571786
0.0267286 0.0515774 0.571941
0.0266345 0.0502867 0.572045
0.0265479 0.0490224 0.57241
0.0264593 0.0477508 0.572706
0.0263719 0.046483 0.573045
0.0262711 0.0451696 0.572915
0.0261714 0.0438614 0.572827
0.0260662 0.0425355 0.57254
0.025953 0.0411849 0.571962
0.0258371 0.0398281 0.571287
0.0257161 0.0384574 0.570419
0.025585 0.0370583 0.569179
0.0254497 0.0356505 0.567777
0.025321 0.0342661 0.566595
0.0251888 0.0328753 0.565277
0.0250635 0.0315086 0.564199
0.0249427 0.0301579 0.56327
0.0248265 0.0288231 0.562504
0.0247249 0.0275306 0.562265
0.0246391 0.026282 0.562612
0.0245551 0.0250376 0.563024
0.0244687 0.0237866 0.563352
0.02439 0.0225545 0.563969
0.0243051 0.0213061 0.56436
0.0242193 0.0200552 0.564721
0.0241344 0.0188055 0.56511
0.0240521 0.0175615 0.565606
0.0239614 0.0162972 0.565774
0.0238736 0.0150399 0.566063
0.0237834 0.0137767 0.566252
0.0236956 0.0125188 0.566541
0.0236133 0.0112719 0.567043
0.0235362 0.0100344 0.567752
0.0234558 0.0087892 0.568342
0.0233873 0.00756525 0.569409
0.0233287 0.006357 0.57088
0.0232784 0.00515987 0.572704
0.0232247 0.00395193 0.5744
0.0231694 0.00273714 0.576053
0.0231053 0.0015038 0.577351
0.0230348 0.000257513 0.578406
0.0229573 -0.0010021 0.579172
0.0228815 -0.00226019 0.580021
0.0228108 -0.00351405 0.581089
0.0227386 -0.0047719 0.582102
0.0226684 -0.00603058 0.583207
0.0226016 -0.00728678 0.584468
0.0225367 -0.00854491 0.58582
0.0224738 -0.00980501 0.587275
0.0224134 -0.0110657 0.588847
0.0328584 0.107481 0.599506
0.0327434 0.10605 0.599174
0.0325941 0.104458 0.597876
0.0324482 0.102886 0.596664
0.0322957 0.101286 0.595256
0.0321478 0.099711 0.593963
0.0319968 0.0981256 0.592575
0.0318519 0.0965711 0.591348
0.031703 0.0950015 0.589992
0.0315646 0.0934832 0.588933
0.0314406 0.0920308 0.588273
0.0313225 0.0906071 0.587782
0.031218 0.0892444 0.587681
0.0311166 0.0878956 0.587666
0.0310117 0.0865319 0.587545
0.030887 0.0850851 0.586845
0.0307647 0.0836502 0.586206
0.0306468 0.0822358 0.585691
0.0305323 0.0808372 0.585272
0.0304068 0.0793946 0.58452
0.0302991 0.0780272 0.584294
0.0301908 0.0766585 0.584047
0.0300806 0.0752832 0.58374
0.0299632 0.0738801 0.583209
0.0298504 0.0724973 0.582813
0.0297376 0.0711155 0.582411
0.0296154 0.069699 0.581719
0.0294832 0.068246 0.580709
0.0293493 0.0667899 0.57964
0.0292027 0.0652889 0.578167
0.0290491 0.063766 0.576464
0.0289014 0.0622689 0.574924
0.0287692 0.0608332 0.573861
0.0286416 0.0594174 0.572934
0.0285271 0.0580507 0.572409
0.0284221 0.0567196 0.572182
0.0283222 0.0554078 0.572118
0.028221 0.0540915 0.572004
0.0281198 0.0527763 0.571892
0.0280274 0.0514913 0.572057
0.0279307 0.0501921 0.572085
0.0278371 0.0489038 0.572215
0.0277459 0.0476231 0.572419
0.0276564 0.046348 0.572681
0.0275533 0.0450294 0.572492
0.0274533 0.0437221 0.572408
0.0273514 0.0424091 0.572253
0.0272413 0.0410722 0.571823
0.0271291 0.0397308 0.571319
0.0270093 0.0383692 0.570556
0.0268801 0.0369826 0.569464
0.026744 0.0355794 0.568125
0.0266125 0.0341935 0.566932
0.026476 0.0327973 0.565553
0.0263508 0.0314359 0.56455
0.02623 0.0300899 0.563691
0.0261144 0.0287602 0.563003
0.0260145 0.0274733 0.562852
0.0259331 0.0262342 0.563347
0.0258535 0.0249987 0.563908
0.0257719 0.0237572 0.564399
0.025696 0.0225285 0.565096
0.0256139 0.0212839 0.565575
0.0255288 0.0200318 0.565956
0.0254422 0.0187757 0.566278
0.0253557 0.0175197 0.566613
0.0252621 0.0162478 0.566685
0.0251681 0.0149756 0.566743
0.0250735 0.0137023 0.566778
0.0249838 0.0124393 0.56699
0.0248998 0.0111872 0.567414
0.0248214 0.00994494 0.568048
0.0247435 0.00870243 0.568708
0.0246783 0.00748088 0.569843
0.0246239 0.00627519 0.571397
0.0245763 0.00507671 0.573218
0.0245247 0.0038669 0.574903
0.0244676 0.00264438 0.576395
0.024403 0.00140686 0.57761
0.024332 0.000157061 0.578588
0.0242536 -0.00110568 0.579288
0.0241789 -0.0023647 0.580137
0.0241115 -0.00361616 0.58128
0.0240429 -0.00487201 0.582382
0.0239726 -0.00613328 0.583424
0.0239055 -0.00739316 0.584603
0.0238413 -0.00865312 0.585909
0.0237757 -0.00991748 0.587168
0.0237094 -0.0111866 0.588411
0.0343772 0.109035 0.601075
0.0342535 0.107566 0.600544
0.0341367 0.106129 0.600192
0.0339799 0.104514 0.598765
0.0338246 0.102909 0.597368
0.0336599 0.101266 0.595706
0.0334998 0.0996486 0.594157
0.033337 0.098023 0.592522
0.0331887 0.0964643 0.591267
0.0330373 0.0948964 0.589923
0.0329004 0.093393 0.588959
0.0327781 0.0919545 0.58839
0.0326616 0.0905422 0.587976
0.0325564 0.089178 0.587869
0.0324519 0.0878173 0.587778
0.0323416 0.0864338 0.587525
0.0322126 0.0849753 0.586745
0.0320885 0.0835389 0.586096
0.031966 0.082111 0.585485
0.0318529 0.0807224 0.585136
0.0317282 0.0792897 0.584454
0.0316203 0.077924 0.584241
0.0315113 0.0765554 0.583996
0.0314001 0.0751796 0.583686
0.0312789 0.0737668 0.58308
0.0311678 0.0723938 0.582761
0.0310565 0.0710218 0.582436
0.0309382 0.0696249 0.581899
0.0308069 0.0681826 0.580978
0.030671 0.0667264 0.579914
0.0305212 0.0652237 0.578431
0.0303665 0.0637076 0.576788
0.0302136 0.0622027 0.575186
0.0300819 0.0607762 0.574207
0.0299576 0.0593774 0.573435
0.0298395 0.058002 0.572841
0.0297285 0.0566525 0.572456
0.029625 0.0553293 0.572295
0.0295202 0.0540027 0.57209
0.0294163 0.0526802 0.571912
0.0293242 0.0513962 0.57209
0.0292297 0.0501048 0.572196
0.0291354 0.0488142 0.572307
0.0290436 0.0475314 0.572493
0.02895 0.0462428 0.572621
0.0288462 0.0449242 0.572432
0.0287437 0.043611 0.572287
0.028641 0.0422974 0.572125
0.02853 0.0409611 0.571702
0.0284213 0.0396329 0.571343
0.0283026 0.0382783 0.570664
0.0281732 0.0368968 0.569635
0.0280364 0.0354988 0.568361
0.0279025 0.0341122 0.567164
0.0277636 0.0327163 0.565795
0.0276363 0.0313546 0.564793
0.0275143 0.0300091 0.563948
0.0273996 0.028685 0.563341
0.027304 0.0274095 0.563355
0.0272233 0.0261701 0.563861
0.0271445 0.0249341 0.56443
0.027069 0.0237042 0.565108
0.0269981 0.022484 0.565953
0.0269191 0.0212436 0.566522
0.0268386 0.0199993 0.567052
0.0267561 0.0187495 0.567512
0.0266677 0.0174869 0.567772
0.0265713 0.0162082 0.567767
0.0264712 0.0149224 0.567623
0.0263718 0.0136392 0.567508
0.0262794 0.0123699 0.567631
0.0261936 0.0111127 0.567981
0.0261122 0.00986265 0.568486
0.0260353 0.00861963 0.569156
0.0259715 0.00739691 0.570292
0.0259171 0.00618639 0.571763
0.0258698 0.00498314 0.5735
0.0258182 0.00376895 0.575101
0.0257607 0.00254192 0.576501
0.0256976 0.00130349 0.577706
0.0256258 5.04224e-05 0.578611
0.0255484 -0.00121203 0.579316
0.0254789 -0.00246599 0.580316
0.0254176 -0.00371323 0.581622
0.0253531 -0.00496716 0.582825
0.0252866 -0.00622691 0.583959
0.0252186 -0.00749025 0.585046
0.0251536 -0.00875358 0.586254
0.0250851 -0.0100238 0.58734
0.0250081 -0.0113033 0.588114
0.0357551 0.109022 0.601539
0.0356351 0.107573 0.601135
0.0355101 0.106104 0.600599
0.035347 0.104473 0.599086
0.035182 0.102839 0.597511
0.0350134 0.101193 0.595833
0.0348472 0.0995623 0.594205
0.034683 0.0979444 0.592617
0.0345319 0.096384 0.591354
0.0343777 0.0948145 0.590001
0.0342393 0.0933136 0.589054
0.0341124 0.0918613 0.588398
0.0339941 0.0904457 0.587963
0.0338879 0.0890799 0.587846
0.0337839 0.0877225 0.587779
0.0336764 0.0863529 0.587622
0.0335457 0.0848947 0.586846
0.0334202 0.0834579 0.586196
0.0332932 0.0820178 0.585502
0.0331764 0.0806184 0.585077
0.0330478 0.0791766 0.58433
0.032939 0.0778104 0.584112
0.0328268 0.0764327 0.583799
0.0327115 0.0750451 0.5834
0.0325885 0.0736312 0.582783
0.0324764 0.0722582 0.582461
0.0323673 0.0708971 0.582218
0.0322536 0.069521 0.581845
0.0321287 0.0681075 0.581155
0.0319911 0.0666526 0.580104
0.0318382 0.0651489 0.578616
0.0316801 0.0636318 0.576967
0.0315238 0.0621255 0.575357
0.031391 0.0607012 0.5744
0.0312708 0.0593206 0.573789
0.0311542 0.0579538 0.57328
0.0310421 0.0566036 0.572897
0.0309372 0.0552771 0.572713
0.030826 0.0539321 0.572345
0.0307185 0.0525999 0.572082
0.0306239 0.051308 0.572188
0.0305269 0.050009 0.572224
0.0304299 0.0487105 0.572259
0.0303379 0.0474271 0.572442
0.0302409 0.0461295 0.572477
0.0301366 0.0448114 0.572294
0.0300338 0.0434984 0.57215
0.029928 0.0421782 0.571918
0.029816 0.0408419 0.57149
0.0297038 0.0395072 0.571058
0.0295811 0.0381465 0.570303
0.0294496 0.0367652 0.56927
0.0293125 0.0353734 0.568063
0.0291768 0.0339884 0.566881
0.0290399 0.0326045 0.565655
0.028918 0.0312608 0.564877
0.0288013 0.0299324 0.564258
0.0286885 0.0286149 0.563747
0.0285952 0.0273447 0.563845
0.0285151 0.0261043 0.564352
0.0284341 0.0248611 0.564836
0.0283569 0.0236253 0.565441
0.0282874 0.0224046 0.566292
0.0282092 0.0211638 0.566868
0.0281293 0.0199189 0.567401
0.0280469 0.0186678 0.567855
0.0279588 0.0174047 0.568121
0.0278647 0.0161302 0.568201
0.0277662 0.014848 0.568134
0.0276662 0.0135636 0.568015
0.0275754 0.0122962 0.568195
0.0274894 0.0110373 0.568536
0.0274064 0.00978274 0.568974
0.0273285 0.00853586 0.569587
0.0272617 0.00730487 0.570568
0.0272045 0.0060862 0.571881
0.0271551 0.00487547 0.57346
0.0271034 0.00365743 0.574978
0.0270457 0.00242722 0.576302
0.0269861 0.00119112 0.577573
0.0269155 -6.20398e-05 0.578475
0.0268391 -0.00132466 0.579186
0.0267754 -0.00257396 0.58034
0.026721 -0.0038154 0.58182
0.0266633 -0.00506496 0.583198
0.0266009 -0.00632285 0.584427
0.0265322 -0.00758939 0.58544
0.0264662 -0.00885642 0.586555
0.0263927 -0.0101326 0.587415
0.0263083 -0.0114191 0.587892
0.0371494 0.109068 0.602349
0.0370265 0.107611 0.601905
0.0368993 0.106136 0.601348
0.0367285 0.104486 0.599722
0.036556 0.102832 0.598039
0.0363742 0.101146 0.596118
0.0362014 0.0995004 0.594402
0.0360277 0.0978561 0.592653
0.0358739 0.0962952 0.591388
0.0357169 0.0947256 0.590034
0.0355768 0.0932248 0.589089
0.0354446 0.0917582 0.588341
0.0353244 0.0903392 0.587885
0.0352172 0.0889712 0.587754
0.0351131 0.0876156 0.587699
0.0350088 0.08626 0.587637
0.0348797 0.0848139 0.586945
0.0347551 0.0833856 0.586357
0.0346241 0.081936 0.585599
0.0345034 0.0805261 0.585101
0.0343703 0.0790739 0.58428
0.0342604 0.0777061 0.584052
0.0341437 0.076316 0.583648
0.03403 0.0749373 0.583313
0.0339056 0.0735235 0.582698
0.0337926 0.0721502 0.582374
0.0336831 0.0707902 0.58214
0.0335717 0.0694252 0.581854
0.0334462 0.0680145 0.581188
0.0333073 0.066562 0.580159
0.0331513 0.0650573 0.578663
0.0329923 0.0635475 0.577075
0.0328352 0.0620485 0.575529
0.0327037 0.0606342 0.574661
0.0325911 0.0592809 0.574297
0.032477 0.0579249 0.57389
0.032364 0.0565737 0.57351
0.0322551 0.0552362 0.573237
0.0321368 0.053872 0.5727
0.0320225 0.0525217 0.572271
0.0319246 0.0512203 0.572293
0.0318245 0.0499129 0.57225
0.0317244 0.0486067 0.572211
0.03163 0.0473161 0.572321
0.0315299 0.0460106 0.572277
0.0314218 0.0446843 0.572005
0.0313151 0.0433628 0.571769
0.0312062 0.0420367 0.571466
0.0310927 0.0407 0.571028
0.030977 0.0393593 0.57052
0.0308523 0.0379982 0.569752
0.0307216 0.0366247 0.568801
0.0305879 0.0352472 0.567756
0.0304528 0.0338701 0.566663
0.0303193 0.0324998 0.565602
0.0302007 0.0311676 0.564974
0.0300879 0.0298508 0.564507
0.0299746 0.0285344 0.564018
0.0298835 0.0272688 0.564188
0.0298012 0.0260219 0.564615
0.02972 0.0247765 0.565078
0.029641 0.0235349 0.565608
0.0295728 0.0223141 0.566467
0.0294954 0.0210735 0.567056
0.0294188 0.0198329 0.567667
0.0293367 0.018581 0.568117
0.0292509 0.0173214 0.568455
0.0291596 0.0160516 0.568625
0.0290612 0.0147694 0.568576
0.0289582 0.0134801 0.568385
0.0288665 0.0122106 0.568539
0.0287781 0.0109466 0.568798
0.0286933 0.00968805 0.569171
0.0286137 0.00843662 0.569704
0.0285451 0.00720074 0.570592
0.0284842 0.00597361 0.571725
0.028434 0.00475845 0.573208
0.0283825 0.00353782 0.574661
0.0283274 0.00230856 0.576006
0.02827 0.00107308 0.577286
0.0282025 -0.000177663 0.578253
0.028127 -0.00143985 0.578962
0.0280676 -0.00268664 0.580204
0.0280208 -0.00392231 0.581864
0.0279705 -0.00516717 0.58342
0.0279125 -0.00642313 0.584739
0.0278471 -0.00768891 0.585816
0.0277803 -0.00895843 0.586856
0.0277033 -0.0102391 0.587564
0.0276231 -0.0115234 0.588167
0.0385228 0.109017 0.602599
0.0384007 0.107567 0.602198
0.0382727 0.106095 0.601658
0.0381019 0.104456 0.600103
0.0379292 0.102814 0.598494
0.0377435 0.101126 0.596568
0.0375674 0.0994796 0.594855
0.0373869 0.0978215 0.593025
0.0372303 0.0962593 0.591755
0.0370679 0.0946782 0.590332
0.0369225 0.0931647 0.58931
0.036785 0.0916842 0.588475
0.0366628 0.0902615 0.587997
0.0365483 0.0888689 0.587704
0.0364407 0.087502 0.587573
0.0363328 0.0861356 0.587438
0.0362027 0.0846908 0.586754
0.0360768 0.0832628 0.586167
0.0359469 0.0818229 0.585475
0.035825 0.0804136 0.584981
0.0356929 0.0789706 0.584226
0.0355818 0.0776015 0.58399
0.0354636 0.0762093 0.58357
0.035346 0.0748207 0.583162
0.0352202 0.0734065 0.582542
0.0351067 0.0720349 0.58223
0.0349995 0.0706848 0.582073
0.0348907 0.0693306 0.581874
0.0347702 0.0679403 0.581374
0.0346328 0.0664988 0.580437
0.0344771 0.0650036 0.579023
0.0343143 0.0634911 0.577419
0.0341569 0.0619993 0.575939
0.034024 0.0605856 0.575083
0.033917 0.0592513 0.574892
0.0338027 0.0578967 0.574509
0.0336888 0.0565447 0.574132
0.0335759 0.055197 0.573778
0.0334526 0.0538217 0.573146
0.0333284 0.0524457 0.572484
0.0332264 0.0511335 0.572406
0.033125 0.0498235 0.572343
0.0330218 0.0485095 0.572229
0.0329218 0.0472044 0.572195
0.0328181 0.0458908 0.572066
0.0327084 0.0445622 0.571769
0.0325954 0.0432266 0.571379
0.0324827 0.0418934 0.570994
0.0323626 0.0405437 0.570405
0.0322421 0.0391951 0.569799
0.0321133 0.0378288 0.568957
0.0319809 0.036457 0.568012
0.0318463 0.0350836 0.567
0.031718 0.0337275 0.56615
0.0315881 0.0323707 0.565248
0.0314717 0.0310468 0.564718
0.0313613 0.0297378 0.564349
0.0312517 0.0284321 0.564
0.0311608 0.0271665 0.564172
0.031078 0.0259177 0.564578
0.0309968 0.0246712 0.565026
0.0309204 0.0234335 0.565616
0.0308538 0.0222134 0.566489
0.0307778 0.0209735 0.567095
0.0307016 0.0197324 0.567702
0.0306221 0.018484 0.568215
0.0305367 0.0172243 0.568557
0.0304457 0.0159546 0.568738
0.0303498 0.014677 0.568777
0.0302486 0.0133912 0.568658
0.0301569 0.0121212 0.568817
0.0300681 0.0108557 0.569061
0.029981 0.00959258 0.569355
0.0298988 0.0083362 0.569797
0.0298282 0.00709529 0.570587
0.029763 0.00585995 0.571547
0.0297096 0.00463772 0.572867
0.0296603 0.00341724 0.574322
0.0296078 0.00218901 0.575685
0.0295504 0.000951553 0.576911
0.0294867 -0.000296159 0.577955
0.029414 -0.00155595 0.578721
0.0293593 -0.00279926 0.580051
0.0293155 -0.00403591 0.581729
0.0292727 -0.0052752 0.583452
0.0292194 -0.00652905 0.584855
0.0291578 -0.00779364 0.586011
0.0290899 -0.00906569 0.586971
0.0290175 -0.0103439 0.587795
0.0289412 -0.0116271 0.588505
0.0399893 0.110297 0.602543
0.0398886 0.108932 0.60265
0.0397639 0.107476 0.602213
0.0396388 0.106019 0.601765
0.0394726 0.104408 0.600384
0.0392984 0.102772 0.598813
0.0391098 0.101086 0.596903
0.0389333 0.0994505 0.595256
0.0387486 0.0977893 0.593411
0.0385857 0.0962124 0.592054
0.0384204 0.094631 0.590632
0.038273 0.0931174 0.589613
0.0381309 0.0916263 0.588713
0.0380005 0.0901785 0.588073
0.0378773 0.0887581 0.587598
0.0377649 0.0873766 0.587368
0.0376498 0.0859873 0.587076
0.0375181 0.0845427 0.58639
0.0373941 0.0831264 0.585881
0.037266 0.0816977 0.585266
0.0371433 0.0802896 0.584779
0.0370094 0.078846 0.584019
0.0368973 0.077476 0.583774
0.0367779 0.0760837 0.583352
0.0366598 0.074697 0.582956
0.0365333 0.0732854 0.582355
0.0364222 0.0719239 0.58212
0.0363141 0.0705729 0.581956
0.0362044 0.0692182 0.581753
0.036086 0.0678378 0.581332
0.0359502 0.0664069 0.580482
0.0357955 0.0649226 0.579159
0.0356327 0.0634186 0.577628
0.0354785 0.0619444 0.576301
0.035347 0.0605392 0.575525
0.0352434 0.0592157 0.575437
0.0351281 0.0578601 0.575055
0.0350127 0.0565061 0.57467
0.0348949 0.0551466 0.574215
0.0347668 0.0537614 0.573501
0.0346379 0.0523763 0.572758
0.0345352 0.0510625 0.572673
0.03443 0.0497436 0.572526
0.0343258 0.0484275 0.572399
0.0342218 0.0471134 0.572278
0.0341118 0.0457848 0.571998
0.0339976 0.0444472 0.571608
0.0338833 0.0431111 0.571211
0.033761 0.0417575 0.570602
0.0336308 0.0403877 0.569785
0.0335052 0.0390312 0.569079
0.0333737 0.0376637 0.568211
0.0332377 0.0362893 0.567219
0.0331077 0.0349311 0.566374
0.0329866 0.0335954 0.565763
0.0328637 0.0322581 0.565096
0.0327493 0.0309409 0.56465
0.032641 0.0296381 0.564364
0.0325308 0.0283326 0.56402
0.0324368 0.0270609 0.564112
0.0323489 0.0258013 0.564369
0.0322652 0.0245494 0.56474
0.0321896 0.0233121 0.565333
0.0321245 0.0220926 0.566213
0.0320517 0.0208576 0.56689
0.031979 0.0196212 0.567571
0.0319027 0.0183771 0.568155
0.0318201 0.0171216 0.568569
0.0317317 0.0158563 0.568828
0.0316386 0.014583 0.568948
0.0315396 0.0133009 0.568908
0.031448 0.0120305 0.569071
0.0313567 0.0107608 0.569245
0.0312668 0.00949306 0.569459
0.0311795 0.00822869 0.569743
0.0311044 0.00698022 0.570376
0.0310349 0.00573778 0.571177
0.0309804 0.00451199 0.57241
0.030933 0.00329142 0.573852
0.0308853 0.00206682 0.575299
0.0308299 0.000829941 0.576533
0.0307705 -0.00041445 0.577657
0.0307034 -0.00166927 0.578562
0.0306533 -0.0029105 0.579971
0.0306122 -0.00414613 0.581657
0.0305748 -0.00538365 0.583458
0.0305256 -0.00663656 0.584927
0.030466 -0.00790137 0.586094
0.0303968 -0.00917584 0.586979
0.030328 -0.0104523 0.58788
0.0302567 -0.0117327 0.588714
0.0413316 0.110121 0.60207
0.0412339 0.108768 0.60224
0.0411099 0.107318 0.601842
0.0409881 0.105878 0.60149
0.0408331 0.104319 0.600412
0.0406649 0.102715 0.599039
0.0404778 0.101047 0.597241
0.0403014 0.0994227 0.595667
0.0401155 0.0977693 0.593875
0.0399457 0.0961768 0.592424
0.0397775 0.0945944 0.591001
0.0396248 0.0930697 0.589914
0.039477 0.0915642 0.588925
0.0393341 0.0900791 0.588042
0.0392019 0.0886324 0.587391
0.0390838 0.0872345 0.58705
0.0389671 0.0858427 0.586739
0.0388341 0.0843992 0.586057
0.0387125 0.0829946 0.585627
0.0385868 0.081579 0.585103
0.0384633 0.0801716 0.58462
0.0383316 0.0787405 0.583949
0.0382191 0.0773716 0.583712
0.0380992 0.0759807 0.583301
0.0379835 0.0746044 0.582986
0.0378559 0.0731934 0.58239
0.0377409 0.0718224 0.582084
0.037632 0.0704707 0.581915
0.037521 0.0691136 0.581694
0.0374015 0.0677333 0.581273
0.0372672 0.0663119 0.580501
0.0371142 0.0648397 0.57928
0.0369522 0.0633465 0.577841
0.0368023 0.0618909 0.576676
0.0366691 0.060485 0.575901
0.036565 0.0591606 0.575813
0.0364481 0.0578029 0.575418
0.036331 0.0564462 0.575015
0.0362082 0.0550762 0.574472
0.0360785 0.0536903 0.573756
0.0359482 0.0523052 0.573018
0.0358457 0.0509927 0.572951
0.0357398 0.0496726 0.572801
0.0356318 0.0483482 0.572596
0.0355236 0.0470246 0.572385
0.0354091 0.0456871 0.572017
0.0352879 0.044335 0.571476
0.0351666 0.0429853 0.570932
0.0350371 0.0416185 0.570176
0.0348982 0.0402336 0.569183
0.0347645 0.0388631 0.568309
0.0346304 0.0374949 0.567419
0.0344927 0.0361221 0.566431
0.0343647 0.034773 0.565682
0.0342484 0.0334511 0.565224
0.0341329 0.0321323 0.564781
0.0340237 0.0308281 0.564495
0.0339177 0.0295313 0.564287
0.0338091 0.0282308 0.564009
0.0337118 0.0269529 0.56402
0.0336183 0.0256828 0.564131
0.0335294 0.0244209 0.564357
0.0334545 0.0231839 0.564949
0.033388 0.0219604 0.565764
0.0333166 0.0207266 0.566452
0.0332445 0.0194903 0.567129
0.0331715 0.0182509 0.567779
0.0330896 0.0169963 0.568204
0.0330047 0.0157363 0.568548
0.0329169 0.0144715 0.568814
0.0328232 0.0131979 0.568927
0.0327321 0.0119279 0.569104
0.0326411 0.0106583 0.569287
0.0325533 0.00939311 0.569555
0.0324659 0.00812807 0.569834
0.0323891 0.00687631 0.570404
0.0323209 0.00563368 0.57121
0.0322679 0.00440721 0.572437
0.0322191 0.00318244 0.573788
0.0321703 0.0019541 0.575148
0.0321142 0.000714409 0.576313
0.0320538 -0.000532625 0.577364
0.0319855 -0.00178998 0.578202
0.0319348 -0.00303301 0.579535
0.0318935 -0.0042711 0.581142
0.0318584 -0.00550841 0.582934
0.0318136 -0.00675875 0.584462
0.0317587 -0.00802106 0.585716
0.0316912 -0.00929512 0.586617
0.0316321 -0.0105659 0.587761
0.0315824 -0.0118341 0.589185
0.0302316 -0.0129876 0.590949
0.0315826 -0.0130774 0.592054
0.042579 0.108607 0.601849
0.0424538 0.107157 0.601447
0.0423311 0.105717 0.601093
0.0421863 0.104202 0.600275
0.0420272 0.102639 0.599148
0.0418451 0.101 0.59753
0.0416699 0.0993897 0.596046
0.0414842 0.0977477 0.59433
0.0413074 0.0961412 0.592796
0.0411394 0.0945682 0.591437
0.0409807 0.0930297 0.590267
0.0408303 0.0915221 0.589268
0.0406809 0.0900213 0.588286
0.0405385 0.088546 0.587448
0.0404078 0.0871106 0.586856
0.0402826 0.0856948 0.586378
0.0401447 0.0842407 0.58562
0.0400229 0.0828397 0.585211
0.0399006 0.0814382 0.584783
0.0397799 0.0800437 0.58439
0.0396542 0.0786353 0.583881
0.0395449 0.0772779 0.583731
0.0394313 0.0759088 0.583483
0.0393184 0.074543 0.58325
0.0391927 0.073141 0.582728
0.0390764 0.0717682 0.582413
0.0389664 0.0704147 0.582236
0.0388478 0.0690377 0.581863
0.0387232 0.0676455 0.581351
0.0385871 0.0662233 0.580574
0.0384319 0.064752 0.579361
0.0382687 0.0632624 0.577954
0.0381235 0.0618254 0.57695
0.0379922 0.0604287 0.576259
0.0378837 0.0590935 0.576083
0.0377618 0.0577248 0.575597
0.0376397 0.0563574 0.575101
0.0375122 0.0549786 0.574479
0.0373815 0.0535938 0.573775
0.0372566 0.0522256 0.573199
0.0371577 0.0509227 0.57323
0.0370551 0.0496114 0.573171
0.0369432 0.0482788 0.572893
0.0368303 0.0469454 0.572589
0.0367081 0.0455917 0.572059
0.0365822 0.044232 0.57144
0.0364532 0.0428676 0.57074
0.0363184 0.0414932 0.569898
0.0361709 0.0400943 0.568746
0.0360309 0.0387151 0.567765
0.0358952 0.0373479 0.566876
0.0357557 0.0359764 0.565894
0.0356296 0.034635 0.565228
0.0355183 0.0333255 0.564917
0.0354051 0.0320137 0.564555
0.0352957 0.0307108 0.564284
0.0351897 0.0294153 0.564088
0.0350801 0.0281147 0.563809
0.0349788 0.0268303 0.563728
0.0348818 0.0255543 0.563752
0.0347892 0.0242864 0.563886
0.034712 0.0230448 0.564402
0.0346409 0.0218123 0.565073
0.0345671 0.020574 0.56568
0.0344958 0.0193386 0.566351
0.0344242 0.018101 0.567019
0.034349 0.0168568 0.567599
0.0342708 0.0156071 0.568106
0.0341892 0.0143513 0.568528
0.0341017 0.0130868 0.568799
0.0340135 0.0118209 0.569053
0.0339228 0.0105516 0.569242
0.0338351 0.0092861 0.56951
0.0337478 0.008021 0.56979
0.0336719 0.00676916 0.570365
0.0336025 0.00552389 0.571116
0.0335485 0.00429411 0.57227
0.0335012 0.00306874 0.573609
0.0334563 0.00184221 0.575018
0.033402 0.000602592 0.576187
0.0333456 -0.000642067 0.577308
0.0332838 -0.00189439 0.57829
0.0332347 -0.0031387 0.579616
0.0331902 -0.00438151 0.581075
0.0331542 -0.00562279 0.582771
0.0331112 -0.00687287 0.58429
0.0330584 -0.00813473 0.585549
0.0329931 -0.00940876 0.586479
0.0329534 -0.0106682 0.58811
0.0329253 -0.0119262 0.590071
0.0329441 -0.0131641 0.593334
0.0437934 0.106984 0.60098
0.0436663 0.105532 0.600555
0.0435303 0.104053 0.599948
0.0433772 0.102518 0.59899
0.0432043 0.100921 0.597623
0.0430313 0.0993273 0.596244
0.0428507 0.0977129 0.594703
0.0426749 0.0961182 0.593247
0.0425046 0.0945458 0.591898
0.0423389 0.092992 0.590635
0.0421857 0.0914815 0.589621
0.0420295 0.0899649 0.58854
0.0418777 0.0884654 0.587544
0.041741 0.0870156 0.586856
0.0416071 0.0855764 0.586219
0.0414636 0.0841108 0.585381
0.0413374 0.0826999 0.5849
0.0412144 0.0812996 0.584478
0.0410931 0.0799066 0.584093
0.0409738 0.0785204 0.583744
0.0408684 0.0771763 0.58369
0.0407622 0.0758306 0.583618
0.0406521 0.0744744 0.583461
0.0405286 0.0730815 0.583013
0.0404111 0.0717074 0.582692
0.0403004 0.0703527 0.582512
0.0401772 0.0689654 0.582062
0.0400506 0.0675709 0.581535
0.0399124 0.0661474 0.580749
0.0397576 0.0646828 0.579596
0.0395921 0.0631945 0.578204
0.0394451 0.0617577 0.577206
0.0393091 0.060352 0.576442
0.0391923 0.0589973 0.576099
0.039062 0.0576105 0.575452
0.0389349 0.0562341 0.574874
0.0388099 0.0548646 0.574335
0.0386848 0.053497 0.57379
0.0385696 0.0521548 0.573463
0.0384745 0.0508609 0.573588
0.0383752 0.0495573 0.573614
0.0382588 0.0482157 0.573253
0.0381416 0.0468738 0.572872
0.0380108 0.0455035 0.572176
0.0378798 0.0441354 0.571471
0.0377422 0.0427559 0.570613
0.0376014 0.0413725 0.56967
0.0374449 0.0399599 0.568361
0.0373001 0.0385753 0.567312
0.0371626 0.0372092 0.566429
0.0370218 0.0358393 0.565459
0.0368947 0.0344993 0.564801
0.0367856 0.0331961 0.56456
0.0366747 0.0318907 0.564273
0.0365653 0.0305894 0.564018
0.0364588 0.0292948 0.563833
0.0363514 0.0279995 0.563618
0.0362432 0.026704 0.563385
0.036142 0.0254216 0.563314
0.0360454 0.0241479 0.563356
0.0359681 0.0229056 0.563854
0.0358884 0.0216589 0.564299
0.0358148 0.0204206 0.56489
0.0357407 0.0191806 0.565474
0.0356696 0.0179438 0.566134
0.0355963 0.0167023 0.56674
0.0355288 0.0154678 0.56749
0.0354546 0.0142226 0.568083
0.0353766 0.0129708 0.568583
0.035295 0.0117135 0.568996
0.0352072 0.0104479 0.569261
0.0351227 0.00918592 0.569603
0.0350384 0.00792371 0.569955
0.0349635 0.00667196 0.570543
0.0348925 0.00542331 0.571229
0.0348367 0.00418922 0.572298
0.034788 0.0029599 0.573551
0.0347423 0.00173045 0.574892
0.034687 0.000488056 0.575993
0.0346296 -0.0007589 0.577048
0.0345745 -0.00200673 0.578167
0.0345239 -0.0032533 0.579409
0.0344783 -0.00449985 0.580784
0.0344416 -0.00574287 0.582394
0.0344036 -0.00699073 0.583982
0.0343496 -0.00825447 0.585165
0.0342949 -0.00952194 0.586339
0.0342823 -0.010767 0.588617
0.0342813 -0.0120128 0.591211
0.0343229 -0.0132443 0.594941
0.0449962 0.105335 0.599942
0.0448623 0.103868 0.599401
0.0447157 0.102361 0.598609
0.0445559 0.100815 0.597551
0.0443939 0.0992649 0.596443
0.0442243 0.0976939 0.595175
0.04405 0.0961125 0.593809
0.0438803 0.0945495 0.592527
0.043708 0.0929821 0.591183
0.0435491 0.0914598 0.5901
0.0433869 0.089931 0.588943
0.0432327 0.0884298 0.587941
0.0430867 0.0869561 0.587097
0.0429499 0.0855127 0.586435
0.0428039 0.0840442 0.58558
0.042676 0.0826311 0.585088
0.0425479 0.0812193 0.584588
0.0424251 0.0798244 0.584192
0.0423047 0.0784376 0.58384
0.0421994 0.0770945 0.583797
0.0420937 0.0757514 0.583748
0.0419879 0.0744081 0.583689
0.0418672 0.0730252 0.583322
0.0417486 0.0716497 0.582998
0.0416337 0.0702857 0.58275
0.0415056 0.0688879 0.582219
0.0413702 0.0674735 0.581535
0.0412254 0.0660373 0.580647
0.0410679 0.0645716 0.579483
0.0409065 0.0631003 0.578233
0.0407581 0.0616649 0.577248
0.0406201 0.0602586 0.57648
0.0404979 0.0588924 0.576039
0.0403646 0.0575021 0.575361
0.0402327 0.0561173 0.574706
0.0401114 0.0547595 0.574272
0.0399929 0.05341 0.573899
0.0398881 0.0520932 0.573817
0.0397964 0.0508062 0.574016
0.0396975 0.0495033 0.574058
0.0395758 0.0481517 0.573607
0.0394567 0.046807 0.573205
0.0393169 0.0454204 0.572346
0.0391742 0.0440307 0.571418
0.0390304 0.0426422 0.570463
0.0388842 0.0412518 0.569442
0.0387213 0.039832 0.568049
0.0385747 0.0384485 0.567008
0.0384392 0.03709 0.566208
0.0383004 0.0357279 0.565324
0.0381752 0.0343943 0.564742
0.0380654 0.0330911 0.564503
0.0379568 0.031791 0.564284
0.0378496 0.0304949 0.564099
0.0377399 0.0291954 0.563852
0.0376316 0.0278997 0.563636
0.0375191 0.0265982 0.563321
0.0374107 0.0253046 0.563097
0.0373073 0.0240205 0.562984
0.0372238 0.0227682 0.563328
0.0371345 0.0215065 0.563541
0.037054 0.020258 0.563955
0.0369764 0.019013 0.56444
0.036906 0.0177774 0.565094
0.0368405 0.0165471 0.565866
0.0367843 0.0153277 0.566857
0.0367245 0.0141011 0.56777
0.0366542 0.0128588 0.568439
0.0365797 0.0116099 0.569011
0.0364956 0.0103483 0.569359
0.0364144 0.0090896 0.569778
0.0363308 0.00782737 0.570138
0.0362563 0.00657466 0.570718
0.0361853 0.00532449 0.571386
0.0361277 0.00408674 0.572379
0.0360769 0.00285306 0.573542
0.0360303 0.00162046 0.574811
0.0359799 0.000381037 0.575995
0.0359219 -0.000868143 0.577001
0.0358715 -0.0021136 0.578199
0.0358227 -0.00336058 0.579438
0.0357787 -0.00460731 0.580808
0.035741 -0.0058531 0.582335
0.0357048 -0.00710276 0.583913
0.0356527 -0.00836675 0.5851
0.0356059 -0.0096302 0.586431
0.035614 -0.010866 0.589136
0.0356354 -0.0121035 0.592197
0.0356793 -0.0133389 0.595838
0.0343682 -0.0144852 0.598792
0.0357226 -0.0145851 0.599488
0.0463287 0.105151 0.599407
0.0462018 0.10371 0.599023
0.0460608 0.102227 0.598367
0.0459122 0.100722 0.597562
0.0457608 0.099212 0.596701
0.0456084 0.097701 0.595812
0.0454362 0.0961334 0.594541
0.0452682 0.0945816 0.593339
0.0450932 0.0930135 0.592
0.0449316 0.0914885 0.590908
0.0447637 0.0899483 0.589687
0.044607 0.0884452 0.588681
0.044455 0.0869582 0.587756
0.0443126 0.0855015 0.587012
0.0441597 0.0840181 0.586061
0.0440256 0.0825899 0.585469
0.0438915 0.0811643 0.584877
0.0437671 0.0797673 0.584471
0.0436488 0.0783884 0.584181
0.0435469 0.077055 0.584215
0.0434451 0.0757223 0.584251
0.0433396 0.0743803 0.584211
0.0432217 0.0730066 0.583923
0.0431027 0.0716313 0.583608
0.0429831 0.070256 0.583281
0.0428532 0.068856 0.582741
0.0427157 0.0674392 0.582045
0.0425647 0.0659913 0.58107
0.0424048 0.0645251 0.579908
0.0422407 0.0630527 0.578656
0.0420871 0.0616093 0.577609
0.0419432 0.0601917 0.57675
0.0418149 0.0588138 0.576209
0.0416758 0.0574128 0.575439
0.0415423 0.0560279 0.574786
0.041421 0.0546721 0.574375
0.0413062 0.0533327 0.574099
0.0412085 0.0520318 0.574174
0.0411174 0.0507454 0.574387
0.0410176 0.0494405 0.574418
0.0408909 0.0480798 0.573883
0.040766 0.046725 0.573384
0.0406168 0.0453226 0.572366
0.0404681 0.0439247 0.571352
0.0403155 0.0425227 0.57025
0.0401699 0.0411376 0.569285
0.0400044 0.0397182 0.567894
0.0398565 0.0383363 0.566869
0.039723 0.0369847 0.566147
0.0395859 0.0356291 0.565341
0.0394564 0.0342899 0.564694
0.039346 0.0329868 0.564455
0.0392362 0.031686 0.564229
0.0391251 0.0303843 0.563971
0.0390175 0.0290895 0.563787
0.0389121 0.0277994 0.563647
0.0387988 0.026498 0.563337
0.0386897 0.0252043 0.563111
0.0385819 0.023914 0.562914
0.0384918 0.0226514 0.563109
0.0383955 0.0213794 0.563161
0.038308 0.0201208 0.563412
0.0382234 0.0188658 0.563727
0.0381536 0.0176307 0.564374
0.0380893 0.0164015 0.565148
0.0380389 0.0151887 0.56624
0.0379877 0.013972 0.567319
0.0379257 0.0127394 0.568156
0.0378591 0.0114992 0.568892
0.0377821 0.0102456 0.569397
0.0377054 0.00899111 0.569908
0.0376279 0.00773495 0.570406
0.0375575 0.00648512 0.571066
0.0374838 0.00523069 0.571654
0.0374264 0.00399082 0.57262
0.0373765 0.00275584 0.573768
0.0373284 0.00151962 0.574963
0.03728 0.000279858 0.576156
0.0372265 -0.000967227 0.577234
0.0371784 -0.00221272 0.578447
0.0371285 -0.00346318 0.579623
0.0370836 -0.00471235 0.580924
0.0370443 -0.00596174 0.582364
0.0370072 -0.00721368 0.583862
0.0369565 -0.0084777 0.585044
0.0369377 -0.00972634 0.586997
0.0369686 -0.0109545 0.590154
0.0370162 -0.0121826 0.593731
0.0370633 -0.0134229 0.597319
0.0371031 -0.014676 0.600749
0.0475265 0.103511 0.598388
0.047399 0.102073 0.598006
0.047266 0.100621 0.597522
0.047127 0.0991527 0.596919
0.0469877 0.0976862 0.596313
0.046822 0.096144 0.595209
0.0466555 0.0946029 0.594083
0.0464816 0.0930441 0.592813
0.0463179 0.0915184 0.591727
0.0461508 0.0899863 0.590569
0.0459924 0.0884829 0.589571
0.0458382 0.0869936 0.588642
0.0456895 0.0855232 0.587816
0.0455298 0.0840251 0.586772
0.0453861 0.0825739 0.586029
0.045246 0.0811348 0.585348
0.0451161 0.0797251 0.584857
0.0449962 0.0783435 0.584555
0.0448979 0.0770194 0.584664
0.0447999 0.0756965 0.58478
0.0446981 0.0743639 0.58482
0.0445831 0.0729986 0.584605
0.0444629 0.0716217 0.584289
0.0443382 0.0702349 0.583881
0.0442027 0.0688232 0.583258
0.0440591 0.0673945 0.582474
0.0439019 0.0659362 0.58142
0.0437396 0.0644691 0.580257
0.043578 0.0630075 0.5791
0.0434229 0.0615648 0.578067
0.0432733 0.0601379 0.577134
0.0431386 0.0587477 0.576491
0.0429962 0.0573427 0.575692
0.0428585 0.055951 0.574982
0.0427406 0.0546047 0.574662
0.0426329 0.0532814 0.574544
0.0425417 0.0519937 0.574755
0.0424472 0.0506993 0.574901
0.042343 0.0493852 0.574852
0.0422075 0.0480083 0.574163
0.0420763 0.0466427 0.573561
0.0419209 0.0452319 0.572458
0.0417736 0.0438403 0.571515
0.0416229 0.0424458 0.570497
0.0414791 0.0410676 0.569613
0.0413079 0.0396421 0.56816
0.0411537 0.038252 0.567046
0.0410114 0.0368871 0.566175
0.0408689 0.0355249 0.565294
0.0407345 0.0341799 0.564575
0.0406235 0.032877 0.564341
0.0405126 0.0315755 0.564104
0.0404004 0.0302731 0.563839
0.0402957 0.0289842 0.563729
0.0401936 0.0277001 0.563672
0.0400836 0.0264047 0.563447
0.0399739 0.0251111 0.563228
0.0398653 0.0238201 0.563028
0.039771 0.022551 0.56313
0.0396672 0.0212687 0.56303
0.0395729 0.0200004 0.563131
0.0394846 0.0187404 0.563361
0.0394083 0.0174961 0.563852
0.0393384 0.016259 0.564482
0.0392894 0.0150467 0.56557
0.0392436 0.0138354 0.566731
0.0391866 0.0126081 0.567654
0.039135 0.0113847 0.568698
0.039066 0.0101392 0.569366
0.0389968 0.00889215 0.570032
0.038924 0.00763983 0.570622
0.0388574 0.00639257 0.57135
0.0387815 0.00513447 0.571875
0.0387253 0.00389398 0.57284
0.038677 0.00265829 0.573988
0.0386265 0.00141766 0.575091
0.0385793 0.000177038 0.576273
0.0385304 -0.00106814 0.577424
0.0384911 -0.0023086 0.5788
0.0384435 -0.00355938 0.579992
0.0384002 -0.00480971 0.581286
0.0383624 -0.00606111 0.582713
0.0383232 -0.00731593 0.584117
0.0382746 -0.00858079 0.585311
0.0382808 -0.00981805 0.587771
0.0383328 -0.0110393 0.591304
0.0383879 -0.0122696 0.594928
0.038436 -0.0135145 0.598411
0.038471 -0.014774 0.601607
0.0486218 0.100525 0.597508
0.0484877 0.0990744 0.597021
0.0483561 0.0976332 0.596575
0.0482001 0.0961243 0.595686
0.0480365 0.0945973 0.594656
0.0478643 0.0930497 0.593466
0.0477019 0.0915326 0.592443
0.0475365 0.0900108 0.591362
0.04738 0.0885165 0.590436
0.0472281 0.0870377 0.589589
0.0470779 0.0855662 0.588767
0.0469155 0.0840654 0.587717
0.0467652 0.0825997 0.586884
0.046619 0.0811474 0.58612
0.0464838 0.079726 0.585556
0.0463636 0.0783447 0.585266
0.0462613 0.07701 0.585307
0.0461631 0.0756857 0.585422
0.0460605 0.0743508 0.585455
0.0459446 0.0729838 0.585237
0.0458191 0.0715951 0.584839
0.0456929 0.0702063 0.584424
0.0455512 0.0687828 0.583714
0.0454049 0.0673507 0.58291
0.045246 0.0658927 0.581866
0.0450895 0.0644435 0.580858
0.0449343 0.0630008 0.579871
0.0447814 0.0615664 0.578922
0.0446295 0.0601373 0.577983
0.0444928 0.0587446 0.577332
0.0443445 0.0573293 0.576453
0.0442011 0.0559277 0.575666
0.0440782 0.0545714 0.575266
0.0439694 0.0532461 0.57514
0.0438741 0.0519489 0.575273
0.0437754 0.0506453 0.57534
0.043667 0.0493229 0.575218
0.0435287 0.047943 0.574507
0.0433921 0.0465689 0.573825
0.0432343 0.0451572 0.57272
0.0430856 0.0437664 0.571788
0.0429338 0.042373 0.570789
0.042789 0.0409958 0.569924
0.0426108 0.0395625 0.568388
0.04245 0.0381645 0.56719
0.0423008 0.0367902 0.566214
0.0421553 0.0354261 0.56531
0.042016 0.0340753 0.564524
0.0419038 0.0327715 0.564277
0.0417922 0.0314701 0.564044
0.041679 0.0301673 0.563773
0.0415742 0.0288788 0.563671
0.041476 0.0276012 0.563703
0.0413703 0.026313 0.563581
0.0412639 0.0250247 0.563443
0.0411575 0.0237374 0.563302
0.0410623 0.0224667 0.563393
0.0409546 0.0211792 0.563221
0.0408563 0.0199053 0.563245
0.0407614 0.0186363 0.563337
0.040678 0.0173821 0.563668
0.040597 0.0161305 0.564052
0.0405414 0.0149086 0.564966
0.0404928 0.0136929 0.566034
0.0404408 0.0124706 0.567034
0.0404051 0.0112638 0.568385
0.0403527 0.0100355 0.569385
0.0403027 0.00880724 0.570444
0.040245 0.00756853 0.571342
0.0401865 0.0063269 0.572227
0.0401086 0.00506486 0.5727
0.0400504 0.00381968 0.573597
0.0399964 0.00257615 0.57459
0.0399338 0.00132274 0.5754
0.0398805 7.50918e-05 0.576417
0.0398261 -0.00117624 0.577413
0.0397853 -0.00241956 0.578711
0.0397368 -0.0036727 0.579846
0.0396983 -0.00492104 0.581208
0.0396619 -0.00617221 0.58262
0.0396308 -0.00742462 0.584158
0.0396049 -0.00867735 0.585817
0.0396425 -0.00990169 0.588894
0.0397109 -0.0111204 0.59267
0.0397779 -0.0123511 0.596434
0.039823 -0.013602 0.599732
0.0400276 -0.0148015 0.606625
0.0499864 0.100451 0.59764
0.0498608 0.0990279 0.597321
0.0497384 0.0976149 0.597056
0.0495934 0.096141 0.596394
0.0494449 0.0946598 0.595667
0.0492758 0.0931252 0.594573
0.0491157 0.0916186 0.593632
0.0489524 0.0901064 0.59263
0.0487939 0.0886102 0.591706
0.0486367 0.0871204 0.590799
0.048484 0.0856456 0.58997
0.0483235 0.0841531 0.588993
0.0481666 0.0826733 0.588077
0.0480182 0.0812179 0.587306
0.0478812 0.0797933 0.586735
0.0477602 0.0784105 0.58645
0.0476495 0.077054 0.586346
0.047547 0.0757182 0.586391
0.0474386 0.0743687 0.586327
0.0473215 0.0729991 0.586102
0.047191 0.0715997 0.585633
0.0470593 0.0701993 0.585138
0.0469148 0.0687719 0.584409
0.0467621 0.0673282 0.583521
0.0465969 0.0658598 0.5824
0.0464388 0.064411 0.581404
0.0462902 0.0629859 0.580575
0.0461362 0.0615523 0.579642
0.0459868 0.0601318 0.578791
0.045852 0.058745 0.578205
0.0457053 0.0573354 0.577392
0.045556 0.0559236 0.576528
0.0454279 0.0545574 0.576051
0.0453129 0.0532195 0.575821
0.045209 0.0519046 0.575797
0.0451016 0.0505835 0.575706
0.0449883 0.0492519 0.5755
0.044848 0.0478706 0.574782
0.0447099 0.0464961 0.5741
0.0445501 0.0450845 0.573001
0.0444044 0.0437019 0.572163
0.0442547 0.0423154 0.571246
0.0441122 0.0409447 0.570461
0.0439343 0.0395159 0.568988
0.0437699 0.0381147 0.567766
0.043617 0.036737 0.56676
0.0434651 0.0353645 0.56577
0.0433197 0.0340057 0.564896
0.0432032 0.0326957 0.564584
0.0430871 0.0313879 0.564277
0.0429658 0.0300733 0.563862
0.0428602 0.0287843 0.563758
0.0427621 0.0275069 0.563797
0.0426603 0.0262248 0.563764
0.0425581 0.0249426 0.563718
0.0424552 0.0236604 0.563662
0.0423596 0.0223885 0.563746
0.0422543 0.0211042 0.563637
0.0421528 0.0198257 0.563603
0.0420572 0.0185554 0.563685
0.0419693 0.0172947 0.563925
0.0418867 0.0160401 0.564268
0.0418233 0.0148074 0.565003
0.0417747 0.0135896 0.566042
0.0417243 0.012367 0.567045
0.0416994 0.0111694 0.568576
0.0416576 0.00994991 0.569766
0.0416187 0.00873044 0.571025
0.0415667 0.00749485 0.572016
0.0415138 0.00625605 0.572996
0.0414357 0.00499189 0.573457
0.0413716 0.00373907 0.57421
0.0413149 0.0024909 0.575122
0.0412483 0.00123238 0.57583
0.0411919 -1.98311e-05 0.576753
0.0411344 -0.00127524 0.577657
0.041092 -0.00252232 0.578883
0.0410445 -0.00377597 0.58001
0.0410047 -0.00502721 0.5813
0.0409736 -0.00627678 0.582782
0.0409564 -0.00752313 0.584568
0.0409603 -0.00876256 0.586812
0.041029 -0.00997602 0.590451
0.0411099 -0.0111939 0.594371
0.0411745 -0.0124316 0.597962
0.0412073 -0.0136933 0.600889
0.0512305 0.0989682 0.597538
0.0511131 0.0975706 0.597373
0.0509798 0.0961311 0.596935
0.0508457 0.0946913 0.596481
0.0506844 0.0931822 0.595562
0.0505283 0.0916893 0.594724
0.0503675 0.0901872 0.593801
0.0502073 0.08869 0.592885
0.0500481 0.0871982 0.59198
0.0498891 0.08571 0.591072
0.0497215 0.0842038 0.590013
0.0495568 0.082708 0.588998
0.0494065 0.0812506 0.588226
0.0492679 0.079824 0.587652
0.0491505 0.0784501 0.587445
0.0490427 0.0771003 0.587406
0.0489431 0.0757701 0.587507
0.0488336 0.0744174 0.587435
0.0487159 0.0730466 0.587217
0.0485796 0.0716348 0.586667
0.0484423 0.0702231 0.586098
0.0482949 0.068791 0.585345
0.0481399 0.0673451 0.584453
0.047972 0.0658742 0.583326
0.0478125 0.0644253 0.582343
0.047662 0.0629986 0.581514
0.0475015 0.061554 0.580502
0.0473503 0.0601321 0.579652
0.0472108 0.0587367 0.579006
0.0470629 0.0573273 0.578207
0.0469109 0.0559123 0.577326
0.0467762 0.0545344 0.576755
0.0466515 0.0531781 0.576364
0.0465414 0.051851 0.576235
0.0464244 0.050512 0.575978
0.0463057 0.0491712 0.575687
0.0461639 0.0477897 0.57497
0.0460213 0.0464094 0.574234
0.0458597 0.0449981 0.573142
0.0457195 0.043628 0.572441
0.0455681 0.0422412 0.571526
0.045428 0.0408767 0.570816
0.0452552 0.0394608 0.569493
0.0450923 0.0380653 0.568345
0.0449376 0.036687 0.567347
0.0447799 0.0353075 0.566286
0.0446281 0.0339408 0.565329
0.0445066 0.0326236 0.564938
0.044385 0.0313081 0.564543
0.0442585 0.0299872 0.564053
0.0441593 0.0287073 0.564077
0.0440606 0.0274289 0.564112
0.0439585 0.0261463 0.564081
0.0438562 0.0248638 0.564043
0.0437534 0.0235815 0.563996
0.0436547 0.0223052 0.564027
0.0435527 0.0210253 0.563994
0.0434542 0.0197502 0.564024
0.0433585 0.0184791 0.56411
0.0432704 0.0172172 0.564344
0.0431838 0.0159568 0.564606
0.0431166 0.0147181 0.565251
0.0430656 0.0134953 0.566215
0.0430197 0.0122757 0.567283
0.0429985 0.0110786 0.568842
0.042967 0.009867 0.570204
0.0429354 0.00865173 0.571572
0.0428892 0.0074192 0.572654
0.0428339 0.00617566 0.573561
0.0427551 0.00490937 0.574001
0.042687 0.00365135 0.574656
0.0426264 0.00239798 0.575466
0.0425562 0.00113515 0.576087
0.0424969 -0.000120847 0.576928
0.0424398 -0.00137741 0.577815
0.0423983 -0.00262512 0.579026
0.0423519 -0.00387966 0.580142
0.0423141 -0.00513176 0.581438
0.0422934 -0.00637744 0.58309
0.0422919 -0.00761712 0.585145
0.0423181 -0.00884794 0.587778
0.0424141 -0.0100529 0.591865
0.0425039 -0.0112735 0.595846
0.0425669 -0.0125169 0.599288
0.0425895 -0.0137867 0.601911
0.0524789 0.0974982 0.597516
0.0523572 0.0960917 0.59729
0.0522357 0.0946866 0.597064
0.0520854 0.0932091 0.596358
0.0519331 0.0917295 0.595616
0.0517797 0.0902493 0.59485
0.0516216 0.0887605 0.594003
0.0514598 0.0872655 0.59309
0.0513026 0.0857846 0.592247
0.051132 0.0842745 0.591176
0.0509603 0.0827652 0.59008
0.0508034 0.0812947 0.589228
0.0506625 0.0798642 0.58864
0.050544 0.078488 0.58843
0.0504314 0.0771265 0.588318
0.0503313 0.0757939 0.588415
0.0502251 0.0744482 0.588409
0.0501018 0.0730651 0.58811
0.0499558 0.0716335 0.58742
0.0498207 0.0702282 0.586912
0.0496713 0.0687939 0.586154
0.0495096 0.0673366 0.585182
0.049344 0.0658743 0.584135
0.0491861 0.0644314 0.583216
0.0490287 0.062993 0.582301
0.0488649 0.0615449 0.581271
0.0487156 0.0601287 0.580484
0.0485703 0.0587239 0.579766
0.0484211 0.0573139 0.578975
0.0482677 0.0558985 0.578104
0.0481266 0.0545099 0.577447
0.0479911 0.0531339 0.576882
0.0478708 0.0517881 0.576583
0.0477433 0.0504307 0.576155
0.0476148 0.0490735 0.575706
0.0474676 0.0476851 0.574921
0.0473193 0.0462976 0.574112
0.0471595 0.0448932 0.573089
0.0470256 0.0435363 0.572528
0.0468805 0.0421629 0.571762
0.0467478 0.0408127 0.571215
0.0465859 0.0394176 0.570135
0.0464303 0.0380365 0.569166
