ply
format ascii 1.0
element vertex 1512
property float x
property float y
property float z
end_header
-0.0143028 -0.0126438 0.265482
-0.0144615 -0.0131889 0.265503
-0.0146217 -0.0137324 0.265581
-0.01478 -0.0142777 0.265596
-0.0149385 -0.0148227 0.265611
-0.015097 -0.0153676 0.265628
-0.0152594 -0.0159098 0.265775
-0.0154213 -0.0164526 0.265901
-0.0155868 -0.0169938 0.266128
-0.0157558 -0.017534 0.266461
-0.0159255 -0.018075 0.266799
-0.016098 -0.0186158 0.267208
-0.0162697 -0.0191582 0.267584
-0.0164424 -0.0197014 0.26799
-0.0166143 -0.020246 0.268357
-0.0167875 -0.0207914 0.268757
-0.0169528 -0.0213391 0.268927
-0.0171172 -0.0218872 0.269082
-0.0172811 -0.0224357 0.269216
-0.0174443 -0.0229845 0.269329
-0.0176139 -0.0235336 0.269601
-0.0179346 -0.0240936 0.273689
-0.0106698 -0.00162439 0.26924
-0.0108281 -0.00218661 0.269121
-0.0109856 -0.00275056 0.268962
-0.0111409 -0.00331919 0.26871
-0.011292 -0.00389695 0.268275
-0.0114385 -0.00448356 0.267648
-0.0115847 -0.00506753 0.267029
-0.0117305 -0.00564891 0.26642
-0.0118793 -0.00622015 0.265975
-0.0120331 -0.00677918 0.265753
-0.0121879 -0.00733422 0.265603
-0.0123435 -0.0078875 0.265474
-0.0124984 -0.00844074 0.265335
-0.0126542 -0.00899173 0.265235
-0.012807 -0.00954677 0.265022
-0.0129662 -0.0100913 0.265061
-0.0131245 -0.0106369 0.265074
-0.013285 -0.0111797 0.265163
-0.0134438 -0.0117246 0.265192
-0.0136069 -0.0122645 0.265371
-0.0137665 -0.0128088 0.265424
-0.013925 -0.013354 0.265447
-0.0140836 -0.0138991 0.265466
-0.0142428 -0.0144437 0.265506
-0.0144011 -0.0149889 0.265518
-0.0145603 -0.0155331 0.265566
-0.0147238 -0.0160746 0.265749
-0.0148881 -0.0166162 0.265943
-0.0150535 -0.0171576 0.266178
-0.0152234 -0.0176976 0.266542
-0.0153934 -0.0182386 0.266911
-0.0155668 -0.0187795 0.267354
-0.01574 -0.0193218 0.267799
-0.015914 -0.0198652 0.268241
-0.0160854 -0.0204106 0.26861
-0.0162571 -0.0209569 0.268975
-0.016421 -0.0215052 0.26911
-0.0165831 -0.0220541 0.269193
-0.0167442 -0.0226031 0.26926
-0.0169047 -0.0231521 0.269298
-0.0172011 -0.0237068 0.272953
-0.0102854 -0.00234865 0.26913
-0.0104437 -0.00291082 0.269004
-0.0106001 -0.00347734 0.268791
-0.0107528 -0.00405344 0.268388
-0.0109005 -0.00463991 0.267763
-0.0110479 -0.00522379 0.267147
-0.0111946 -0.00580527 0.266537
-0.0113436 -0.00637834 0.266056
-0.0114978 -0.0069378 0.265828
-0.0116531 -0.00749308 0.265675
-0.0118089 -0.00804653 0.265547
-0.0119643 -0.00859984 0.265411
-0.0121206 -0.00915094 0.265313
-0.0122738 -0.0097061 0.265101
-0.0124324 -0.0102521 0.265111
-0.0125902 -0.0107989 0.265092
-0.0127497 -0.0113431 0.265146
-0.0129075 -0.0118894 0.265135
-0.0130694 -0.0124306 0.265281
-0.0132289 -0.012975 0.265332
-0.0133886 -0.0135192 0.265387
-0.013548 -0.0140637 0.26543
-0.013708 -0.0146075 0.265507
-0.0138674 -0.015152 0.265553
-0.0140278 -0.0156957 0.265636
-0.0141912 -0.0162375 0.265822
-0.0143552 -0.0167794 0.266019
-0.0145207 -0.0173211 0.266254
-0.014691 -0.0178611 0.266647
-0.014862 -0.018402 0.267049
-0.0150354 -0.0189432 0.267527
-0.0152096 -0.0194857 0.268009
-0.0153832 -0.0200297 0.268454
-0.0155546 -0.0205756 0.268825
-0.0157259 -0.0211226 0.269188
-0.0158896 -0.0216716 0.269326
-0.0160507 -0.022221 0.269379
-0.0162119 -0.0227705 0.269442
-0.0164962 -0.0233216 0.272959
-0.00990024 -0.0030748 0.268983
-0.0100578 -0.00363907 0.26881
-0.0102124 -0.00421215 0.268461
-0.0103617 -0.00479677 0.267872
-0.0105116 -0.00537706 0.267326
-0.0106596 -0.00595835 0.266722
-0.0108096 -0.0065316 0.266243
-0.0109634 -0.00709302 0.26598
-0.0111188 -0.00765002 0.265793
-0.0112741 -0.00820511 0.265635
-0.0114301 -0.00875848 0.265502
-0.0115866 -0.00930977 0.265405
-0.0117411 -0.00986397 0.265221
-0.0118998 -0.0104103 0.265231
-0.0120567 -0.0109589 0.265173
-0.0122162 -0.0115037 0.265216
-0.0123741 -0.0120504 0.265201
-0.012535 -0.0125928 0.265318
-0.0126948 -0.0131373 0.265366
-0.012855 -0.0136811 0.265446
-0.0130145 -0.0142258 0.265494
-0.0131748 -0.0147697 0.265576
-0.0133346 -0.0153143 0.265629
-0.0134951 -0.0158581 0.265719
-0.0136585 -0.0164003 0.265906
-0.0138222 -0.0169426 0.266102
-0.0139882 -0.0174843 0.266363
-0.014158 -0.0180248 0.266758
-0.0143289 -0.0185661 0.267164
-0.0145021 -0.0191077 0.267646
-0.0146766 -0.0196503 0.268165
-0.0148497 -0.020195 0.268611
-0.0150216 -0.0207413 0.269021
-0.0151927 -0.0212888 0.269386
-0.0153587 -0.021838 0.269584
-0.0155199 -0.022388 0.26964
-0.0156806 -0.022938 0.269678
-0.0093643 -0.00321048 0.269458
-0.00951953 -0.00378589 0.269101
-0.00967311 -0.00436542 0.268639
-0.00982295 -0.00495187 0.268018
-0.0099734 -0.00553355 0.267447
-0.0101241 -0.00611138 0.266913
-0.0102753 -0.00668318 0.266469
-0.0104302 -0.0072448 0.266209
-0.0105855 -0.00780245 0.26602
-0.0107409 -0.00835941 0.265826
-0.0108964 -0.00891468 0.265656
-0.0110526 -0.00946764 0.265526
-0.0112082 -0.0100209 0.265372
-0.0113662 -0.0105689 0.265348
-0.0115235 -0.0111179 0.265286
-0.0116829 -0.0116632 0.265324
-0.011841 -0.0122102 0.265306
-0.0120013 -0.012754 0.265388
-0.0121603 -0.0132997 0.265411
-0.0123206 -0.0138436 0.265491
-0.0124802 -0.0143885 0.265541
-0.0126406 -0.0149325 0.265627
-0.0128006 -0.0154771 0.26569
-0.0129621 -0.0160206 0.265812
-0.0131253 -0.0165631 0.265996
-0.0132898 -0.0171053 0.266217
-0.0134562 -0.017647 0.266513
-0.0136266 -0.0181874 0.266947
-0.013798 -0.0187289 0.267393
-0.0139719 -0.0192708 0.26791
-0.0141459 -0.0198143 0.268427
-0.0143186 -0.0203597 0.268877
-0.0144902 -0.0209066 0.269286
-0.014662 -0.0214548 0.269685
-0.0148302 -0.0220044 0.269957
-0.0149941 -0.022555 0.270086
-0.0151623 -0.0231059 0.27036
-0.00882228 -0.00336359 0.269638
-0.00897788 -0.00394191 0.269229
-0.00913137 -0.00452376 0.268729
-0.00928277 -0.00511014 0.268106
-0.00943452 -0.00569007 0.267572
-0.00958744 -0.00626445 0.26711
-0.0097403 -0.00683478 0.266702
-0.00989556 -0.00739696 0.266439
-0.0100515 -0.00795519 0.266244
-0.0102072 -0.0085129 0.266044
-0.0103627 -0.00906995 0.265839
-0.0105184 -0.00962479 0.265671
-0.0106746 -0.0101784 0.265515
-0.0108317 -0.0107289 0.265427
-0.0109886 -0.011279 0.26534
-0.0111485 -0.0118237 0.265408
-0.0113073 -0.01237 0.265423
-0.0114681 -0.0129138 0.265514
-0.0116286 -0.013458 0.265601
-0.0117898 -0.0140016 0.265714
-0.0119495 -0.0145469 0.265766
-0.01211 -0.0150915 0.265852
-0.012271 -0.015636 0.265941
-0.0124322 -0.0161801 0.266059
-0.0125945 -0.0167239 0.266209
-0.0127587 -0.0172667 0.266431
-0.012926 -0.0178083 0.266765
-0.0130965 -0.0183493 0.267213
-0.0132685 -0.0188911 0.267699
-0.0134425 -0.0194335 0.268246
-0.013617 -0.0199776 0.26879
-0.0137891 -0.020524 0.269241
-0.0139617 -0.0210716 0.269687
-0.0141341 -0.0216206 0.270127
-0.0143053 -0.0221708 0.270501
-0.0144725 -0.0227223 0.270741
-0.014648 -0.0232746 0.271242
-0.00812257 -0.00293853 0.270195
-0.00827851 -0.00352211 0.269723
-0.00843463 -0.0041003 0.26932
-0.00858872 -0.0046843 0.26878
-0.00874166 -0.0052691 0.268186
-0.0088949 -0.00584723 0.267688
-0.00904969 -0.00641824 0.267298
-0.00920399 -0.00698708 0.266927
-0.00936053 -0.00754816 0.266696
-0.00951632 -0.00810835 0.266467
-0.00967221 -0.00866798 0.266228
-0.00982803 -0.00922552 0.266019
-0.00998352 -0.00978223 0.265813
-0.0101398 -0.0103362 0.265657
-0.0102978 -0.0108859 0.265602
-0.0104559 -0.0114351 0.26555
-0.0106156 -0.0119809 0.265596
-0.0107754 -0.0125265 0.26565
-0.010936 -0.0130709 0.26574
-0.0110967 -0.0136156 0.265831
-0.0112581 -0.0141595 0.265948
-0.0114187 -0.0147046 0.266028
-0.0115792 -0.0152499 0.266112
-0.01174 -0.0157951 0.266196
-0.0119006 -0.0163405 0.266279
-0.0120629 -0.0168848 0.266426
-0.012227 -0.0174282 0.266651
-0.0123951 -0.0179699 0.267026
-0.0125661 -0.0185111 0.267514
-0.0127387 -0.0190531 0.268036
-0.0129127 -0.0195963 0.268618
-0.0130874 -0.0201411 0.269194
-0.0132594 -0.0206883 0.269647
-0.0134314 -0.021237 0.270096
-0.0136057 -0.0217866 0.270605
-0.0137788 -0.0223378 0.271059
-0.0139486 -0.0228903 0.271386
-0.0141292 -0.0234441 0.27208
-0.00796434 -0.00236357 0.270493
-0.00725585 -0.00196558 0.270553
-0.00741667 -0.00253108 0.270428
-0.00757626 -0.00310229 0.270193
-0.00773309 -0.0036851 0.269732
-0.00788992 -0.00426359 0.269324
-0.00804496 -0.00484762 0.26878
-0.00819937 -0.00543052 0.268221
-0.00835424 -0.00600652 0.267764
-0.00851001 -0.00657553 0.267419
-0.00866588 -0.00714293 0.267081
-0.00882249 -0.00770449 0.266847
-0.00897867 -0.00826641 0.266583
-0.0091344 -0.00882757 0.266314
-0.00929097 -0.0093852 0.266106
-0.00944703 -0.0099419 0.265903
-0.00960417 -0.010495 0.265775
-0.00976306 -0.0110439 0.265751
-0.00992173 -0.0115924 0.265735
-0.010083 -0.0121364 0.265849
-0.0102438 -0.0126813 0.265939
-0.010405 -0.0132254 0.266066
-0.0105664 -0.0137698 0.266191
-0.0107284 -0.0143138 0.266339
-0.0108889 -0.0148603 0.266391
-0.0110496 -0.0154063 0.266472
-0.0112097 -0.015953 0.266522
-0.0113692 -0.0165003 0.26654
-0.0115307 -0.0170459 0.266655
-0.0116952 -0.0175894 0.26691
-0.0118629 -0.0181318 0.267285
-0.0120338 -0.0186736 0.267778
-0.0122071 -0.0192158 0.268369
-0.0123818 -0.0197594 0.268984
-0.0125558 -0.0203052 0.269572
-0.0127282 -0.0208532 0.27006
-0.012901 -0.0214026 0.270546
-0.0130755 -0.0219533 0.271093
-0.0132494 -0.0225055 0.271586
-0.0134218 -0.0230592 0.272023
-0.013607 -0.0236147 0.272903
-0.00670714 -0.00214014 0.27037
-0.00686825 -0.002704 0.27027
-0.00702887 -0.00327209 0.270085
-0.00718685 -0.00385215 0.26967
-0.00734446 -0.00442993 0.269271
-0.00750027 -0.00501483 0.268707
-0.00765603 -0.00559567 0.268184
-0.0078118 -0.00617096 0.267739
-0.00796872 -0.0067381 0.267432
-0.00812551 -0.00730386 0.267131
-0.00828289 -0.00786548 0.266896
-0.00843964 -0.00842768 0.266627
-0.00859581 -0.00898885 0.266359
-0.0087526 -0.00954662 0.266152
-0.00890948 -0.0101031 0.265956
-0.0090674 -0.0106551 0.265864
-0.00922667 -0.011204 0.265846
-0.00938621 -0.0117517 0.265862
-0.00954786 -0.012295 0.26601
-0.00970894 -0.0128395 0.266135
-0.00987051 -0.013384 0.266263
-0.0100326 -0.013928 0.266417
-0.0101945 -0.0144726 0.266567
-0.0103544 -0.0150203 0.26659
-0.0105153 -0.0155667 0.266673
-0.010676 -0.0161133 0.266753
-0.0108359 -0.0166611 0.26677
-0.0109971 -0.0172073 0.266885
-0.0111623 -0.0177509 0.267168
-0.0113292 -0.0182944 0.267512
-0.011499 -0.0188372 0.267998
-0.0116725 -0.0193798 0.268623
-0.0118475 -0.0199237 0.269282
-0.0120212 -0.0204703 0.26988
-0.0121948 -0.0210187 0.270442
-0.0123678 -0.021569 0.270962
-0.0125429 -0.0221205 0.271542
-0.0127161 -0.0226739 0.272037
-0.0128908 -0.0232287 0.272574
-0.0130785 -0.0237857 0.273588
-0.0138887 -0.0241828 0.277231
-0.013266 -0.0243459 0.274567
-0.00599608 -0.00175796 0.270169
-0.00615783 -0.00231923 0.270112
-0.00631885 -0.00288627 0.26995
-0.00647911 -0.00345929 0.269669
-0.00663765 -0.00403843 0.269258
-0.00679674 -0.00461166 0.26893
-0.00695384 -0.00519215 0.268439
-0.00711117 -0.00576723 0.268021
-0.00726867 -0.00633723 0.267678
-0.00742636 -0.00690416 0.267373
-0.00758344 -0.00747114 0.267041
-0.00774116 -0.00803297 0.266799
-0.00789784 -0.00859648 0.266497
-0.00805476 -0.00915629 0.266259
-0.0082126 -0.00971236 0.266091
-0.00837071 -0.0102662 0.265965
-0.00852954 -0.0108169 0.265911
-0.0086892 -0.0113649 0.265927
-0.00884914 -0.0119126 0.265946
-0.0090109 -0.0124554 0.266127
-0.00917273 -0.0129992 0.266286
-0.00933484 -0.013543 0.266451
-0.00949738 -0.0140868 0.266636
-0.00966031 -0.0146303 0.266852
-0.00982054 -0.0151786 0.266877
-0.00998218 -0.0157249 0.266995
-0.010143 -0.0162721 0.267078
-0.0103029 -0.0168206 0.267093
-0.010464 -0.0173679 0.267175
-0.0106286 -0.0179128 0.267423
-0.0107939 -0.0184576 0.26773
-0.0109628 -0.0190014 0.268185
-0.0111354 -0.0195447 0.268806
-0.0113095 -0.0200895 0.269472
-0.0114836 -0.0206364 0.270109
-0.0116576 -0.0211853 0.270712
-0.0118307 -0.0217363 0.271264
-0.0120051 -0.0222887 0.271847
-0.0121785 -0.0228429 0.272374
-0.0123535 -0.0233986 0.272944
-0.0125374 -0.0239567 0.273856
-0.0127227 -0.0245177 0.274799
-0.00528631 -0.0013604 0.270214
-0.00544835 -0.00192643 0.270085
-0.00561022 -0.0024887 0.270012
-0.00577111 -0.00305838 0.269803
-0.00593148 -0.00363457 0.269461
-0.00609114 -0.00421184 0.269077
-0.00625037 -0.0047847 0.268751
-0.00640845 -0.00536441 0.268267
-0.00656689 -0.00593714 0.267889
-0.00672546 -0.00650534 0.267578
-0.00688363 -0.00707211 0.267272
-0.00704088 -0.00764055 0.266905
-0.00719892 -0.00820244 0.266657
-0.00735603 -0.00876583 0.266352
-0.00751365 -0.00932534 0.266114
-0.00767209 -0.00987976 0.265985
-0.00783114 -0.010431 0.265929
-0.00799078 -0.0109803 0.265914
-0.00815119 -0.0115264 0.265995
-0.00831188 -0.0120723 0.266078
-0.00847385 -0.0126153 0.266265
-0.00863573 -0.0131593 0.266429
-0.00879768 -0.0137036 0.266596
-0.00896042 -0.0142476 0.266785
-0.00912334 -0.0147915 0.267002
-0.00928337 -0.0153402 0.267033
-0.0094457 -0.0158861 0.267184
-0.00960706 -0.0164333 0.267296
-0.00976739 -0.0169822 0.267317
-0.00992846 -0.0175301 0.267399
-0.0100933 -0.018075 0.267682
-0.0102579 -0.0186209 0.267952
-0.0104256 -0.0191659 0.26837
-0.0105967 -0.0197103 0.268955
-0.0107699 -0.0202558 0.269617
-0.0109427 -0.0208035 0.270225
-0.0111164 -0.021353 0.270862
-0.0112889 -0.0219045 0.271419
-0.0114629 -0.0224575 0.272004
-0.0116356 -0.0230124 0.272529
-0.0118101 -0.0235687 0.273101
-0.0119912 -0.0241274 0.273947
-0.0121752 -0.0246891 0.274887
-0.0129896 -0.0250989 0.278947
-0.012358 -0.0252532 0.275747
-0.00457578 -0.00096506 0.270218
-0.00473824 -0.00152975 0.270118
-0.00490046 -0.0020952 0.269998
-0.00506217 -0.00266007 0.26988
-0.00522358 -0.00323216 0.269625
-0.00538391 -0.00381167 0.269219
-0.00554427 -0.00438695 0.268864
-0.00570436 -0.00496101 0.268506
-0.00586329 -0.0055383 0.268061
-0.00602234 -0.00611037 0.26769
-0.00618141 -0.00667828 0.267377
-0.00633971 -0.00724636 0.267037
-0.00649748 -0.0078148 0.26666
-0.00665579 -0.00837764 0.266381
-0.00681346 -0.00893947 0.266104
-0.00697207 -0.00949691 0.265907
-0.00713085 -0.0100497 0.265816
-0.00729065 -0.0105993 0.265798
-0.00745034 -0.0111475 0.265816
-0.00761101 -0.0116933 0.2659
-0.00777203 -0.0122382 0.266019
-0.00793411 -0.0127802 0.266242
-0.00809636 -0.0133233 0.266443
-0.00825859 -0.013867 0.266643
-0.00842164 -0.0144098 0.266896
-0.00858522 -0.0149531 0.267151
-0.00874557 -0.0155021 0.267186
-0.00890834 -0.0160477 0.267373
-0.00907037 -0.0165947 0.267516
-0.00923065 -0.0171441 0.267541
-0.00939138 -0.017693 0.267593
-0.00955664 -0.018238 0.267907
-0.00972047 -0.018785 0.268147
-0.0098866 -0.0193312 0.268495
-0.0100564 -0.0198767 0.269041
-0.0102287 -0.0204228 0.269692
-0.0103992 -0.0209715 0.270232
-0.0105719 -0.0215214 0.270869
-0.0107444 -0.0220733 0.271458
-0.0109177 -0.0226268 0.272046
-0.0110899 -0.023182 0.272576
-0.011264 -0.023739 0.273182
-0.0114433 -0.0242983 0.273997
-0.0116252 -0.0248605 0.2749
-0.0118069 -0.025425 0.275754
-0.00386468 -0.000574476 0.270142
-0.00402727 -0.0011331 0.270144
-0.00418992 -0.00170182 0.269978
-0.00435232 -0.00226903 0.269827
-0.0045144 -0.00283629 0.269663
-0.00467587 -0.00341294 0.269323
-0.00483679 -0.00399396 0.26888
-0.00499758 -0.00456883 0.268522
-0.00515795 -0.00514408 0.26813
-0.00531751 -0.00572051 0.267689
-0.00547757 -0.00629031 0.267349
-0.0056369 -0.00685761 0.267038
-0.00579562 -0.00742527 0.266695
-0.00595435 -0.00799177 0.266348
-0.00611308 -0.00855406 0.26607
-0.00627151 -0.00911385 0.265831
-0.00643041 -0.00966828 0.265704
-0.00658998 -0.0102193 0.265651
-0.00675005 -0.0107675 0.26567
-0.00691026 -0.0113145 0.265719
-0.0070708 -0.0118604 0.265804
-0.00723177 -0.0124051 0.265927
-0.00739364 -0.012947 0.266155
-0.00755594 -0.0134893 0.266389
-0.00771789 -0.0140332 0.266589
-0.00788121 -0.0145753 0.266875
-0.00804473 -0.015118 0.267166
-0.00820588 -0.0156662 0.26724
-0.0083684 -0.0162122 0.267429
-0.00853075 -0.0167589 0.267604
-0.00869161 -0.017308 0.267661
-0.00885253 -0.0178572 0.267719
-0.00901751 -0.0184027 0.268036
-0.00918098 -0.0189502 0.268272
-0.00934638 -0.0194972 0.268585
-0.00951368 -0.0200442 0.269025
-0.00968355 -0.0205913 0.2696
-0.00985295 -0.0211405 0.270098
-0.0100249 -0.0216906 0.270733
-0.0101964 -0.0222427 0.271328
-0.0103694 -0.0227963 0.271951
-0.0105422 -0.0233519 0.272547
-0.0107156 -0.0239092 0.273154
-0.0108933 -0.0244688 0.273938
-0.0110737 -0.0250314 0.274837
-0.0112531 -0.0255962 0.275652
-0.00331576 -0.000739931 0.27011
-0.00347864 -0.00130188 0.270059
-0.00364156 -0.00187226 0.269865
-0.00380428 -0.00244181 0.269673
-0.00396668 -0.00301399 0.269421
-0.00412889 -0.00359235 0.269041
-0.00429045 -0.00417502 0.268559
-0.0044517 -0.00475267 0.268137
-0.00461254 -0.00532904 0.267712
-0.00477273 -0.00590486 0.267268
-0.00493309 -0.00647569 0.266892
-0.00509268 -0.00704212 0.266585
-0.00525215 -0.00760898 0.266241
-0.0054115 -0.008173 0.265933
-0.00557056 -0.00873194 0.265723
-0.00572975 -0.00928802 0.265561
-0.00588957 -0.00983922 0.265507
-0.00604976 -0.0103875 0.265523
-0.00620997 -0.0109345 0.265573
-0.00637018 -0.0114815 0.265622
-0.00653049 -0.0120274 0.265706
-0.00669129 -0.0125723 0.265828
-0.00685283 -0.0131153 0.266022
-0.00701438 -0.0136585 0.266225
-0.00717641 -0.0142023 0.266422
-0.00733903 -0.0147443 0.266712
-0.00750219 -0.015287 0.267007
-0.00766392 -0.0158337 0.26715
-0.0078269 -0.0163785 0.267404
-0.00798973 -0.0169247 0.267616
-0.00815081 -0.0174734 0.267707
-0.00831231 -0.0180223 0.267798
-0.00847689 -0.0185682 0.268116
-0.00864027 -0.019116 0.268351
-0.00880479 -0.0196639 0.268629
-0.00897064 -0.0202118 0.268998
-0.00913875 -0.0207598 0.269498
-0.00930657 -0.0213094 0.269953
-0.00947704 -0.0218599 0.270556
-0.00964797 -0.0224121 0.271157
-0.00981971 -0.022966 0.271785
-0.00999308 -0.0235217 0.272446
-0.0101656 -0.0240792 0.273054
-0.0103418 -0.0246393 0.273841
-0.0105212 -0.0252023 0.274736
-0.0107004 -0.0257679 0.275613
-0.00260381 -0.000342599 0.270134
-0.0027668 -0.000906311 0.270063
-0.00293017 -0.00147118 0.269965
-0.00309356 -0.00204565 0.269703
-0.003257 -0.00261994 0.269425
-0.00341969 -0.0031976 0.269072
-0.00358278 -0.0037777 0.268649
-0.00374489 -0.00435973 0.268165
-0.0039066 -0.00493869 0.267707
-0.00406834 -0.00551591 0.267249
-0.00422894 -0.00609121 0.2668
-0.00438959 -0.00666301 0.266387
-0.00454974 -0.00723005 0.266049
-0.00470948 -0.00779572 0.265713
-0.00486909 -0.00835596 0.265474
-0.00502902 -0.00891211 0.26531
-0.00518863 -0.00946463 0.265224
-0.00534875 -0.0100139 0.26521
-0.00550891 -0.0105605 0.265262
-0.0056692 -0.0111061 0.265342
-0.0058295 -0.0116519 0.265426
-0.00598981 -0.0121967 0.265541
-0.00615074 -0.0127405 0.265692
-0.00631179 -0.0132837 0.26588
-0.00647328 -0.0138279 0.266042
-0.00663432 -0.0143726 0.266206
-0.00679652 -0.0149153 0.266463
-0.00695886 -0.0154586 0.266728
-0.00712059 -0.0160043 0.266905
-0.00728372 -0.0165482 0.267198
-0.00744667 -0.0170931 0.267484
-0.00760895 -0.0176406 0.267643
-0.00777057 -0.018189 0.267771
-0.00793501 -0.0187349 0.268119
-0.00809819 -0.0192829 0.268353
-0.00826191 -0.0198314 0.268598
-0.00842668 -0.0203799 0.268931
-0.00859396 -0.0209282 0.269423
-0.00876099 -0.0214782 0.269872
-0.00893074 -0.0220288 0.270477
-0.00910123 -0.0225812 0.271085
-0.0092716 -0.0231355 0.271683
-0.0094433 -0.0236915 0.272309
-0.0096143 -0.0242491 0.27288
-0.00978967 -0.0248094 0.273667
-0.0099681 -0.0253729 0.2746
-0.010148 -0.0259397 0.275585
-0.0109417 -0.0263639 0.27961
-0.0103265 -0.0265081 0.276432
-0.00205485 -0.00051361 0.270016
-0.00221822 -0.00107929 0.269913
-0.00238224 -0.00164954 0.269726
-0.00254641 -0.0022279 0.269391
-0.00271035 -0.00280605 0.269039
-0.00287403 -0.00338518 0.268648
-0.00303731 -0.0039666 0.26819
-0.00320039 -0.0045462 0.267735
-0.00336284 -0.00512579 0.267249
-0.00352489 -0.0057039 0.266758
-0.00368637 -0.00628031 0.266268
-0.00384747 -0.00685288 0.265821
-0.00400821 -0.00742055 0.265446
-0.00416828 -0.00798364 0.265147
-0.00432836 -0.00853981 0.264982
-0.0044883 -0.00909243 0.264889
-0.00464808 -0.00964143 0.264877
-0.004808 -0.0101889 0.2649
-0.00496831 -0.010734 0.264984
-0.00512849 -0.0112793 0.265067
-0.00528883 -0.0118246 0.265154
-0.00544881 -0.01237 0.265243
-0.00560935 -0.0129145 0.265361
-0.00576997 -0.0134585 0.265512
-0.00593043 -0.0140035 0.265634
-0.00609121 -0.0145487 0.265757
-0.00625296 -0.0150911 0.266007
-0.00641485 -0.0156339 0.266269
-0.00657673 -0.0161778 0.26651
-0.00673969 -0.0167201 0.266875
-0.00690282 -0.0172634 0.267239
-0.00706556 -0.0178095 0.267477
-0.00722779 -0.0183569 0.267672
-0.00739168 -0.0189029 0.268021
-0.00755487 -0.0194509 0.268255
-0.00771787 -0.0199997 0.268501
-0.007882 -0.0205485 0.268801
-0.00804857 -0.021097 0.26929
-0.00821563 -0.0216468 0.269773
-0.00838457 -0.0221978 0.270383
-0.00855401 -0.0227505 0.270995
-0.00872351 -0.023305 0.271587
-0.00889345 -0.0238612 0.272169
-0.00906343 -0.0244188 0.272696
-0.00923749 -0.0249793 0.273486
-0.00941511 -0.0255435 0.274466
-0.00959567 -0.0261116 0.27557
-0.00977609 -0.0266825 0.276609
-0.00150647 -0.00068835 0.26984
-0.00167048 -0.00125682 0.269689
-0.00183523 -0.00183192 0.269418
-0.0020004 -0.0024149 0.268997
-0.00216539 -0.00299821 0.268544
-0.00232952 -0.0035786 0.268116
-0.00249358 -0.00415889 0.267661
-0.00265689 -0.00473543 0.267247
-0.00282043 -0.00531548 0.266733
-0.00298305 -0.00589104 0.266276
-0.00314507 -0.00646835 0.26575
-0.00330687 -0.00704029 0.265296
-0.00346778 -0.00760719 0.264921
-0.00362831 -0.00816661 0.264685
-0.00378848 -0.00872049 0.264559
-0.0039486 -0.00926956 0.264538
-0.00410848 -0.00981687 0.264559
-0.00426855 -0.0103628 0.264612
-0.00442825 -0.0109078 0.264695
-0.00458851 -0.0114527 0.264779
-0.00474836 -0.0119977 0.264868
-0.00490856 -0.0125426 0.264962
-0.00506884 -0.0130877 0.265051
-0.00522908 -0.0136323 0.265167
-0.00538927 -0.0141779 0.26525
-0.00554938 -0.0147237 0.265335
-0.00571057 -0.0152665 0.265548
-0.00587178 -0.015809 0.265806
-0.00603353 -0.0163512 0.266108
-0.00619615 -0.0168923 0.266519
-0.00635938 -0.0174341 0.266959
-0.0065222 -0.0179789 0.267273
-0.00668458 -0.0185253 0.267539
-0.00684799 -0.0190713 0.267892
-0.00701118 -0.0196191 0.268157
-0.00717418 -0.0201678 0.268403
-0.00733749 -0.020717 0.268672
-0.00750337 -0.0212656 0.269164
-0.00767007 -0.0218155 0.269687
-0.00783797 -0.0223668 0.270303
-0.00800662 -0.0229198 0.270917
-0.00817553 -0.0234745 0.271498
-0.00834394 -0.0240308 0.272031
-0.00851238 -0.0245885 0.272515
-0.00868565 -0.0251495 0.273335
-0.00886312 -0.0257145 0.274399
-0.00904385 -0.0262843 0.275625
-0.00922503 -0.0268575 0.276822
-0.000793644 -0.00029524 0.269799
-0.000958944 -0.000868346 0.269581
-0.00112404 -0.00144141 0.269349
-0.00128955 -0.00201932 0.269023
-0.00145529 -0.00260413 0.268561
-0.00162161 -0.00319073 0.268037
-0.00178625 -0.00377005 0.267613
-0.00195089 -0.00434713 0.267199
-0.00211485 -0.00492244 0.266793
-0.00227885 -0.00550148 0.266284
-0.00244192 -0.00607456 0.26586
-0.002605 -0.006651 0.265334
-0.00276708 -0.00722215 0.264883
-0.00292871 -0.00778696 0.264537
-0.00308936 -0.00834417 0.26434
-0.00324957 -0.00889742 0.264219
-0.00340958 -0.00944462 0.264234
-0.00356925 -0.00999044 0.264285
-0.00372908 -0.0105362 0.264337
-0.0038891 -0.0110809 0.264418
-0.00404909 -0.0116256 0.264501
-0.00420889 -0.0121703 0.264587
-0.0043687 -0.0127152 0.264676
-0.00452895 -0.0132601 0.264763
-0.00468907 -0.0138052 0.264846
-0.00484904 -0.0143514 0.264896
-0.005009 -0.0148975 0.264946
-0.00516939 -0.0154408 0.265126
-0.00533006 -0.0159835 0.265353
-0.00549119 -0.0165246 0.265693
-0.00565365 -0.0170647 0.266137
-0.00581624 -0.0176051 0.266651
-0.00597895 -0.0181487 0.267036
-0.00614164 -0.0186939 0.267372
-0.00630475 -0.0192396 0.267761
-0.0064675 -0.0197872 0.26806
-0.0066305 -0.0203359 0.268305
-0.00679328 -0.0208853 0.268573
-0.00695847 -0.0214341 0.269066
-0.00712478 -0.0219842 0.269621
-0.00729209 -0.0225356 0.270246
-0.00745975 -0.023089 0.270862
-0.00762723 -0.0236441 0.271408
-0.00779468 -0.0242005 0.271897
-0.00796227 -0.0247583 0.272374
-0.00813461 -0.0253195 0.273198
-0.00831106 -0.0258857 0.274337
-0.00849184 -0.0264574 0.275708
-0.00867284 -0.0270327 0.277019
-0.000247257 -0.000479456 0.269477
-0.000412945 -0.00105347 0.269238
-0.000578618 -0.00162942 0.268952
-0.000745301 -0.0022107 0.268559
-0.000912602 -0.00279874 0.268026
-0.00107956 -0.00338459 0.267499
-0.00124481 -0.00396236 0.267085
-0.00140966 -0.00453843 0.266675
-0.00157393 -0.00511281 0.26627
-0.00173827 -0.0056892 0.265795
-0.00190219 -0.0062612 0.265374
-0.00206567 -0.00683489 0.264888
-0.00222818 -0.00740342 0.264478
-0.00239013 -0.00796723 0.26414
-0.00255072 -0.00852106 0.264007
-0.00271125 -0.00907366 0.263891
-0.00287135 -0.00962153 0.263879
-0.00303122 -0.0101669 0.263928
-0.00319084 -0.0107113 0.264006
-0.00335056 -0.0112567 0.264058
-0.00351003 -0.0118 0.264173
-0.00366981 -0.0123435 0.264289
-0.00382976 -0.0128871 0.264405
-0.00398942 -0.013432 0.264488
-0.00414949 -0.0139769 0.264569
-0.00430938 -0.0145227 0.264618
-0.00446925 -0.0150686 0.264668
-0.00462917 -0.0156116 0.264851
-0.00478972 -0.0161546 0.265048
-0.00495027 -0.0166956 0.265388
-0.00511187 -0.0172356 0.26583
-0.0052741 -0.0177757 0.266345
-0.00543603 -0.0183188 0.266761
-0.0055986 -0.018863 0.267168
-0.00576142 -0.0194082 0.267594
-0.00592387 -0.0199556 0.26793
-0.00608645 -0.0205042 0.268207
-0.00624925 -0.0210535 0.268473
-0.00641362 -0.0216026 0.268962
-0.00657945 -0.0221528 0.269547
-0.00674569 -0.0227046 0.270173
-0.00691242 -0.0232583 0.270793
-0.00707958 -0.0238136 0.271341
-0.00724594 -0.0243702 0.271798
-0.00741281 -0.0249282 0.272276
-0.00758376 -0.0254898 0.273103
-0.00775912 -0.0260569 0.274279
-0.00793841 -0.0266297 0.275692
-0.00811823 -0.0272065 0.277066
0.000132187 -0.00124012 0.268868
-3.42587e-05 -0.00181638 0.268567
-0.000202058 -0.00240173 0.268095
-0.00037048 -0.00298885 0.267562
-0.000537861 -0.0035734 0.267044
-0.000703743 -0.00415027 0.266631
-0.000869077 -0.00472552 0.266222
-0.00103422 -0.00530104 0.26578
-0.0011996 -0.00587682 0.265298
-0.0013635 -0.00644649 0.264909
-0.00152732 -0.00701711 0.264471
-0.00169039 -0.00758284 0.264105
-0.00185206 -0.00814304 0.263837
-0.00201308 -0.00869497 0.263736
-0.00217345 -0.00924726 0.26362
-0.00233367 -0.00979484 0.263608
-0.00249331 -0.0103401 0.263655
-0.00265265 -0.0108842 0.263734
-0.00281221 -0.0114281 0.263819
-0.00297196 -0.0119709 0.263941
-0.00313123 -0.0125141 0.264061
-0.00329102 -0.0130576 0.264178
-0.00345063 -0.0136023 0.264258
-0.00361043 -0.0141479 0.264308
-0.00377024 -0.0146935 0.264357
-0.00393004 -0.0152391 0.264407
-0.00408988 -0.0157819 0.26459
-0.00425009 -0.0163248 0.264784
-0.0044104 -0.0168655 0.265121
-0.00457095 -0.0174057 0.265557
-0.00473227 -0.0179454 0.2661
-0.004894 -0.0184879 0.266549
-0.00505572 -0.0190317 0.266995
-0.00521803 -0.0195766 0.267459
-0.00538056 -0.0201236 0.26783
-0.00554276 -0.0206723 0.26811
-0.00570486 -0.021222 0.268343
-0.00586878 -0.0217712 0.268826
-0.00603328 -0.0223217 0.269408
-0.00619898 -0.0228737 0.270031
-0.00636502 -0.0234276 0.270657
-0.00653133 -0.0239833 0.271271
-0.00669746 -0.0245402 0.271767
-0.00686416 -0.0250987 0.272284
-0.00703389 -0.025661 0.273115
-0.00720766 -0.0262287 0.274292
-0.00738432 -0.026802 0.275662
-0.00756169 -0.0273791 0.277003
0.000842048 -0.000856997 0.268685
0.000675655 -0.0014305 0.268434
0.000508145 -0.00200866 0.268089
0.000339671 -0.00259179 0.26764
0.000170791 -0.00317791 0.267111
2.74189e-06 -0.00376127 0.266599
-0.000164139 -0.00433926 0.266151
-0.00033038 -0.00491556 0.265706
-0.000496725 -0.00549232 0.265221
-0.00066214 -0.00606586 0.264767
-0.0008263 -0.00663271 0.264418
-0.000990034 -0.00719911 0.264051
-0.00115295 -0.00776083 0.263759
-0.00131469 -0.0083175 0.263558
-0.00147574 -0.00886923 0.263456
-0.00163657 -0.00942109 0.263338
-0.00179642 -0.00996849 0.263325
-0.00195613 -0.0105135 0.26337
-0.00211538 -0.0110573 0.263449
-0.002275 -0.0116008 0.263536
-0.00243408 -0.0121421 0.263698
-0.00259311 -0.0126839 0.263859
-0.00275236 -0.0132262 0.264014
-0.00291216 -0.0137697 0.26413
-0.00307179 -0.0143145 0.264211
-0.0032316 -0.0148601 0.264261
-0.00339129 -0.015405 0.264341
-0.00355077 -0.0159479 0.264524
-0.00371083 -0.0164909 0.264717
-0.00387046 -0.0170321 0.265047
-0.00403078 -0.017573 0.265445
-0.00419124 -0.0181139 0.265922
-0.00435213 -0.0186564 0.266374
-0.00451346 -0.0192003 0.26682
-0.00467516 -0.0197451 0.267294
-0.00483705 -0.0202919 0.2677
-0.00499872 -0.0208405 0.268012
-0.0051608 -0.0213901 0.268277
-0.00532393 -0.0219396 0.268763
-0.00548797 -0.0224903 0.269345
-0.00565236 -0.0230427 0.269967
-0.0058177 -0.0235969 0.270591
-0.00598324 -0.0241529 0.271208
-0.00614899 -0.0247103 0.271742
-0.00631513 -0.0252694 0.2723
-0.00648359 -0.0258323 0.273132
-0.00665553 -0.0264004 0.27427
-0.00682957 -0.0269735 0.275561
-0.00700454 -0.0275507 0.276859
-0.00773671 -0.0279553 0.277975
-0.00717751 -0.0281269 0.277797
0.00138342 -0.00105222 0.26818
0.00121676 -0.00162469 0.267932
0.00104895 -0.00220225 0.267585
0.000880676 -0.00278166 0.267184
0.000711094 -0.00336632 0.266665
0.00054295 -0.00394709 0.266186
0.00037519 -0.00452462 0.265733
0.000207657 -0.00510227 0.265247
4.03186e-05 -0.00567979 0.264731
-0.000125286 -0.00625082 0.26431
-0.000289633 -0.0068152 0.263996
-0.000453479 -0.00737885 0.263674
-0.000615983 -0.00793696 0.263449
-0.000777769 -0.00849172 0.263282
-0.000938928 -0.00904316 0.263178
-0.00109976 -0.00959474 0.26306
-0.00125995 -0.0101431 0.263013
-0.00141944 -0.0106878 0.263058
-0.00157871 -0.0112312 0.263136
-0.0017381 -0.0117744 0.263225
-0.00189661 -0.0123145 0.263419
-0.00205509 -0.0128538 0.263651
-0.00221412 -0.0133947 0.263846
-0.00237328 -0.0139373 0.264
-0.0025328 -0.0144812 0.264114
-0.00269246 -0.015026 0.264195
-0.00285237 -0.0155701 0.264312
-0.00301166 -0.0161132 0.264497
-0.00317119 -0.0166564 0.264692
-0.00333086 -0.0171978 0.265015
-0.00349046 -0.0177395 0.265385
-0.00365025 -0.0182816 0.265793
-0.0038105 -0.0188243 0.266242
-0.00397102 -0.0193684 0.266688
-0.00413231 -0.0199136 0.267129
-0.00429337 -0.0204605 0.267536
-0.00445491 -0.0210089 0.267879
-0.00461667 -0.0215583 0.26818
-0.00477905 -0.0221081 0.268675
-0.00494234 -0.022659 0.269293
-0.00510609 -0.0232117 0.269917
-0.00527016 -0.0237663 0.270532
-0.00543511 -0.0243226 0.271149
-0.00560011 -0.0248805 0.27172
-0.00576596 -0.0254402 0.272321
-0.00593318 -0.0260034 0.273122
-0.00610279 -0.0265717 0.274212
-0.00627407 -0.0271443 0.275385
-0.0064465 -0.0277204 0.276568
-0.00661777 -0.0282956 0.277435
0.00209304 -0.000665894 0.268054
0.00192474 -0.00124273 0.267743
0.00175836 -0.00181211 0.267535
0.00159062 -0.00238749 0.267214
0.00142076 -0.00296923 0.266761
0.00125023 -0.00355444 0.266219
0.0010817 -0.00413319 0.265762
0.000912523 -0.00471353 0.265242
0.000743767 -0.00529184 0.264726
0.000576048 -0.00586682 0.264241
0.000410446 -0.00643506 0.263861
0.000246535 -0.00699663 0.263592
8.30139e-05 -0.0075565 0.263338
-7.94759e-05 -0.00811255 0.263148
-0.000241754 -0.00866678 0.262982
-0.00040255 -0.00921652 0.262911
-0.00056353 -0.00976774 0.262794
-0.000724135 -0.0103169 0.262716
-0.000883623 -0.0108613 0.262759
-0.00104298 -0.0114045 0.262834
-0.00120198 -0.0119475 0.262922
-0.00136019 -0.0124862 0.263147
-0.00151766 -0.0130236 0.263442
-0.00167609 -0.0135633 0.263677
-0.00183503 -0.0141047 0.263869
-0.00199416 -0.0146477 0.264017
-0.00215367 -0.0151918 0.264132
-0.00231302 -0.0157353 0.264286
-0.00247214 -0.0162783 0.26448
-0.00263134 -0.0168217 0.264681
-0.00279053 -0.0173634 0.265003
-0.00294994 -0.0179059 0.265334
-0.00310956 -0.0184491 0.265677
-0.00326915 -0.0189921 0.266117
-0.00342896 -0.0195364 0.266554
-0.00358946 -0.0200821 0.266961
-0.0037502 -0.020629 0.267368
-0.00391113 -0.0211773 0.267741
-0.00407272 -0.0217266 0.268079
-0.00423434 -0.0222764 0.268617
-0.00439652 -0.0228277 0.269278
-0.00455972 -0.0233808 0.269899
-0.00472278 -0.0239358 0.270507
-0.00488694 -0.0244924 0.271119
-0.00505093 -0.0250508 0.271695
-0.00521596 -0.025611 0.272301
-0.00538213 -0.0261746 0.273102
-0.00555013 -0.0267431 0.27415
-0.00571898 -0.0273148 0.275205
-0.00588901 -0.0278898 0.276266
-0.00605842 -0.0284644 0.277084
0.00246477 -0.00143395 0.267292
0.00229816 -0.00200224 0.267089
0.00212961 -0.00257747 0.266757
0.00195905 -0.00315998 0.266278
0.00178792 -0.00374298 0.265759
0.0016177 -0.00432424 0.26524
0.00144788 -0.00490382 0.264718
0.00127913 -0.00547964 0.264233
0.00111179 -0.00604988 0.263824
0.000946288 -0.0066153 0.263487
0.000783154 -0.00717152 0.263319
0.000619902 -0.00772939 0.263102
0.000457264 -0.00828352 0.262947
0.000295603 -0.00883629 0.262813
0.00013427 -0.00938687 0.262715
-2.72186e-05 -0.0099378 0.262597
-0.000187878 -0.0104869 0.262517
-0.000347429 -0.0110312 0.262557
-0.000506959 -0.0115753 0.262601
-0.000665679 -0.012117 0.26272
-0.000823692 -0.0126567 0.262914
-0.000980534 -0.013193 0.26324
-0.00113842 -0.0137327 0.263478
-0.00129672 -0.0142731 0.263705
-0.00145516 -0.0148144 0.26392
-0.00161416 -0.015357 0.264103
-0.00177302 -0.015899 0.264328
-0.00193185 -0.0164415 0.264565
-0.00209071 -0.0169841 0.264827
-0.00224934 -0.0175264 0.265152
-0.00240836 -0.01807 0.265446
-0.00256821 -0.0186145 0.265718
-0.00272708 -0.0191585 0.266116
-0.00288701 -0.0197037 0.266485
-0.00304704 -0.0202502 0.266825
-0.00320725 -0.0207972 0.267228
-0.00336752 -0.0213456 0.267598
-0.00352846 -0.0218949 0.267976
-0.00368943 -0.0224449 0.268522
-0.00385082 -0.0229965 0.26922
-0.0040129 -0.0235499 0.269838
-0.00417545 -0.0241052 0.270443
-0.00433813 -0.0246623 0.271053
-0.00450171 -0.0252211 0.271663
-0.00466579 -0.0257817 0.272273
-0.00483092 -0.0263457 0.273074
-0.00499718 -0.0269144 0.274082
-0.00516425 -0.0274853 0.275028
-0.00533237 -0.0280596 0.276006
-0.00550031 -0.0286334 0.276771
0.00300522 -0.0016201 0.266915
0.00283742 -0.00219047 0.266669
0.00266654 -0.00277063 0.266241
0.00249449 -0.00335435 0.265725
0.00232211 -0.00393841 0.265169
0.00215116 -0.00451894 0.264645
0.00198122 -0.00509559 0.264157
0.00181251 -0.00566811 0.263717
0.00164624 -0.00623412 0.263379
0.00148117 -0.00679525 0.263114
0.00131862 -0.00734913 0.262986
0.00115544 -0.00790498 0.262802
0.000993775 -0.00845595 0.262712
0.000831618 -0.00900806 0.262583
0.000669939 -0.00955828 0.262488
0.000508554 -0.0101091 0.262368
0.000347317 -0.010658 0.262282
0.00018819 -0.0112022 0.262322
2.89271e-05 -0.0117449 0.262399
-0.000129277 -0.0122864 0.262525
-0.000287072 -0.012826 0.262718
-0.000443498 -0.0133614 0.263072
-0.000601045 -0.013901 0.263309
-0.000759029 -0.0144413 0.263541
-0.000916455 -0.014981 0.263824
-0.00107441 -0.0155214 0.264108
-0.00123242 -0.0160622 0.264406
-0.00139025 -0.0166037 0.264715
-0.00154873 -0.0171462 0.265013
-0.00170709 -0.0176891 0.265333
-0.00186651 -0.0182341 0.265558
-0.00202627 -0.0187801 0.265758
-0.0021854 -0.0193251 0.266086
-0.00234475 -0.019871 0.266419
-0.00250453 -0.0204183 0.266693
-0.00266426 -0.0209654 0.267092
-0.00282411 -0.0215139 0.267461
-0.00298427 -0.0220632 0.267872
-0.00314438 -0.0226135 0.26839
-0.00330481 -0.0231653 0.269087
-0.00346594 -0.023719 0.269699
-0.00362763 -0.0242744 0.270303
-0.00378986 -0.0248315 0.270885
-0.00395226 -0.0253908 0.271532
-0.00411562 -0.0259518 0.272175
-0.0042793 -0.0265163 0.272975
-0.00444426 -0.0270851 0.273949
-0.0046097 -0.0276555 0.274825
-0.00477601 -0.0282294 0.27576
-0.00494271 -0.0288028 0.276489
0.00354583 -0.00180311 0.266586
0.00337511 -0.00238031 0.266218
0.00320364 -0.00295993 0.265786
0.00302925 -0.0035472 0.265193
0.00285567 -0.00413224 0.264602
0.00268411 -0.00470984 0.26411
0.00251404 -0.00528496 0.263635
0.00234603 -0.00585312 0.263264
0.00218049 -0.00641472 0.262999
0.00201568 -0.00697347 0.262772
0.00185349 -0.00752527 0.262679
0.00169113 -0.00807782 0.262559
0.00152952 -0.00862828 0.262476
0.00136723 -0.00917999 0.26235
0.00120537 -0.00972993 0.262253
0.00104347 -0.0102806 0.262128
0.000881736 -0.0108305 0.262007
0.00072288 -0.0113731 0.262081
0.000564881 -0.0119145 0.262197
0.000407116 -0.0124546 0.262362
0.000249539 -0.0129941 0.262556
9.40024e-05 -0.0135288 0.262936
-6.33622e-05 -0.0140686 0.263168
-0.000220772 -0.0146089 0.263405
-0.000377825 -0.0151476 0.263727
-0.000534545 -0.0156865 0.264083
-0.000691482 -0.0162268 0.264425
-0.000849138 -0.0167678 0.26477
-0.00100681 -0.01731 0.265106
-0.00116507 -0.0178539 0.265392
-0.00132469 -0.0183998 0.265579
-0.00148405 -0.0189462 0.265768
-0.00164294 -0.019492 0.266061
-0.00180224 -0.0200384 0.266361
-0.00196206 -0.020586 0.266602
-0.00212093 -0.0211334 0.266994
-0.00228056 -0.021682 0.26736
-0.00244013 -0.0222313 0.267806
-0.00259954 -0.022782 0.268326
-0.00275886 -0.0233341 0.26905
-0.00291892 -0.0238882 0.269654
-0.00307974 -0.024444 0.270258
-0.00324101 -0.0250015 0.270847
-0.00340285 -0.0255611 0.271502
-0.00356518 -0.0261226 0.272146
-0.00372792 -0.0266875 0.272943
-0.00389112 -0.0272565 0.273883
-0.0040555 -0.0278264 0.274691
-0.00422052 -0.0284002 0.275592
-0.00438586 -0.0289738 0.27632
0.00426388 -0.00138931 0.266919
0.00408461 -0.001988 0.266221
0.00391165 -0.0025698 0.265766
0.00373759 -0.00315312 0.265256
0.00356093 -0.0037434 0.264592
0.00338663 -0.00432731 0.264003
0.00321563 -0.00490164 0.263553
0.00304538 -0.00547368 0.263117
0.00287839 -0.0060373 0.262819
0.00271313 -0.00659645 0.26259
0.00254824 -0.00715459 0.262364
0.00238613 -0.00770589 0.26227
0.0022239 -0.00825619 0.262185
0.00206233 -0.00880612 0.262103
0.00190047 -0.00935577 0.262015
0.00173917 -0.00990416 0.261948
0.00157755 -0.0104534 0.261849
0.00141615 -0.0110018 0.261761
0.00125822 -0.0115431 0.26187
0.00110068 -0.0120829 0.262029
0.000943557 -0.0126217 0.262231
0.000786208 -0.0131612 0.262426
0.000630982 -0.013697 0.262772
0.000473655 -0.0142368 0.262999
0.000316412 -0.014777 0.263237
0.000160698 -0.015315 0.263597
5.46379e-06 -0.0158525 0.264025
-0.000150701 -0.0163915 0.264436
-0.000307238 -0.0169322 0.264821
-0.000464161 -0.0174743 0.265188
-0.000622405 -0.0180185 0.265473
-0.000781704 -0.0185649 0.265658
-0.000940979 -0.0191116 0.265846
-0.00109988 -0.0196581 0.266105
-0.00125903 -0.0202051 0.266374
-0.00141864 -0.0207531 0.266607
-0.00157729 -0.021301 0.266966
-0.00173651 -0.0218498 0.267332
-0.00189524 -0.0223995 0.267815
-0.00205412 -0.0229504 0.268338
-0.00221258 -0.023503 0.269029
-0.0023719 -0.0240575 0.269658
-0.00253157 -0.0246138 0.270258
-0.00269226 -0.0251717 0.270856
-0.00285287 -0.0257319 0.271516
-0.00301423 -0.0262941 0.272192
-0.00317619 -0.0268592 0.272953
-0.00333808 -0.0274283 0.273855
-0.00350118 -0.0279987 0.274657
-0.00366497 -0.028573 0.275559
-0.00382926 -0.0291471 0.276291
0.00498263 -0.000978406 0.26719
0.00480261 -0.00157635 0.26653
0.00461968 -0.00217968 0.26574
0.00444375 -0.00276619 0.265191
0.00426814 -0.00335188 0.264625
0.00408953 -0.00394241 0.263932
0.00391538 -0.0045232 0.263379
0.0037448 -0.00509424 0.262971
0.00357639 -0.00566001 0.262639
0.00340989 -0.00622097 0.262379
0.00324498 -0.00677812 0.262178
0.00308052 -0.0073341 0.261984
0.00291785 -0.00788481 0.261889
0.00275602 -0.00843469 0.261806
0.00259407 -0.00898392 0.261725
0.00243253 -0.00953316 0.261638
0.00227094 -0.010081 0.261571
0.0021098 -0.0106283 0.261509
0.0019493 -0.0111749 0.26146
0.00179249 -0.0117136 0.261638
0.00163619 -0.012251 0.261865
0.00147985 -0.0127887 0.262101
0.00132319 -0.0133283 0.262298
0.00116772 -0.0138652 0.262608
0.00101073 -0.0144051 0.262831
0.000853821 -0.0149452 0.263068
0.000698943 -0.0154824 0.263463
0.000545275 -0.0160186 0.263961
0.000390676 -0.0165566 0.26444
0.000234913 -0.017097 0.264856
7.89785e-05 -0.0176383 0.265289
-7.89444e-05 -0.0181829 0.265578
-0.000237759 -0.0187297 0.265766
-0.000397219 -0.0192767 0.265958
-0.000556084 -0.019824 0.266185
-0.000715252 -0.0203718 0.266419
-0.000874714 -0.02092 0.266649
-0.0010333 -0.0214685 0.266975
-0.00119183 -0.0220176 0.267343
-0.00134954 -0.0225676 0.267862
-0.00150801 -0.023119 0.268363
-0.00166568 -0.0236721 0.269023
-0.00182434 -0.0242269 0.269649
-0.00198323 -0.0247836 0.270246
-0.00214311 -0.0253419 0.270844
-0.00230302 -0.0259025 0.271509
-0.00246318 -0.0264655 0.272218
-0.00262365 -0.0270315 0.273002
-0.00278471 -0.0276007 0.273868
-0.00294672 -0.0281712 0.274636
-0.003109 -0.028746 0.275532
-0.00327259 -0.0293204 0.276259
0.00515393 -0.00237073 0.265265
0.00497596 -0.00295936 0.264666
0.00479885 -0.00354457 0.264088
0.00461961 -0.00413395 0.263399
0.00444493 -0.00471318 0.262856
0.00427579 -0.00527961 0.26252
0.00410753 -0.00584254 0.262227
0.00394096 -0.00640288 0.261968
0.0037752 -0.00696062 0.261741
0.0036103 -0.0075162 0.261542
0.00344634 -0.00806931 0.26138
0.00328417 -0.00861849 0.261293
0.00312234 -0.00916708 0.261212
0.00296122 -0.0097142 0.261158
0.00280085 -0.01026 0.26113
0.00264052 -0.0108053 0.261108
0.00248081 -0.0113489 0.261128
0.00232577 -0.0118849 0.261377
0.00217099 -0.01242 0.261672
0.00201601 -0.0129567 0.261943
0.00186039 -0.0134944 0.262202
0.00170456 -0.0140322 0.262477
0.00154788 -0.0145723 0.262695
0.00139116 -0.0151126 0.262927
0.00123722 -0.0156499 0.263328
0.0010846 -0.0161855 0.263862
0.000931283 -0.0167229 0.264379
0.000776219 -0.0172636 0.264799
0.000621179 -0.0178047 0.265261
0.000464297 -0.0183491 0.265585
0.000305445 -0.0188959 0.265782
0.000147143 -0.0194424 0.266045
-1.15164e-05 -0.0199897 0.266305
-0.000170515 -0.0205378 0.266534
-0.00032968 -0.0210866 0.266762
-0.000488021 -0.0216355 0.267085
-0.000646026 -0.0221852 0.26746
-0.000803263 -0.0227357 0.26798
-0.000960872 -0.0232877 0.268482
-0.00111804 -0.0238413 0.26911
-0.00127593 -0.0243967 0.269701
-0.00143441 -0.0249537 0.270261
-0.00159319 -0.0255126 0.270862
-0.00175249 -0.0260736 0.271527
-0.00191152 -0.0266374 0.27227
-0.0020705 -0.0272044 0.27309
-0.00223065 -0.0277739 0.273925
-0.00239159 -0.0283449 0.274688
-0.00255312 -0.0289191 0.275512
-0.00271578 -0.0294933 0.276199
0.00567845 -0.00257938 0.26449
0.00550067 -0.00316446 0.263927
0.00532738 -0.0037399 0.2635
0.00514894 -0.00432435 0.262879
0.00497517 -0.00489871 0.262408
0.00480718 -0.00546117 0.262135
0.0046389 -0.00602318 0.261849
0.00447275 -0.00658118 0.261625
0.0043064 -0.00713843 0.261396
0.00414046 -0.00769525 0.261159
0.00397565 -0.00824927 0.260964
0.00381325 -0.00879805 0.260874
0.00365054 -0.00934723 0.260762
0.00348963 -0.00989369 0.26071
0.00332911 -0.0104389 0.260682
0.00316954 -0.0109823 0.260695
0.00301095 -0.011524 0.260756
0.00285703 -0.0120583 0.261045
0.00270379 -0.012592 0.261378
0.00255009 -0.0131265 0.261714
0.00239546 -0.0136631 0.262008
0.00224054 -0.0142011 0.262284
0.00208407 -0.0147411 0.262501
0.00192821 -0.0152807 0.262759
0.00177391 -0.0158186 0.263129
0.00162164 -0.0163547 0.263636
0.0014699 -0.0168917 0.264186
0.0013159 -0.0174318 0.264638
0.00116231 -0.0179725 0.265137
0.00100663 -0.018516 0.265532
0.000849256 -0.0190616 0.265833
0.000691808 -0.0196082 0.266132
0.000534322 -0.0201557 0.266426
0.000375453 -0.0207043 0.266654
0.000216292 -0.0212534 0.26688
5.80739e-05 -0.021803 0.267176
-9.93309e-05 -0.022353 0.267579
-0.000256017 -0.022904 0.268099
-0.000412786 -0.0234566 0.26863
-0.000569054 -0.024011 0.269255
-0.000726196 -0.024567 0.269839
-0.000884627 -0.0251243 0.270365
-0.00104242 -0.0256839 0.270992
-0.00120085 -0.0262454 0.271633
-0.0013585 -0.0268101 0.272384
-0.00151698 -0.0273777 0.273209
-0.00167579 -0.0279476 0.274012
-0.00183604 -0.0285188 0.274745
-0.00199626 -0.0290935 0.27556
-0.0021581 -0.0296682 0.276243
0.00619566 -0.00279764 0.263542
0.00602405 -0.00336833 0.263201
0.00585414 -0.00393441 0.262917
0.00567701 -0.00451365 0.262372
0.00550441 -0.00508357 0.261967
0.00533729 -0.00564336 0.261733
0.0051703 -0.0062014 0.261513
0.0050047 -0.00675729 0.261322
0.00483799 -0.00731434 0.261088
0.00467079 -0.00787213 0.260819
0.0045045 -0.00842726 0.260584
0.00434135 -0.00897704 0.260459
0.00417885 -0.00952573 0.260348
0.00401769 -0.0100715 0.260297
0.00385738 -0.010616 0.260272
0.00369834 -0.0111579 0.260313
0.00354063 -0.0116983 0.260401
0.0033865 -0.012233 0.260665
0.00323475 -0.0127654 0.261035
0.00308261 -0.0132986 0.261407
0.00292864 -0.0138349 0.261706
0.00277328 -0.0143731 0.261958
0.00261785 -0.0149122 0.262204
0.00246244 -0.0154516 0.262462
0.00230858 -0.0159893 0.262829
0.00215784 -0.0165249 0.263367
0.0020077 -0.0170605 0.26398
0.00185557 -0.0175996 0.2645
0.00170385 -0.0181394 0.265071
0.00155009 -0.0186822 0.265536
0.00139425 -0.0192274 0.265908
0.00123785 -0.019774 0.266245
0.00108019 -0.0203218 0.266545
0.000921693 -0.0208708 0.266778
0.000763262 -0.0214203 0.267034
0.000604919 -0.0219705 0.267296
0.000447839 -0.022521 0.2677
0.000291956 -0.0230726 0.26822
0.000135923 -0.0236258 0.26875
-2.02859e-05 -0.0241806 0.269306
-0.000177035 -0.024737 0.269884
-0.000334616 -0.0252948 0.270403
-0.000491686 -0.0258549 0.271034
-0.000648763 -0.0264173 0.271713
-0.000805009 -0.0269833 0.272535
-0.000962022 -0.0275519 0.27337
-0.00112005 -0.0281224 0.274169
-0.00127935 -0.0286943 0.274896
-0.00143884 -0.0292691 0.275676
-0.00159965 -0.029844 0.276331
-0.00230471 -0.0303124 0.280313
-0.00176024 -0.0304244 0.277165
0.00672279 -0.00299156 0.262994
0.006551 -0.00356031 0.262668
0.00638212 -0.00412292 0.262432
0.00620688 -0.00469722 0.261963
0.00603464 -0.00526475 0.26159
0.00586709 -0.00582349 0.261364
0.00570124 -0.00637942 0.261178
0.00553449 -0.00693587 0.260963
0.00536807 -0.00749093 0.260759
0.00520052 -0.00804834 0.260488
0.00503331 -0.00860457 0.260218
0.00486903 -0.00915509 0.260061
0.00470626 -0.00970332 0.259947
0.00454442 -0.0102497 0.259867
0.00438402 -0.0107938 0.259838
0.0042251 -0.0113354 0.259872
0.00406794 -0.0118742 0.259988
0.00391473 -0.0124087 0.260252
0.00376392 -0.0129397 0.26065
0.00361318 -0.0134718 0.261055
0.00346022 -0.0140068 0.261387
0.00330577 -0.0145446 0.261647
0.00315142 -0.0150826 0.261927
0.00299692 -0.0156211 0.262215
0.00284433 -0.0161582 0.262612
0.00269522 -0.0166932 0.263184
0.00254651 -0.0172284 0.26383
0.00239655 -0.0177665 0.264419
0.00224661 -0.018306 0.265033
0.0020934 -0.018849 0.265508
0.00193861 -0.019394 0.265917
0.00178301 -0.0199406 0.266288
0.00162608 -0.0204887 0.266596
0.00146793 -0.0210381 0.266828
0.00130992 -0.0215877 0.267117
0.00115237 -0.0221382 0.267409
0.000996346 -0.0226892 0.267848
0.000841228 -0.0232414 0.268374
0.000685707 -0.0237952 0.268907
0.000530121 -0.0243507 0.269459
0.000373233 -0.0249074 0.269974
0.000215835 -0.0254654 0.270456
5.96566e-05 -0.0260261 0.27109
-9.59739e-05 -0.0265894 0.271804
-0.000251142 -0.0271562 0.272638
-0.00040665 -0.0277259 0.273501
-0.000563608 -0.0282971 0.274296
-0.000722182 -0.028869 0.274981
-0.000880549 -0.0294446 0.275762
-0.00104078 -0.0300201 0.276424
-0.00120034 -0.0306007 0.277237
0.00707795 -0.00375006 0.262171
0.00690952 -0.00431067 0.261956
0.00673645 -0.00487901 0.261582
0.00656406 -0.00544562 0.261216
0.00639616 -0.0060039 0.260986
0.00622898 -0.00656036 0.260776
0.00606311 -0.00711482 0.260592
0.00589594 -0.00767044 0.260365
0.00572771 -0.00822702 0.260095
0.00556014 -0.00878269 0.259824
0.00539542 -0.00933281 0.259662
0.00523265 -0.00988055 0.259547
0.0050715 -0.0104252 0.259497
0.0049111 -0.0109687 0.259472
0.0047523 -0.0115099 0.259506
0.00459582 -0.0120485 0.259619
0.00444151 -0.0125836 0.259846
0.004291 -0.0131154 0.260211
0.00414145 -0.0136463 0.26064
0.00399015 -0.0141802 0.261007
0.00383667 -0.0147168 0.261298
0.00368365 -0.0152538 0.261612
0.00353092 -0.0157906 0.261964
0.00337987 -0.0163268 0.262402
0.00323233 -0.0168612 0.263011
0.00308575 -0.017396 0.263697
0.00293791 -0.0179332 0.264355
0.00278849 -0.0184728 0.264975
0.00263703 -0.0190157 0.265487
0.00248334 -0.0195607 0.265927
0.00232895 -0.0201074 0.26633
0.00217284 -0.0206555 0.266669
0.00201529 -0.0212051 0.266935
0.00185824 -0.021755 0.267258
0.00170132 -0.0223059 0.267586
0.00154648 -0.0228574 0.268067
0.00139181 -0.0234105 0.268565
0.00123742 -0.0239651 0.269131
0.00108197 -0.0245211 0.269653
0.000925369 -0.0250784 0.270131
0.000767983 -0.0256369 0.270581
0.00061256 -0.0261981 0.271213
0.000458019 -0.0267622 0.271933
0.000303785 -0.0273297 0.272768
0.000149168 -0.0278998 0.273601
-7.17899e-06 -0.0284711 0.274359
-0.000165373 -0.0290428 0.274998
-0.000322722 -0.0296189 0.275781
-0.000481645 -0.0301956 0.27648
-0.00063957 -0.0307771 0.2773
0.00760038 -0.00394465 0.26158
0.00743297 -0.00450247 0.2614
0.00726231 -0.00506521 0.261113
0.00709034 -0.00562942 0.260777
0.00692206 -0.00618733 0.260542
