ply
format ascii 1.0
element vertex 1731
property float x
property float y
property float z
end_header
0.225683 -0.160608 0.904664
0.224891 -0.161348 0.906791
0.224101 -0.162094 0.908955
0.223265 -0.162818 0.910957
0.222458 -0.163565 0.913099
0.221569 -0.164266 0.91493
0.276408 -0.139211 0.875153
0.274736 -0.13951 0.874157
0.27317 -0.139846 0.873468
0.271466 -0.140125 0.872344
0.269875 -0.140446 0.871552
0.268432 -0.140823 0.871206
0.266981 -0.141194 0.870828
0.265577 -0.141583 0.870588
0.264172 -0.141969 0.870337
0.262763 -0.142353 0.870068
0.261386 -0.142748 0.869894
0.260084 -0.143173 0.869952
0.258768 -0.143592 0.869963
0.257495 -0.144028 0.870106
0.256239 -0.144471 0.870306
0.255013 -0.144927 0.870596
0.253819 -0.145396 0.870994
0.25278 -0.145935 0.871905
0.251769 -0.146488 0.872914
0.250758 -0.147043 0.873931
0.249717 -0.147585 0.874853
0.248662 -0.148123 0.875736
0.247567 -0.148643 0.876486
0.246497 -0.149176 0.877329
0.245499 -0.149745 0.878424
0.244588 -0.150358 0.87983
0.243702 -0.150986 0.881332
0.242749 -0.151583 0.882615
0.241823 -0.152197 0.884003
0.240827 -0.152779 0.885157
0.23977 -0.153331 0.8861
0.238709 -0.153883 0.88704
0.237644 -0.154436 0.887968
0.236535 -0.154966 0.888746
0.235425 -0.155496 0.889523
0.234356 -0.156051 0.890456
0.23335 -0.15664 0.891632
0.232413 -0.157269 0.893073
0.23148 -0.157903 0.89454
0.230599 -0.15857 0.89622
0.22969 -0.159225 0.89781
0.228742 -0.159861 0.899266
0.227851 -0.160534 0.900955
0.226964 -0.161211 0.902676
0.226136 -0.161929 0.904644
0.225347 -0.162673 0.906785
0.224539 -0.163412 0.908875
0.223686 -0.164128 0.910809
0.222874 -0.164875 0.912928
0.221982 -0.165578 0.91475
0.276099 -0.140197 0.872759
0.274594 -0.140557 0.87226
0.273135 -0.140931 0.87189
0.271487 -0.141229 0.870934
0.269945 -0.141566 0.870292
0.268531 -0.141953 0.870032
0.267129 -0.142342 0.869802
0.26575 -0.142739 0.869636
0.264341 -0.143123 0.869375
0.26291 -0.143496 0.869034
0.261505 -0.143877 0.868769
0.26018 -0.144292 0.868751
0.258866 -0.14471 0.868762
0.257595 -0.145146 0.86891
0.256342 -0.145589 0.869114
0.255135 -0.146052 0.869466
0.253961 -0.14653 0.869926
0.252906 -0.147061 0.870779
0.251922 -0.147627 0.871872
0.250937 -0.148194 0.872969
0.2499 -0.148738 0.873903
0.24883 -0.149269 0.87473
0.247755 -0.149798 0.875545
0.246686 -0.150332 0.876388
0.245687 -0.1509 0.877478
0.244798 -0.151524 0.87895
0.243953 -0.152173 0.880595
0.243045 -0.152794 0.88203
0.242166 -0.153433 0.88358
0.241216 -0.154039 0.884893
0.240203 -0.154615 0.885996
0.239166 -0.155182 0.887021
0.238104 -0.155736 0.887964
0.236998 -0.156269 0.888753
0.235905 -0.15681 0.889596
0.234815 -0.157355 0.890454
0.233809 -0.157946 0.891631
0.232872 -0.158577 0.893073
0.231938 -0.159213 0.894536
0.231015 -0.15986 0.896059
0.230103 -0.160514 0.897635
0.229151 -0.161151 0.899078
0.228262 -0.161826 0.900773
0.227398 -0.162519 0.90258
0.226612 -0.163264 0.90471
0.225828 -0.164014 0.906872
0.225018 -0.164755 0.908954
0.22416 -0.165472 0.910871
0.223329 -0.166209 0.912912
0.222421 -0.166905 0.914671
0.222987 -0.167459 0.924271
0.22161 -0.167665 0.916834
0.276086 -0.141292 0.87126
0.274595 -0.141654 0.870797
0.273172 -0.142041 0.870532
0.27158 -0.142359 0.869748
0.270063 -0.142704 0.869177
0.268654 -0.14309 0.868933
0.267278 -0.143489 0.86878
0.265882 -0.143878 0.868562
0.264496 -0.144269 0.868367
0.263063 -0.14464 0.86802
0.261634 -0.14501 0.867677
0.260287 -0.145413 0.867587
0.258972 -0.145829 0.867593
0.257681 -0.146255 0.867673
0.256427 -0.146697 0.86787
0.255217 -0.147157 0.868207
0.254063 -0.147643 0.868728
0.25301 -0.148176 0.869581
0.252046 -0.14875 0.870736
0.251084 -0.149328 0.871906
0.250071 -0.149883 0.872914
0.249008 -0.150417 0.873761
0.247956 -0.150958 0.874651
0.246908 -0.151501 0.875562
0.245929 -0.15208 0.876716
0.245064 -0.152718 0.878267
0.244241 -0.153379 0.879984
0.243378 -0.154024 0.881574
0.242528 -0.154679 0.883222
0.241584 -0.15529 0.884558
0.240595 -0.155879 0.885744
0.239579 -0.156458 0.886845
0.238521 -0.157016 0.887803
0.237415 -0.15755 0.888593
0.236342 -0.158103 0.889509
0.23527 -0.158658 0.890434
0.234286 -0.159263 0.891692
0.233352 -0.159899 0.893146
0.232419 -0.160538 0.894618
0.231494 -0.161185 0.896131
0.230543 -0.161819 0.897562
0.229569 -0.162445 0.898921
0.228682 -0.163124 0.900624
0.227838 -0.163832 0.902509
0.227059 -0.164583 0.904666
0.226292 -0.165347 0.906892
0.225479 -0.166089 0.908963
0.224598 -0.166795 0.910787
0.223768 -0.167536 0.912829
0.222864 -0.168236 0.914602
0.22204 -0.168992 0.916718
0.27462 -0.14276 0.869411
0.273214 -0.143151 0.869195
0.271693 -0.143495 0.868623
0.27018 -0.14384 0.868066
0.268771 -0.144224 0.867816
0.267377 -0.144613 0.867608
0.266005 -0.145011 0.867459
0.264602 -0.145394 0.867212
0.263171 -0.145763 0.866868
0.261743 -0.146131 0.866524
0.260393 -0.146531 0.866422
0.259078 -0.146947 0.866425
0.257809 -0.147381 0.866574
0.256558 -0.147823 0.866778
0.255349 -0.148283 0.867114
0.254194 -0.148768 0.867628
0.253117 -0.149289 0.868398
0.252132 -0.149854 0.869478
0.251189 -0.150441 0.870704
0.2502 -0.151008 0.871788
0.249159 -0.151552 0.872704
0.248131 -0.152104 0.873672
0.247127 -0.152669 0.874726
0.246176 -0.153262 0.875971
0.245335 -0.153913 0.877606
0.24454 -0.15459 0.879413
0.243723 -0.15526 0.881158
0.242876 -0.155918 0.882818
0.241956 -0.156543 0.884236
0.240987 -0.157144 0.885492
0.239992 -0.157735 0.886665
0.238954 -0.158304 0.887694
0.237868 -0.158851 0.888559
0.236816 -0.159416 0.889554
0.235765 -0.159985 0.89056
0.234806 -0.160606 0.891912
0.233855 -0.161234 0.893303
0.232941 -0.161887 0.894848
0.231997 -0.162525 0.896294
0.231024 -0.16315 0.897643
0.23003 -0.163766 0.898927
0.229142 -0.164447 0.900626
0.228301 -0.16516 0.902522
0.227523 -0.165914 0.904683
0.226738 -0.166671 0.906839
0.225904 -0.167403 0.908826
0.224997 -0.168095 0.910546
0.224168 -0.168839 0.912592
0.223285 -0.169555 0.914448
0.222467 -0.170317 0.916582
0.274574 -0.143834 0.867817
0.273196 -0.144234 0.867679
0.27174 -0.144602 0.867302
0.270251 -0.144954 0.866812
0.268838 -0.145335 0.866551
0.267441 -0.145721 0.86633
0.266069 -0.146117 0.86618
0.264694 -0.14651 0.866014
0.263289 -0.146888 0.865747
0.261888 -0.147267 0.86549
0.260559 -0.147675 0.865453
0.259266 -0.148099 0.865522
0.257999 -0.148533 0.865676
0.256753 -0.148977 0.865892
0.255549 -0.149438 0.866243
0.254374 -0.149914 0.866689
0.253251 -0.150413 0.867307
0.252243 -0.150968 0.868304
0.251276 -0.151543 0.869448
0.25029 -0.152111 0.870536
0.249274 -0.152667 0.871528
0.248292 -0.153242 0.872646
0.247334 -0.15383 0.873852
0.246432 -0.154448 0.875259
0.245623 -0.155116 0.876998
0.244874 -0.155818 0.878962
0.2441 -0.156512 0.880855
0.243252 -0.157172 0.882508
0.242351 -0.157808 0.883992
0.241399 -0.15842 0.885309
0.240404 -0.159012 0.886484
0.239367 -0.159584 0.887518
0.238302 -0.160142 0.888458
0.237273 -0.160722 0.889537
0.236247 -0.161306 0.890635
0.235293 -0.161932 0.892007
0.234344 -0.162564 0.893407
0.233447 -0.163228 0.895014
0.23248 -0.163856 0.896375
0.231485 -0.164471 0.897647
0.230492 -0.165088 0.898933
0.229598 -0.165768 0.90061
0.228738 -0.166472 0.902432
0.22794 -0.167219 0.904516
0.227136 -0.167966 0.906596
0.22628 -0.168687 0.908494
0.225351 -0.169367 0.910128
0.224502 -0.170101 0.912092
0.223658 -0.170844 0.914098
0.222843 -0.17161 0.916245
0.276033 -0.144556 0.866739
0.274618 -0.144941 0.866494
0.273229 -0.145336 0.866322
0.271776 -0.145702 0.865949
0.270269 -0.146044 0.865405
0.268833 -0.146414 0.865067
0.26743 -0.146795 0.864822
0.266037 -0.14718 0.864603
0.264686 -0.147581 0.864509
0.263311 -0.14797 0.864332
0.261937 -0.148358 0.864154
0.260616 -0.148769 0.864139
0.259348 -0.149202 0.864285
0.258106 -0.149646 0.864514
0.256886 -0.1501 0.86481
0.255708 -0.150574 0.865241
0.254555 -0.151059 0.865757
0.253431 -0.151557 0.866368
0.252395 -0.152099 0.867271
0.251407 -0.152664 0.868338
0.250421 -0.153233 0.869419
0.249412 -0.153792 0.870432
0.248478 -0.15439 0.871706
0.247569 -0.155004 0.873075
0.246735 -0.155657 0.87471
0.245973 -0.15635 0.876608
0.245271 -0.157078 0.878727
0.244519 -0.157786 0.880695
0.243668 -0.158447 0.882339
0.242765 -0.159083 0.883815
0.241792 -0.159687 0.885056
0.240799 -0.160281 0.886238
0.239763 -0.160855 0.887276
0.238721 -0.161427 0.888301
0.237717 -0.162022 0.889469
0.236735 -0.162632 0.89073
0.235784 -0.163262 0.892111
0.23485 -0.163904 0.89357
0.23395 -0.164569 0.895168
0.232961 -0.165187 0.896449
0.231946 -0.165792 0.897646
0.230947 -0.166409 0.898913
0.230013 -0.167067 0.900437
0.229149 -0.167771 0.902243
0.228329 -0.168506 0.90424
0.227505 -0.169244 0.906238
0.226627 -0.169953 0.90805
0.225677 -0.170623 0.9096
0.224765 -0.171319 0.911312
0.223942 -0.172077 0.913397
0.223151 -0.17286 0.91563
0.274669 -0.146049 0.865197
0.273275 -0.146439 0.865006
0.271804 -0.146796 0.864576
0.270307 -0.14714 0.864058
0.268846 -0.147497 0.86364
0.26742 -0.147867 0.863324
0.266005 -0.14824 0.86303
0.264654 -0.148638 0.86293
0.263305 -0.149037 0.862833
0.261962 -0.149437 0.862748
0.260671 -0.149859 0.862821
0.259429 -0.150303 0.863044
0.258211 -0.150757 0.863346
0.257014 -0.151221 0.863715
0.255841 -0.151695 0.864159
0.254711 -0.15219 0.864745
0.253608 -0.152699 0.86542
0.25255 -0.15323 0.866248
0.251558 -0.153794 0.867299
0.250594 -0.154373 0.868446
0.249609 -0.154945 0.869535
0.248705 -0.155559 0.870908
0.247865 -0.156207 0.872505
0.247099 -0.156896 0.874366
0.246382 -0.157615 0.876415
0.245704 -0.158359 0.878619
0.244954 -0.15907 0.88059
0.244103 -0.159733 0.882233
0.243178 -0.16036 0.883633
0.242185 -0.160954 0.884804
0.241193 -0.16155 0.885988
0.240199 -0.162148 0.887175
0.239183 -0.162736 0.888295
0.238181 -0.163335 0.889472
0.237241 -0.16397 0.890884
0.236286 -0.1646 0.892257
0.235333 -0.165233 0.893646
0.23441 -0.165888 0.895161
0.233418 -0.166506 0.896432
0.232383 -0.167101 0.897554
0.231364 -0.167707 0.898746
0.230407 -0.168354 0.900185
0.22952 -0.169046 0.901901
0.228658 -0.169758 0.903733
0.227811 -0.170484 0.905641
0.22691 -0.17118 0.907358
0.225961 -0.171851 0.908905
0.225027 -0.172535 0.910527
0.224243 -0.17332 0.912762
0.223453 -0.174106 0.914996
0.222495 -0.173738 0.918434
0.222808 -0.174994 0.917836
0.221891 -0.174658 0.921486
0.222208 -0.175919 0.920894
0.273283 -0.147526 0.86358
0.271807 -0.147878 0.863133
0.270322 -0.148224 0.862646
0.268861 -0.148579 0.862224
0.267413 -0.148937 0.861835
0.265996 -0.149306 0.861536
0.264651 -0.149706 0.861448
0.263348 -0.150123 0.861488
0.262054 -0.150543 0.861552
0.260811 -0.150986 0.861774
0.259594 -0.15144 0.862075
0.258398 -0.151903 0.862445
0.257203 -0.152367 0.862814
0.256031 -0.152842 0.86326
0.254884 -0.153329 0.863787
0.253783 -0.153838 0.86447
0.252706 -0.15436 0.86523
0.251714 -0.154924 0.866274
0.250769 -0.155513 0.867482
0.24983 -0.156107 0.868721
0.248955 -0.156737 0.870185
0.248182 -0.157421 0.872005
0.247463 -0.158136 0.874023
0.246751 -0.15886 0.876086
0.246097 -0.159619 0.878366
0.245345 -0.160332 0.880334
0.244496 -0.160998 0.88198
0.243571 -0.161627 0.883379
0.242598 -0.162233 0.884622
0.241607 -0.162832 0.88581
0.240655 -0.163454 0.887146
0.239662 -0.164057 0.888348
0.238663 -0.164658 0.889537
0.237723 -0.165296 0.890951
0.236744 -0.165914 0.892237
0.235748 -0.166526 0.893472
0.234804 -0.167169 0.894905
0.233794 -0.167778 0.896111
0.232758 -0.168374 0.897228
0.23174 -0.168982 0.898424
0.230783 -0.16963 0.899861
0.229874 -0.170311 0.901491
0.228989 -0.171011 0.903231
0.228119 -0.171724 0.905048
0.227198 -0.17241 0.906685
0.226249 -0.173081 0.908228
0.225277 -0.173742 0.909696
0.224529 -0.174552 0.912066
0.223744 -0.175344 0.914313
0.223082 -0.176224 0.917082
0.222445 -0.177128 0.919985
0.221545 -0.176813 0.923733
0.221775 -0.178018 0.922783
0.273092 -0.148525 0.861563
0.271706 -0.148912 0.861376
0.270318 -0.149298 0.861182
0.26886 -0.149651 0.860764
0.267411 -0.150006 0.860371
0.265973 -0.150365 0.859999
0.264649 -0.150772 0.859973
0.263354 -0.15119 0.860033
0.262088 -0.151621 0.86018
0.260871 -0.152074 0.860476
0.259697 -0.152547 0.860913
0.258526 -0.153021 0.861355
0.257354 -0.153495 0.861799
0.256205 -0.15398 0.862314
0.255079 -0.154476 0.862906
0.253958 -0.154976 0.863519
0.252862 -0.155489 0.864214
0.251851 -0.156043 0.865191
0.250907 -0.156633 0.866398
0.249993 -0.157241 0.867714
0.249162 -0.157894 0.869321
0.248461 -0.158615 0.871376
0.24781 -0.159368 0.873623
0.247145 -0.160118 0.875841
0.246515 -0.160893 0.878204
0.245781 -0.161619 0.88023
0.244931 -0.162286 0.881874
0.244006 -0.162916 0.88327
0.243038 -0.163527 0.884529
0.242065 -0.164137 0.885782
0.241115 -0.164763 0.887129
0.240123 -0.165368 0.888337
0.239126 -0.165972 0.889535
0.238184 -0.166611 0.890939
0.237161 -0.167206 0.892067
0.23616 -0.167816 0.893284
0.235193 -0.168449 0.894634
0.234163 -0.169046 0.895764
0.233128 -0.169644 0.896885
0.232131 -0.170267 0.898156
0.231158 -0.170906 0.89953
0.230248 -0.171589 0.901157
0.22934 -0.172277 0.902811
0.228448 -0.172978 0.904537
0.227508 -0.173653 0.906097
0.22656 -0.174327 0.907644
0.225553 -0.174966 0.908971
0.224806 -0.175778 0.911337
0.224018 -0.176572 0.91357
0.223313 -0.177425 0.91616
0.222634 -0.178302 0.918878
0.221975 -0.179203 0.921719
0.272962 -0.149545 0.85973
0.271628 -0.149953 0.859696
0.270291 -0.150357 0.859648
0.268835 -0.15071 0.859236
0.267384 -0.151062 0.85883
0.265967 -0.151427 0.858518
0.264649 -0.151834 0.858507
0.263383 -0.152265 0.858651
0.262144 -0.152706 0.85888
0.260972 -0.153179 0.859315
0.259825 -0.153664 0.859829
0.25868 -0.154149 0.860353
0.257535 -0.154636 0.860879
0.256408 -0.15513 0.861463
0.255282 -0.155626 0.862051
0.254158 -0.156124 0.862651
0.253037 -0.156624 0.863263
0.252026 -0.157179 0.864236
0.251083 -0.157771 0.865443
0.250173 -0.158381 0.866769
0.249371 -0.159049 0.868463
0.248758 -0.159818 0.870809
0.24818 -0.160611 0.873297
0.247568 -0.161393 0.875694
0.24698 -0.162192 0.878196
0.246264 -0.16293 0.880284
0.245391 -0.163588 0.881849
0.244446 -0.16421 0.883178
0.2435 -0.164835 0.884514
0.24253 -0.165449 0.885781
0.241604 -0.16609 0.887209
0.240631 -0.166707 0.888487
0.239634 -0.167314 0.889686
0.238648 -0.16793 0.890938
0.237599 -0.168511 0.891972
0.236571 -0.169107 0.893091
0.235562 -0.169716 0.894286
0.234509 -0.170302 0.895333
0.233496 -0.170914 0.896532
0.23252 -0.17155 0.897884
0.231531 -0.172183 0.899197
0.230603 -0.172855 0.900752
0.229692 -0.173542 0.90239
0.228778 -0.174232 0.904031
0.227818 -0.174896 0.905512
0.226875 -0.175574 0.90707
0.225887 -0.176227 0.908471
0.225119 -0.177029 0.910754
0.224326 -0.17782 0.912961
0.22358 -0.178648 0.915378
0.222835 -0.179485 0.917831
0.222133 -0.180357 0.920481
0.221082 -0.17995 0.923629
0.221222 -0.181091 0.92231
0.274187 -0.150166 0.858003
0.272964 -0.15062 0.8583
0.271648 -0.151033 0.858315
0.270299 -0.151431 0.858228
0.268871 -0.151792 0.857895
0.267423 -0.152144 0.857496
0.266004 -0.152506 0.857176
0.264709 -0.152922 0.85723
0.26347 -0.153364 0.857455
0.262261 -0.153818 0.857773
0.261159 -0.154323 0.858424
0.26006 -0.154829 0.859086
0.258944 -0.155328 0.859698
0.257828 -0.155828 0.860316
0.256704 -0.156325 0.860909
0.255554 -0.15681 0.861421
0.254405 -0.157295 0.861936
0.253278 -0.157792 0.862528
0.252242 -0.158336 0.863418
0.2513 -0.158928 0.864622
0.250391 -0.159539 0.865947
0.249612 -0.16022 0.867714
0.24903 -0.161009 0.870161
0.248505 -0.161832 0.872821
0.247944 -0.162643 0.875388
0.247403 -0.163471 0.878047
0.246712 -0.164225 0.880218
0.245855 -0.164894 0.881839
0.244934 -0.165531 0.88325
0.244009 -0.166169 0.884662
0.243044 -0.166788 0.885948
0.242136 -0.167442 0.887441
0.241164 -0.168063 0.888725
0.240144 -0.168658 0.889845
0.239115 -0.169251 0.890943
0.238041 -0.16982 0.891889
0.236966 -0.170389 0.892835
0.235913 -0.170973 0.893872
0.234841 -0.171548 0.894845
0.233845 -0.172172 0.89611
0.232892 -0.172825 0.897545
0.231907 -0.17346 0.898869
0.23096 -0.174123 0.900355
0.230042 -0.174808 0.901964
0.229106 -0.175485 0.903515
0.228126 -0.176137 0.90492
0.227205 -0.176831 0.90656
0.226238 -0.1775 0.90804
0.225449 -0.17829 0.910237
0.224634 -0.179068 0.91235
0.223843 -0.179869 0.914585
0.22302 -0.180653 0.916714
0.222257 -0.181485 0.91911
0.221301 -0.18219 0.920754
0.274162 -0.151227 0.856501
0.272931 -0.151676 0.856766
0.271644 -0.1521 0.856865
0.270262 -0.152481 0.856672
0.26884 -0.152843 0.856357
0.267394 -0.153192 0.855958
0.266 -0.153563 0.855708
0.264706 -0.153978 0.855764
0.263518 -0.154442 0.85614
0.262359 -0.154919 0.856607
0.26133 -0.155456 0.857483
0.260282 -0.155987 0.858304
0.259216 -0.156511 0.859074
0.258124 -0.157022 0.859764
0.257022 -0.15753 0.860427
0.255851 -0.158005 0.860869
0.254698 -0.158488 0.861374
0.253571 -0.158985 0.861961
0.252512 -0.159518 0.862777
0.251569 -0.160111 0.863975
0.250678 -0.160732 0.865355
0.249899 -0.161416 0.867123
0.249341 -0.162218 0.869641
0.248866 -0.163072 0.872465
0.248337 -0.163903 0.875135
0.247824 -0.16475 0.877886
0.247175 -0.16553 0.880201
0.246323 -0.166204 0.881839
0.245423 -0.166855 0.883326
0.244541 -0.167519 0.884888
0.243599 -0.168154 0.886255
0.242674 -0.1688 0.887694
0.241699 -0.169421 0.888966
0.240655 -0.170005 0.890004
0.239561 -0.170562 0.890873
0.238441 -0.171104 0.891651
0.23734 -0.17166 0.892507
0.236264 -0.172231 0.893458
0.235191 -0.172807 0.894428
0.234199 -0.173433 0.895701
0.233268 -0.174101 0.897218
0.232283 -0.174739 0.898544
0.231314 -0.175389 0.899944
0.230373 -0.176061 0.901462
0.22941 -0.176722 0.902911
0.228413 -0.177365 0.904242
0.227494 -0.178062 0.90589
0.22653 -0.178733 0.907378
0.225722 -0.179512 0.909492
0.224904 -0.18029 0.911592
0.224074 -0.181066 0.913664
0.22321 -0.181824 0.91562
0.222401 -0.182626 0.917827
0.221611 -0.183448 0.920134
0.220317 -0.182879 0.922292
0.220818 -0.184273 0.922448
0.274144 -0.152288 0.855022
0.272875 -0.152719 0.855169
0.271575 -0.153135 0.855223
0.27018 -0.153508 0.854988
0.268786 -0.15388 0.85475
0.267393 -0.154251 0.854506
0.266046 -0.154642 0.854401
0.264776 -0.155066 0.854524
0.263612 -0.15554 0.854972
0.262483 -0.15603 0.855528
0.261486 -0.156583 0.856499
0.260488 -0.157137 0.857471
0.259469 -0.157683 0.858386
0.2584 -0.158207 0.859148
0.25732 -0.158725 0.859881
0.256168 -0.159209 0.860385
0.255017 -0.159694 0.860895
0.253893 -0.160193 0.861492
0.252837 -0.160728 0.862314
0.251896 -0.161323 0.863519
0.251001 -0.161944 0.864886
0.250242 -0.162639 0.866713
0.249704 -0.163456 0.869296
0.249253 -0.164325 0.872196
0.248766 -0.165183 0.875004
0.248299 -0.166058 0.877909
0.247678 -0.166857 0.880318
0.246853 -0.167549 0.882048
0.245997 -0.168226 0.883688
0.245122 -0.168898 0.885278
0.244181 -0.169535 0.886653
0.243232 -0.170171 0.888011
0.242231 -0.17078 0.889194
0.24114 -0.171338 0.890072
0.240021 -0.171882 0.89085
0.238877 -0.172411 0.891545
0.237774 -0.172966 0.892393
0.236676 -0.173526 0.893267
0.235604 -0.174103 0.894238
0.234612 -0.174732 0.895514
0.233703 -0.175415 0.897112
0.232723 -0.176058 0.898455
0.23175 -0.176708 0.89984
0.230784 -0.177365 0.901266
0.229796 -0.178012 0.902617
0.228758 -0.178629 0.903794
0.227821 -0.179317 0.905368
0.226879 -0.180004 0.906939
0.226054 -0.180774 0.908984
0.225217 -0.181542 0.911003
0.224364 -0.182304 0.912978
0.223437 -0.18302 0.914682
0.222528 -0.183752 0.916475
0.221919 -0.184703 0.919501
0.221334 -0.18568 0.922664
0.275513 -0.152968 0.853747
0.274153 -0.153358 0.853625
0.272857 -0.153774 0.85369
0.27153 -0.154178 0.853658
0.270118 -0.154541 0.853369
0.268777 -0.154934 0.853286
0.267457 -0.155337 0.853258
0.266162 -0.15575 0.853306
0.26492 -0.156186 0.853513
0.263804 -0.156681 0.854106
0.262698 -0.157182 0.85473
0.261728 -0.157749 0.855781
0.260756 -0.158316 0.856834
0.259762 -0.158875 0.857826
0.258715 -0.15941 0.858657
0.257636 -0.159929 0.859392
0.256486 -0.160415 0.859901
0.255358 -0.160911 0.860485
0.254259 -0.161424 0.861165
0.253211 -0.161963 0.862011
0.25227 -0.162559 0.863216
0.251375 -0.163182 0.864582
0.250615 -0.163879 0.866404
0.25008 -0.164701 0.868994
0.24967 -0.165596 0.872029
0.249228 -0.166481 0.874983
0.248807 -0.167387 0.878041
0.248209 -0.168202 0.880528
0.247408 -0.16891 0.882343
0.246557 -0.169594 0.884004
0.245682 -0.170268 0.885596
0.244721 -0.170896 0.886903
0.243749 -0.171522 0.888182
0.24272 -0.172116 0.88927
0.24158 -0.172647 0.889971
0.240436 -0.173176 0.890665
0.239292 -0.173706 0.89136
0.238171 -0.174252 0.892143
0.237073 -0.174813 0.893017
0.23604 -0.175415 0.894134
0.23505 -0.176047 0.895419
0.234147 -0.176736 0.897035
0.233184 -0.177391 0.898444
0.232192 -0.178032 0.899761
0.231205 -0.178677 0.901102
0.230194 -0.179311 0.902369
0.229152 -0.179927 0.903529
0.228212 -0.180614 0.905092
0.227292 -0.181318 0.906747
0.226451 -0.18208 0.908728
0.225593 -0.182836 0.91066
0.224694 -0.183568 0.912454
0.223701 -0.18424 0.913892
0.222921 -0.185065 0.916199
0.222504 -0.186156 0.919995
0.222167 -0.187317 0.924164
0.275554 -0.15405 0.852454
0.274186 -0.154435 0.852304
0.272859 -0.154837 0.852274
0.271483 -0.155217 0.852093
0.2701 -0.15559 0.851883
0.268812 -0.156007 0.851954
0.267571 -0.156444 0.852165
0.266332 -0.156881 0.85238
0.265121 -0.157331 0.852678
0.264026 -0.157837 0.853332
0.262939 -0.158347 0.854016
0.261946 -0.158903 0.854994
0.260997 -0.159482 0.856115
0.260026 -0.160052 0.857176
0.259006 -0.1606 0.858088
0.25793 -0.161123 0.858833
0.256803 -0.161619 0.859417
0.255698 -0.162128 0.860073
0.254623 -0.162653 0.860828
0.253578 -0.163195 0.861687
0.252638 -0.163793 0.862893
0.251745 -0.164419 0.864262
0.250985 -0.165118 0.866085
0.250455 -0.165945 0.868687
0.250075 -0.166862 0.871817
0.249681 -0.167777 0.874929
0.249304 -0.16871 0.878133
0.248754 -0.169557 0.880783
0.247997 -0.170293 0.882751
0.247166 -0.170991 0.884481
0.24629 -0.171667 0.886072
0.245325 -0.172296 0.887367
0.244303 -0.172895 0.888478
0.243228 -0.173463 0.889405
0.24206 -0.173979 0.890015
0.240894 -0.174497 0.890632
0.239732 -0.175018 0.891262
0.238594 -0.175554 0.891988
0.237496 -0.176116 0.892862
0.236482 -0.176732 0.894049
0.235514 -0.177379 0.895414
0.234615 -0.178074 0.897049
0.233675 -0.178745 0.898544
0.232682 -0.179387 0.899858
0.231673 -0.180021 0.901118
0.230622 -0.18063 0.902235
0.229576 -0.181245 0.903378
0.228635 -0.181934 0.904938
0.227715 -0.18264 0.906592
0.226856 -0.183392 0.908501
0.225976 -0.184135 0.910348
0.225029 -0.184836 0.911949
0.224224 -0.185642 0.914133
0.22363 -0.186603 0.917184
0.223454 -0.187875 0.921952
0.223404 -0.189253 0.927295
0.277021 -0.154772 0.851475
0.275672 -0.155165 0.851386
0.274269 -0.155534 0.851135
0.272889 -0.15591 0.850943
0.271466 -0.156265 0.850619
0.270112 -0.156651 0.850492
0.268856 -0.15708 0.850654
0.26769 -0.157551 0.85109
0.26653 -0.158024 0.851541
0.265349 -0.158488 0.851928
0.264275 -0.159004 0.852646
0.263184 -0.159512 0.853315
0.262163 -0.160054 0.854202
0.261216 -0.160636 0.855328
0.26027 -0.161219 0.856462
0.259277 -0.161781 0.857459
0.258225 -0.162316 0.858278
0.257121 -0.162824 0.858933
0.256016 -0.163334 0.859589
0.254941 -0.163859 0.860344
0.253895 -0.164401 0.861199
0.252955 -0.165001 0.862401
0.252057 -0.165624 0.863755
0.25132 -0.166338 0.865649
0.250862 -0.167208 0.868484
0.250579 -0.168182 0.871935
0.250264 -0.169145 0.87531
0.249962 -0.170126 0.878767
0.249457 -0.171002 0.881569
0.248697 -0.17174 0.883531
0.247825 -0.172419 0.885124
0.24692 -0.173082 0.886622
0.245927 -0.173697 0.887828
0.24486 -0.174272 0.88878
0.243739 -0.174815 0.889553
0.242549 -0.175319 0.890084
0.24136 -0.175824 0.890623
0.240176 -0.176332 0.891181
0.239037 -0.176869 0.891901
0.237959 -0.177445 0.892848
0.236967 -0.178076 0.894117
0.236005 -0.17873 0.895508
0.235108 -0.179428 0.89715
0.234165 -0.180101 0.898636
0.233169 -0.180743 0.899938
0.23214 -0.181366 0.901129
0.231069 -0.181963 0.902172
0.230023 -0.18258 0.903317
0.22908 -0.183269 0.904867
0.228143 -0.183967 0.906457
0.227265 -0.184708 0.908289
0.226379 -0.185449 0.910111
0.225406 -0.186134 0.911612
0.224814 -0.187093 0.914632
0.224443 -0.18822 0.918576
0.224525 -0.189688 0.924387
0.224634 -0.191193 0.930381
0.278574 -0.155532 0.85075
0.277171 -0.155902 0.850507
0.275753 -0.156263 0.850216
0.274327 -0.156618 0.849894
0.27293 -0.156985 0.849649
0.271509 -0.15734 0.849328
0.270178 -0.157734 0.849268
0.268973 -0.158186 0.84958
0.267859 -0.15868 0.850164
0.26675 -0.159177 0.85077
0.265618 -0.159664 0.851304
0.264546 -0.160181 0.852027
0.263452 -0.160687 0.852682
0.262405 -0.161218 0.853491
0.261458 -0.1618 0.854611
0.260515 -0.162386 0.855754
0.259548 -0.162962 0.856831
0.258522 -0.16351 0.857726
0.257439 -0.16403 0.858448
0.256332 -0.164539 0.859099
0.255256 -0.165064 0.859851
0.25423 -0.165617 0.860767
0.253289 -0.166217 0.861968
0.252369 -0.16683 0.863246
0.251693 -0.16758 0.865338
0.251326 -0.168503 0.868471
0.25113 -0.169529 0.872207
0.25092 -0.170557 0.875934
0.25071 -0.171595 0.879699
0.250186 -0.172466 0.88244
0.249403 -0.173195 0.884329
0.248484 -0.17385 0.885766
0.247513 -0.174478 0.887041
0.246471 -0.175067 0.888079
0.245378 -0.175628 0.888946
0.244213 -0.176146 0.889567
0.243002 -0.176639 0.890028
0.241811 -0.177143 0.890559
0.240623 -0.17765 0.891105
0.239478 -0.178184 0.891808
0.23842 -0.178774 0.892829
0.237451 -0.179423 0.894183
0.236516 -0.180095 0.89567
0.23562 -0.180797 0.897318
0.234674 -0.18147 0.898795
0.23367 -0.182109 0.900072
0.232621 -0.18272 0.901188
0.23153 -0.183306 0.902157
0.230485 -0.183926 0.903306
0.229541 -0.184617 0.904855
0.228604 -0.185316 0.906443
0.227706 -0.186047 0.9082
0.22682 -0.18679 0.91002
0.225846 -0.187477 0.911517
0.225259 -0.188443 0.914559
0.225082 -0.189716 0.919268
0.225217 -0.191231 0.925287
0.225289 -0.192719 0.931126
0.224757 -0.192729 0.936506
0.225343 -0.194213 0.936969
0.224357 -0.193895 0.94057
0.224895 -0.195349 0.940833
0.281331 -0.154767 0.851075
0.283137 -0.155636 0.851055
0.281657 -0.155977 0.850614
0.279919 -0.155135 0.850817
0.280193 -0.156321 0.850209
0.278751 -0.156673 0.849861
0.277308 -0.157023 0.849502
0.275862 -0.15737 0.849129
0.274449 -0.15773 0.848842
0.273045 -0.158092 0.848575
0.271652 -0.158458 0.848335
0.270347 -0.158862 0.848348
0.269161 -0.159323 0.848718
0.268049 -0.159818 0.849306
0.266965 -0.160327 0.849982
0.265859 -0.160826 0.850594
0.264791 -0.161345 0.851328
0.263697 -0.161852 0.851984
0.262671 -0.162393 0.852851
0.261721 -0.162974 0.853963
0.260784 -0.163564 0.855121
0.259842 -0.164153 0.856274
0.258839 -0.164714 0.857242
0.257777 -0.165246 0.858032
0.256672 -0.165756 0.858686
0.255617 -0.166292 0.859505
0.254591 -0.166847 0.860422
0.253652 -0.167449 0.861629
0.252711 -0.168053 0.862835
0.252165 -0.168875 0.86535
0.251878 -0.169847 0.868746
0.251788 -0.170938 0.872832
0.251659 -0.172018 0.876827
0.251494 -0.173088 0.880744
0.250898 -0.173923 0.883248
0.250066 -0.174628 0.884975
0.249076 -0.175245 0.886174
0.24806 -0.175849 0.887298
0.24699 -0.176424 0.888241
0.24585 -0.176958 0.888948
0.244661 -0.177464 0.889486
0.243449 -0.177956 0.889946
0.242256 -0.17846 0.890473
0.241064 -0.178965 0.89101
0.239939 -0.179513 0.891784
0.238924 -0.180132 0.892962
0.237983 -0.1808 0.894418
0.237051 -0.181478 0.895921
0.23615 -0.182179 0.897553
0.235177 -0.182837 0.89893
0.234131 -0.18345 0.900052
0.233061 -0.18405 0.901091
0.231951 -0.184624 0.90199
0.230901 -0.185242 0.903124
0.229956 -0.185934 0.904665
0.229019 -0.186636 0.906254
0.228124 -0.18737 0.908021
0.22728 -0.188146 0.910003
0.22633 -0.188852 0.911594
0.225848 -0.189899 0.915048
0.225814 -0.191281 0.92032
0.225917 -0.192783 0.926208
0.225919 -0.19423 0.93177
0.225896 -0.195675 0.937293
0.225301 -0.196706 0.940552
0.284793 -0.15644 0.850602
0.283374 -0.156807 0.850342
0.281867 -0.157133 0.849823
0.280342 -0.15745 0.849245
0.278819 -0.157764 0.848661
0.277345 -0.158099 0.848211
0.275904 -0.158445 0.847849
0.274533 -0.158822 0.847682
0.273184 -0.159209 0.847574
0.271845 -0.159597 0.847493
0.270586 -0.160023 0.847642
0.269401 -0.160483 0.848011
0.268265 -0.160967 0.848525
0.267198 -0.161484 0.849253
0.266116 -0.161996 0.849936
0.265056 -0.162519 0.850691
0.263966 -0.163028 0.851358
0.262961 -0.16358 0.85229
0.261989 -0.164151 0.853329
0.261052 -0.164741 0.854487
0.260112 -0.165333 0.855645
0.259134 -0.165907 0.856687
0.258097 -0.166452 0.857552
0.257016 -0.166975 0.858283
0.255986 -0.167526 0.859182
0.254986 -0.168096 0.860184
0.25407 -0.168711 0.861464
0.253153 -0.16933 0.862752
0.252746 -0.170233 0.865719
0.252563 -0.171268 0.869457
0.25254 -0.172404 0.873763
0.252434 -0.173503 0.877836
0.252258 -0.174575 0.881717
0.25156 -0.175356 0.883883
0.250655 -0.176022 0.885363
0.249616 -0.176612 0.886402
0.248574 -0.177203 0.887437
0.247478 -0.177763 0.888292
0.246312 -0.178283 0.888911
0.24512 -0.178789 0.889443
0.243928 -0.179294 0.889975
0.242738 -0.179801 0.890516
0.241548 -0.180308 0.891062
0.240466 -0.180885 0.891991
0.239456 -0.181509 0.893193
0.238501 -0.18217 0.894601
0.237588 -0.182863 0.896173
0.236684 -0.183565 0.897797
0.235665 -0.184195 0.899008
0.234597 -0.184796 0.900047
0.233503 -0.185381 0.901002
0.232352 -0.185929 0.901745
0.231278 -0.186532 0.902786
0.230309 -0.187209 0.904239
0.229374 -0.187913 0.905831
0.228503 -0.188667 0.907689
0.227706 -0.189479 0.909854
0.226821 -0.190233 0.911695
0.226424 -0.191347 0.915482
0.226257 -0.192642 0.920227
0.226277 -0.194089 0.925772
0.226227 -0.195501 0.931107
0.226108 -0.196882 0.936234
0.225421 -0.197845 0.939109
0.286293 -0.156107 0.851084
0.285161 -0.157669 0.850258
0.283664 -0.158001 0.849779
0.282104 -0.158302 0.84911
0.280503 -0.158584 0.848315
0.278866 -0.158844 0.847404
0.277394 -0.159177 0.846957
0.275982 -0.159535 0.846674
0.274663 -0.159935 0.846659
0.273372 -0.160346 0.846719
0.272087 -0.160759 0.846795
0.270854 -0.161197 0.84702
0.269668 -0.161656 0.847387
0.268506 -0.162127 0.847825
0.267417 -0.162634 0.848479
0.266355 -0.163156 0.849222
0.265299 -0.163681 0.849987
0.264214 -0.164192 0.850668
0.263233 -0.164757 0.851671
0.262258 -0.165328 0.852702
0.26132 -0.165919 0.853852
0.260381 -0.166511 0.855011
0.259426 -0.167097 0.856123
0.258415 -0.167657 0.857071
0.257362 -0.168196 0.857888
0.256338 -0.168751 0.858808
0.25536 -0.169333 0.859878
0.254469 -0.169965 0.861237
0.25375 -0.170694 0.863167
0.253523 -0.171702 0.866726
0.253453 -0.172807 0.870837
0.253508 -0.173994 0.875402
0.253399 -0.175101 0.879472
0.253011 -0.176058 0.882647
0.252167 -0.176759 0.884326
0.251187 -0.177385 0.885558
0.250084 -0.177939 0.886379
0.248995 -0.178503 0.887255
0.247875 -0.179051 0.888029
0.246683 -0.179555 0.88856
0.245471 -0.180048 0.88902
0.244281 -0.180555 0.889561
0.243116 -0.181078 0.890192
0.241953 -0.181603 0.890832
0.240939 -0.182224 0.892009
0.239976 -0.182879 0.893375
0.239044 -0.183559 0.894871
0.238129 -0.184253 0.896439
0.237219 -0.184954 0.89804
0.236155 -0.185557 0.899092
0.235066 -0.186145 0.900056
0.23393 -0.186704 0.900854
0.232772 -0.187248 0.901571
0.231673 -0.187835 0.902521
0.230703 -0.188512 0.903964
0.22979 -0.189235 0.90564
0.228963 -0.190022 0.90767
0.228214 -0.190871 0.910018
0.227416 -0.191692 0.912203
0.226857 -0.192693 0.915349
0.226486 -0.193843 0.919278
0.22628 -0.195128 0.923911
0.226056 -0.196415 0.92853
0.225813 -0.197702 0.933125
0.225243 -0.198754 0.936455
0.28544 -0.15886 0.849664
0.2839 -0.159171 0.849063
0.282284 -0.159445 0.848235
0.280599 -0.159686 0.847203
0.278937 -0.159933 0.846217
0.277468 -0.160265 0.845778
0.276087 -0.160636 0.845585
0.274826 -0.16106 0.845732
0.273588 -0.161496 0.845948
0.272354 -0.161933 0.846173
0.271147 -0.162382 0.846474
0.269961 -0.162841 0.84684
0.268776 -0.163301 0.847207
0.26766 -0.163795 0.847783
0.266575 -0.164305 0.848453
0.265497 -0.16482 0.849149
0.264435 -0.165343 0.849897
0.263479 -0.165921 0.850973
0.262506 -0.166493 0.852008
0.261589 -0.167095 0.85322
0.260668 -0.167699 0.854433
0.259716 -0.168287 0.855555
0.258732 -0.168862 0.856585
0.257726 -0.169426 0.857551
0.256706 -0.169984 0.85848
0.255748 -0.170578 0.859616
0.254856 -0.171211 0.860974
0.254369 -0.172072 0.863656
0.254331 -0.173192 0.867826
0.254384 -0.174375 0.872343
0.254461 -0.175583 0.876982
0.254366 -0.176706 0.881103
0.253731 -0.177527 0.883462
0.252725 -0.178137 0.884601
0.251653 -0.178709 0.885526
0.250503 -0.179237 0.88619
0.249369 -0.179776 0.886912
0.248226 -0.18031 0.887606
0.247011 -0.180801 0.888059
0.2458 -0.181294 0.888522
0.244634 -0.181817 0.889145
0.243496 -0.182357 0.889872
0.242358 -0.182899 0.890603
0.241389 -0.183549 0.891937
0.240449 -0.184223 0.893389
0.239541 -0.18492 0.894968
0.238624 -0.185615 0.896533
0.237712 -0.186318 0.898129
0.236628 -0.186908 0.899105
0.235513 -0.187481 0.899976
0.234333 -0.18801 0.900611
0.23315 -0.188539 0.901239
0.232029 -0.18911 0.902104
0.231059 -0.18979 0.903549
0.230189 -0.190545 0.905388
0.22941 -0.191369 0.907595
0.228707 -0.192255 0.910121
0.227976 -0.193127 0.912565
0.227264 -0.194021 0.915113
0.226714 -0.195044 0.918332
0.226291 -0.19617 0.922086
0.225895 -0.19733 0.925997
0.225512 -0.198511 0.930008
0.224987 -0.199598 0.933495
0.287172 -0.159698 0.849416
0.285646 -0.160016 0.848865
0.284049 -0.1603 0.848104
0.282414 -0.160564 0.847223
0.280705 -0.160791 0.846118
0.279046 -0.161037 0.845145
0.277606 -0.16138 0.844785
0.276276 -0.161773 0.844736
0.275065 -0.162221 0.84503
0.273855 -0.162669 0.845326
0.272647 -0.163118 0.845627
0.271462 -0.163578 0.845993
0.270276 -0.164038 0.84636
0.269091 -0.164497 0.846726
0.267951 -0.16498 0.84723
0.266839 -0.165476 0.847818
0.265754 -0.165987 0.84849
0.264694 -0.166511 0.849242
0.26372 -0.167082 0.850263
0.26275 -0.167656 0.851304
0.261833 -0.168259 0.852512
0.260912 -0.168863 0.853722
0.259963 -0.169454 0.854851
0.259025 -0.170054 0.856024
0.258045 -0.170633 0.857073
0.257066 -0.171214 0.85813
0.256129 -0.171821 0.859331
0.255472 -0.172586 0.861443
0.255242 -0.173596 0.864957
0.255373 -0.174819 0.869684
0.255509 -0.176058 0.874475
0.255554 -0.177258 0.879018
0.255218 -0.17825 0.882345
0.254343 -0.178935 0.883912
0.25322 -0.179479 0.884663
0.25208 -0.180012 0.885358
0.250903 -0.180525 0.885932
0.249743 -0.181048 0.886566
0.248575 -0.181568 0.887177
0.24734 -0.182047 0.887559
0.246127 -0.18254 0.888019
0.244962 -0.183063 0.888645
0.243844 -0.183617 0.88944
0.242731 -0.184175 0.890258
0.241807 -0.184856 0.891751
0.240891 -0.185547 0.893289
0.240005 -0.18626 0.894949
0.239091 -0.18696 0.896521
0.23818 -0.187665 0.898121
0.237071 -0.188242 0.899012
0.235934 -0.1888 0.899802
0.234729 -0.189313 0.900347
0.233543 -0.18984 0.900963
0.232423 -0.190413 0.90183
0.23146 -0.1911 0.9033
0.230613 -0.191873 0.905226
0.229879 -0.192733 0.907606
0.229201 -0.19364 0.910225
0.228515 -0.19455 0.912845
0.227842 -0.195477 0.915547
0.227147 -0.196396 0.91819
0.226511 -0.197367 0.921098
0.225935 -0.198393 0.924282
0.225382 -0.199446 0.927592
0.288438 -0.159263 0.849235
0.288611 -0.160408 0.848345
0.287299 -0.160821 0.848397
0.285743 -0.161124 0.847759
0.284125 -0.161396 0.846938
0.282474 -0.161649 0.846012
0.280772 -0.161876 0.844928
0.279169 -0.162145 0.844111
0.277801 -0.162521 0.843959
0.276519 -0.162935 0.844047
0.275333 -0.163394 0.844413
0.274126 -0.163844 0.844715
0.272916 -0.164291 0.84501
0.271706 -0.164739 0.845304
0.270497 -0.165187 0.845601
0.269291 -0.165636 0.845902
0.268128 -0.166106 0.846333
0.267011 -0.166601 0.846907
0.265923 -0.167109 0.847567
0.264862 -0.167633 0.848312
0.26389 -0.168204 0.849337
0.262926 -0.168782 0.850388
0.261986 -0.169374 0.851526
0.261065 -0.169978 0.852728
0.260139 -0.170582 0.853924
0.259229 -0.171197 0.855182
0.258297 -0.171803 0.856377
0.257384 -0.172422 0.857646
0.256689 -0.173164 0.859617
0.256283 -0.174072 0.862536
0.256313 -0.175236 0.866894
0.256517 -0.17651 0.871861
0.256667 -0.177767 0.876705
0.256491 -0.178849 0.880529
0.255928 -0.179715 0.883112
0.254846 -0.180283 0.883995
0.253676 -0.180799 0.884591
0.252488 -0.181306 0.885127
0.25126 -0.181788 0.885529
0.250051 -0.182281 0.885997
0.248836 -0.182773 0.886448
0.247579 -0.183238 0.886752
0.246366 -0.18373 0.887207
0.245221 -0.184265 0.887902
0.244105 -0.18482 0.888698
0.243012 -0.185392 0.889587
0.242131 -0.186102 0.891228
0.24122 -0.186797 0.892782
0.24036 -0.18753 0.894533
0.239488 -0.18826 0.896256
0.238579 -0.188968 0.897861
0.237449 -0.189531 0.898676
0.236309 -0.190088 0.899455
0.235101 -0.1906 0.899989
0.233917 -0.191128 0.900615
0.232821 -0.19172 0.901571
0.23188 -0.192424 0.903123
0.231037 -0.193203 0.905065
0.230285 -0.194052 0.907372
0.229586 -0.194948 0.90991
0.22892 -0.195875 0.912602
0.228189 -0.196762 0.915073
0.227409 -0.19762 0.917378
0.226614 -0.198473 0.919648
0.225893 -0.19939 0.922241
0.225184 -0.200325 0.924913
0.290021 -0.161104 0.8472
0.288754 -0.161538 0.847376
0.28743 -0.161944 0.847391
0.285854 -0.162236 0.846698
0.284232 -0.162503 0.845864
0.282596 -0.162761 0.84498
0.280929 -0.163002 0.843995
0.279359 -0.163284 0.843274
0.27802 -0.163672 0.8432
0.276737 -0.164085 0.843288
0.27553 -0.164534 0.84359
0.274321 -0.164982 0.843885
0.27311 -0.165428 0.844174
0.271897 -0.165874 0.844458
0.270686 -0.16632 0.844747
0.269478 -0.166767 0.845042
0.268294 -0.167227 0.845408
0.267177 -0.16772 0.845977
0.266089 -0.168229 0.846635
0.26503 -0.168754 0.847383
0.264062 -0.169327 0.848417
0.263117 -0.169915 0.849524
0.262152 -0.170494 0.850578
0.261251 -0.171109 0.851841
0.260347 -0.171726 0.853102
0.259469 -0.172359 0.854454
0.258587 -0.172993 0.855807
0.257946 -0.173764 0.857934
0.257507 -0.174652 0.860722
0.257376 -0.175723 0.86453
0.257616 -0.177014 0.86957
0.257859 -0.178322 0.874673
0.25776 -0.179446 0.878713
0.257341 -0.180395 0.881746
0.256551 -0.181133 0.883586
0.255317 -0.181613 0.883969
0.254082 -0.182091 0.884349
0.252846 -0.182569 0.884725
0.251567 -0.18302 0.884958
0.250308 -0.183483 0.885254
0.249047 -0.183946 0.885546
0.247788 -0.184408 0.885842
0.246554 -0.184887 0.886223
0.245388 -0.185409 0.88684
0.244271 -0.185962 0.887629
0.243199 -0.186546 0.888585
0.242346 -0.187276 0.890323
0.241482 -0.188004 0.89204
0.240689 -0.188782 0.894025
0.239841 -0.18953 0.895831
0.238932 -0.19024 0.897437
0.237803 -0.190804 0.89825
0.236661 -0.191361 0.899023
0.235454 -0.191874 0.899563
0.234293 -0.19242 0.900273
0.233222 -0.19303 0.901325
0.232306 -0.193753 0.902969
0.231462 -0.194534 0.904903
0.230682 -0.195366 0.907101
0.229957 -0.196245 0.909538
0.229288 -0.197174 0.912212
0.228519 -0.198035 0.91453
0.227699 -0.198865 0.916676
0.226759 -0.199609 0.918368
0.227852 -0.201927 0.928158
0.290115 -0.162212 0.846099
0.288801 -0.162623 0.846142
0.287427 -0.163005 0.846017
0.285793 -0.163268 0.845158
0.284197 -0.163544 0.844394
0.282641 -0.163836 0.843735
0.281035 -0.164102 0.84292
0.279543 -0.164419 0.842419
0.278229 -0.164817 0.842418
0.276968 -0.16524 0.842565
0.275761 -0.165689 0.842867
0.274577 -0.166148 0.843233
0.273388 -0.166605 0.843587
0.272194 -0.16706 0.843926
0.270982 -0.167505 0.84421
0.269751 -0.167941 0.844438
0.268566 -0.168399 0.8448
0.267428 -0.168882 0.845307
0.266322 -0.169382 0.845906
0.265244 -0.169897 0.846597
0.264274 -0.17047 0.84762
0.263306 -0.171046 0.848656
0.262317 -0.171613 0.849633
0.261413 -0.172227 0.850879
0.260533 -0.172857 0.85221
0.259662 -0.173495 0.853581
0.258814 -0.174149 0.855035
0.258481 -0.175093 0.858134
0.258356 -0.176164 0.861922
0.258512 -0.177404 0.866647
0.258835 -0.178754 0.871962
0.25905 -0.180056 0.87698
0.258672 -0.181027 0.880123
0.257971 -0.181816 0.882237
0.25697 -0.182432 0.883384
0.255735 -0.182911 0.883766
0.254455 -0.183364 0.883999
0.253172 -0.183813 0.884219
0.251864 -0.184246 0.884351
0.250555 -0.184678 0.884481
0.249248 -0.185111 0.884611
0.247988 -0.185573 0.884903
0.246755 -0.186051 0.885284
0.24559 -0.186572 0.885899
0.244474 -0.187127 0.886693
0.243426 -0.187727 0.887727
0.242577 -0.18846 0.889473
0.24172 -0.189194 0.891211
0.240932 -0.189977 0.893208
0.240105 -0.19074 0.895088
0.2392 -0.191454 0.896699
0.238093 -0.192034 0.897592
0.236972 -0.192606 0.898443
0.235788 -0.193134 0.899065
0.234631 -0.193683 0.899786
0.233584 -0.194312 0.90093
0.232649 -0.195023 0.9025
0.231781 -0.195788 0.90434
0.230972 -0.196602 0.906424
0.230217 -0.197461 0.908739
0.229507 -0.198362 0.91125
0.228739 -0.199225 0.913563
0.227923 -0.20006 0.915719
0.226983 -0.200805 0.917406
0.290319 -0.163367 0.845303
0.288964 -0.163758 0.845231
0.287561 -0.164127 0.845024
0.285875 -0.164362 0.844021
0.284286 -0.164639 0.843275
0.282789 -0.164957 0.842778
0.28124 -0.165247 0.842125
0.2798 -0.165587 0.841771
0.278506 -0.165994 0.841827
0.277267 -0.166427 0.842039
0.27606 -0.166875 0.842341
0.27488 -0.167337 0.842719
0.273695 -0.167796 0.843085
0.272507 -0.168253 0.843439
0.271296 -0.168699 0.843728
0.270042 -0.169123 0.843888
0.268854 -0.16958 0.844242
0.267716 -0.170063 0.844745
0.266609 -0.170563 0.845343
0.26551 -0.171067 0.845968
0.264517 -0.171629 0.846918
0.263502 -0.17218 0.847805
0.262465 -0.172721 0.848634
0.261517 -0.173312 0.849742
0.260618 -0.173931 0.851009
0.260058 -0.174742 0.853346
0.259541 -0.175582 0.855837
0.259571 -0.176737 0.860083
0.259784 -0.178008 0.864953
0.26025 -0.179437 0.87068
0.260288 -0.180636 0.875092
0.260199 -0.181773 0.879141
0.259505 -0.182566 0.881266
0.258533 -0.1832 0.882501
0.257298 -0.183679 0.882883
0.256063 -0.184158 0.883265
0.254781 -0.184607 0.883491
0.253472 -0.185041 0.883626
0.252136 -0.185456 0.883662
0.250801 -0.185872 0.883703
0.249473 -0.18629 0.883762
0.248194 -0.186739 0.883985
0.246962 -0.187217 0.884366
0.245776 -0.187726 0.88491
0.244638 -0.188264 0.885619
0.24359 -0.188865 0.886652
0.242724 -0.189589 0.888333
0.241871 -0.190325 0.890075
0.241104 -0.191124 0.892138
0.2403 -0.191903 0.894093
0.239418 -0.192634 0.895784
0.238356 -0.193245 0.896838
0.237261 -0.193835 0.897779
0.2361 -0.19438 0.898485
0.234962 -0.194942 0.89928
0.233917 -0.195573 0.900424
0.23294 -0.196256 0.901837
0.232028 -0.196991 0.903507
0.231174 -0.197772 0.905411
0.230376 -0.198601 0.907552
0.229646 -0.199487 0.909978
0.228901 -0.200369 0.912374
0.228109 -0.201223 0.914612
0.227191 -0.201986 0.91638
0.290546 -0.164532 0.84457
0.289121 -0.16489 0.844304
0.28769 -0.165243 0.844017
0.286023 -0.165486 0.843068
0.284435 -0.165761 0.842326
0.282954 -0.166084 0.841874
0.281482 -0.166409 0.841438
0.280069 -0.16676 0.841161
0.278773 -0.167166 0.841212
0.277558 -0.16761 0.841489
0.276353 -0.16806 0.841797
0.27518 -0.168525 0.842196
0.274022 -0.168997 0.842639
0.272838 -0.169456 0.843005
0.271607 -0.169892 0.843236
0.270329 -0.170304 0.843324
0.269115 -0.170747 0.8436
0.26797 -0.171226 0.844082
0.266842 -0.171715 0.844617
0.265761 -0.172228 0.845293
0.264766 -0.172789 0.846236
0.263723 -0.173326 0.847038
0.262662 -0.173854 0.847789
0.261689 -0.174432 0.848814
0.261053 -0.175197 0.850892
0.26082 -0.176194 0.854249
0.260672 -0.177247 0.857904
0.261023 -0.178593 0.863164
0.261507 -0.180031 0.868904
0.261701 -0.181317 0.873778
0.261422 -0.182343 0.877187
0.261017 -0.183302 0.880223
0.260051 -0.18394 0.881471
0.258861 -0.184445 0.882001
0.257626 -0.184924 0.882383
0.256391 -0.185403 0.882765
0.255109 -0.185854 0.88299
0.253799 -0.186285 0.88312
0.25244 -0.186686 0.883082
0.251082 -0.187087 0.883045
0.249731 -0.18749 0.883025
0.248431 -0.187924 0.883175
0.247178 -0.188388 0.883484
0.245992 -0.188895 0.884022
0.244831 -0.18942 0.88465
0.243762 -0.190007 0.885603
0.242848 -0.190699 0.887108
0.24199 -0.191432 0.888828
0.241199 -0.192216 0.890801
0.240418 -0.193012 0.892829
0.239563 -0.193762 0.894609
0.238571 -0.194421 0.89591
0.237504 -0.195031 0.896949
0.236387 -0.195607 0.897813
0.235249 -0.19617 0.898607
0.234198 -0.196796 0.899726
0.233177 -0.197449 0.900971
0.232202 -0.198137 0.902395
0.231284 -0.198872 0.904051
0.230446 -0.199672 0.906033
0.229717 -0.20056 0.908452
0.22902 -0.201479 0.911018
0.228274 -0.20237 0.913427
0.227404 -0.20317 0.915376
0.290828 -0.165721 0.843989
0.289352 -0.166054 0.843583
0.287911 -0.166402 0.843268
0.286242 -0.166641 0.842315
0.284657 -0.166916 0.841582
0.283203 -0.16725 0.841204
0.28178 -0.167597 0.840908
0.280368 -0.167948 0.840637
0.279075 -0.168355 0.840694
0.277861 -0.168799 0.840976
0.276636 -0.169239 0.841226
0.275461 -0.169702 0.841616
0.274325 -0.170186 0.842124
0.27314 -0.170645 0.84249
0.27191 -0.171081 0.842721
0.270651 -0.171501 0.842866
0.269434 -0.171944 0.843133
0.268264 -0.17241 0.843542
0.267112 -0.172885 0.844001
0.26603 -0.173399 0.844675
0.265012 -0.173948 0.845547
0.263946 -0.174472 0.846275
0.26288 -0.174997 0.847008
0.261879 -0.175561 0.847946
0.261528 -0.176487 0.850902
0.261622 -0.177672 0.855269
0.261823 -0.17893 0.860018
0.262468 -0.180455 0.866209
0.263003 -0.181935 0.872121
0.262847 -0.18303 0.875892
0.262255 -0.183879 0.878309
0.261568 -0.184679 0.880441
0.260403 -0.1852 0.881048
0.25919 -0.185691 0.8815
0.257955 -0.18617 0.881882
0.25672 -0.186649 0.882264
0.25544 -0.1871 0.882498
0.254133 -0.187534 0.882638
0.252777 -0.187936 0.882613
0.251438 -0.188348 0.88264
0.250086 -0.18875 0.882619
0.248784 -0.189183 0.882761
0.247528 -0.189646 0.883062
0.246319 -0.190138 0.88352
0.245133 -0.190647 0.88406
0.244035 -0.191214 0.884913
0.243051 -0.19186 0.886168
0.242145 -0.192562 0.88771
0.241307 -0.193315 0.88951
0.240489 -0.194085 0.891396
0.239639 -0.19484 0.893187
0.238695 -0.195532 0.894653
0.237678 -0.196177 0.895872
0.236609 -0.196787 0.896903
0.235492 -0.197365 0.897772
0.234418 -0.197976 0.898803
0.233348 -0.198592 0.89986
0.232326 -0.199246 0.901102
0.231364 -0.199948 0.902583
0.230466 -0.200703 0.904325
0.229718 -0.201576 0.906657
0.229083 -0.202545 0.909456
0.228452 -0.203524 0.912296
0.227719 -0.204433 0.914774
0.291106 -0.166908 0.843397
0.289612 -0.167232 0.842944
0.288162 -0.167574 0.842605
0.28651 -0.167819 0.841698
0.284926 -0.168092 0.840969
0.283472 -0.168425 0.840593
0.282098 -0.168795 0.840436
0.28071 -0.169157 0.840232
0.279419 -0.169564 0.840296
0.278202 -0.170007 0.840571
0.276976 -0.170446 0.840817
0.275773 -0.170896 0.84113
0.274634 -0.171378 0.841626
0.273445 -0.171835 0.84198
0.272212 -0.172269 0.842203
0.270954 -0.17269 0.842352
0.269735 -0.17313 0.842614
0.268546 -0.173586 0.842963
0.267368 -0.174048 0.843346
0.266267 -0.174552 0.84396
0.265227 -0.175089 0.844763
0.264122 -0.175592 0.84537
0.263052 -0.176115 0.846088
0.262005 -0.176653 0.846881
0.26197 -0.17776 0.850806
0.262394 -0.179138 0.856194
0.262962 -0.180613 0.862085
0.263628 -0.182163 0.868348
0.264187 -0.183668 0.874336
0.263672 -0.184561 0.876978
0.262771 -0.185233 0.878412
0.261825 -0.185882 0.879714
0.260659 -0.186402 0.880315
0.259448 -0.186895 0.880773
0.258238 -0.187388 0.881234
0.257027 -0.187882 0.881693
0.255792 -0.18836 0.882075
0.254511 -0.188811 0.882302
0.253159 -0.189215 0.882292
0.251845 -0.189643 0.882404
0.25051 -0.190055 0.882443
0.249184 -0.190473 0.882507
0.247927 -0.190935 0.882805
0.246735 -0.19144 0.883326
0.245527 -0.191934 0.883792
0.244405 -0.192487 0.88456
0.243372 -0.193101 0.885642
0.242414 -0.193769 0.886997
0.241529 -0.19449 0.888627
0.24069 -0.195248 0.890431
0.23982 -0.195989 0.892145
0.23892 -0.196713 0.893769
0.237928 -0.197376 0.89507
0.236869 -0.197993 0.896136
0.235757 -0.198575 0.897018
0.23466 -0.199169 0.897962
0.233524 -0.199737 0.89877
0.232454 -0.200355 0.899825
0.231444 -0.201021 0.901122
0.23048 -0.201726 0.902601
0.22965 -0.202537 0.904608
0.229094 -0.203566 0.907689
0.228582 -0.20464 0.910982
0.228001 -0.205669 0.91404
0.291369 -0.168088 0.842764
0.289888 -0.168416 0.842348
0.288471 -0.168773 0.842099
0.286846 -0.169028 0.84127
0.285283 -0.169311 0.840604
0.28378 -0.169619 0.840092
0.282408 -0.169989 0.839939
0.280995 -0.170337 0.839667
0.279705 -0.170745 0.839734
0.278464 -0.171176 0.839938
0.277232 -0.171611 0.84017
0.276002 -0.172046 0.840402
0.274835 -0.172514 0.840817
0.273623 -0.172959 0.841101
0.272391 -0.173393 0.841325
0.271158 -0.173826 0.841548
0.269946 -0.174269 0.841827
0.26876 -0.174726 0.842184
0.26758 -0.175187 0.842559
0.266495 -0.175699 0.84322
0.265435 -0.176226 0.84396
0.264333 -0.17673 0.844574
0.263266 -0.177255 0.845299
0.262196 -0.177779 0.846018
0.262474 -0.179068 0.850898
0.263243 -0.180651 0.857349
0.26412 -0.182314 0.864202
0.264815 -0.183892 0.870556
0.265355 -0.185398 0.876489
0.264476 -0.186084 0.877988
0.263274 -0.186582 0.878471
0.26207 -0.187077 0.878947
0.260908 -0.187599 0.879557
0.259723 -0.188107 0.880098
0.258538 -0.188617 0.880643
0.257331 -0.189113 0.881115
0.256141 -0.189619 0.881645
0.254885 -0.190085 0.881956
0.253558 -0.190505 0.882028
