ply
format ascii 1.0
element vertex 1731
property float x
property float y
property float z
end_header
0.204286 -0.110415 0.37121
0.204826 -0.110301 0.371081
0.20541 -0.110188 0.371025
0.205997 -0.110075 0.370972
0.206589 -0.109962 0.370926
0.207185 -0.109849 0.370885
0.207791 -0.109736 0.370859
0.20833 -0.109622 0.370722
0.208848 -0.109507 0.370549
0.209332 -0.109392 0.370322
0.20985 -0.109276 0.370147
0.21039 -0.109162 0.370011
0.21097 -0.109048 0.369938
0.211551 -0.108933 0.369864
0.212127 -0.108819 0.369781
0.212665 -0.108704 0.369638
0.213167 -0.108588 0.369436
0.213653 -0.108473 0.369208
0.214139 -0.108357 0.368981
0.214573 -0.108241 0.368672
0.215001 -0.108125 0.368354
0.21539 -0.108009 0.367976
0.215797 -0.107893 0.367626
0.216208 -0.107777 0.367284
0.216674 -0.107662 0.367027
0.217142 -0.107547 0.366774
0.217696 -0.107431 0.366654
0.218258 -0.107316 0.366544
0.220882 -0.107743 0.369388
0.218825 -0.107201 0.366441
0.171598 -0.11866 0.395123
0.172052 -0.11854 0.394799
0.172459 -0.118415 0.394372
0.172825 -0.118286 0.393854
0.173171 -0.118157 0.393293
0.173502 -0.118026 0.392702
0.173835 -0.117896 0.392119
0.174186 -0.117768 0.391579
0.174603 -0.117645 0.391186
0.174994 -0.117521 0.390737
0.175399 -0.117398 0.39032
0.175841 -0.117277 0.389987
0.176355 -0.117162 0.389808
0.176878 -0.117048 0.389649
0.177542 -0.116944 0.389791
0.178271 -0.116844 0.390068
0.179094 -0.11675 0.390539
0.179985 -0.11666 0.39115
0.180929 -0.116572 0.391864
0.181733 -0.116475 0.392278
0.182522 -0.116376 0.392653
0.183256 -0.116272 0.39291
0.18391 -0.116163 0.392998
0.184456 -0.116048 0.392861
0.185032 -0.115933 0.392784
0.185437 -0.115809 0.392356
0.185726 -0.115678 0.391695
0.185967 -0.115544 0.390939
0.186223 -0.115412 0.390218
0.186409 -0.115276 0.389362
0.186665 -0.115145 0.388649
0.186901 -0.115013 0.387901
0.187108 -0.11488 0.3871
0.187329 -0.114749 0.38633
0.187638 -0.114622 0.385739
0.187927 -0.114495 0.38511
0.188247 -0.114369 0.384545
0.18862 -0.114247 0.384088
0.188965 -0.114123 0.383577
0.189295 -0.114 0.383039
0.189685 -0.113879 0.382619
0.190093 -0.113759 0.382235
0.190447 -0.113636 0.381749
0.190824 -0.113515 0.381309
0.191209 -0.113395 0.380885
0.191536 -0.113272 0.380356
0.191865 -0.11315 0.37983
0.192205 -0.113028 0.379329
0.192542 -0.112907 0.378823
0.192878 -0.112786 0.378319
0.193279 -0.112667 0.377936
0.193686 -0.112549 0.377566
0.194155 -0.112433 0.37731
0.19464 -0.112318 0.377083
0.195125 -0.112203 0.376857
0.195593 -0.112087 0.3766
0.196029 -0.11197 0.376286
0.19646 -0.111853 0.375962
0.196908 -0.111737 0.375671
0.197331 -0.11162 0.375334
0.197803 -0.111504 0.375087
0.198272 -0.111389 0.374833
0.198803 -0.111275 0.37469
0.199305 -0.11116 0.374494
0.199857 -0.111047 0.374387
0.200377 -0.110932 0.374223
0.200925 -0.110819 0.374107
0.201363 -0.110702 0.373799
0.201793 -0.110586 0.373478
0.202187 -0.110469 0.373095
0.202533 -0.110351 0.372633
0.202879 -0.110233 0.372172
0.203304 -0.110117 0.371847
0.203787 -0.110001 0.37162
0.204297 -0.109887 0.371439
0.204855 -0.109773 0.371338
0.20544 -0.10966 0.371283
0.206026 -0.109547 0.371227
0.206617 -0.109433 0.371179
0.207211 -0.10932 0.371133
0.207801 -0.109206 0.371081
0.208338 -0.109091 0.370939
0.208837 -0.108976 0.370735
0.209302 -0.10886 0.370475
0.209802 -0.108745 0.370273
0.210342 -0.10863 0.370135
0.210905 -0.108515 0.370033
0.211469 -0.108401 0.369934
0.212028 -0.108286 0.369822
0.212547 -0.10817 0.369649
0.213034 -0.108055 0.369422
0.213519 -0.107939 0.369194
0.214006 -0.107823 0.368967
0.214438 -0.107708 0.368656
0.214848 -0.107592 0.368309
0.215235 -0.107476 0.367927
0.215624 -0.10736 0.367551
0.216019 -0.107245 0.367184
0.21647 -0.107129 0.366904
0.216954 -0.107014 0.366677
0.21751 -0.106899 0.366559
0.218107 -0.106783 0.366504
0.218712 -0.106668 0.36646
0.221296 -0.107088 0.369232
0.219332 -0.106552 0.366436
0.171924 -0.117997 0.394803
0.172296 -0.11787 0.394296
0.172629 -0.117739 0.393703
0.172946 -0.117608 0.393078
0.173274 -0.117478 0.392482
0.173597 -0.117348 0.391877
0.173948 -0.117221 0.391337
0.174378 -0.117099 0.390974
0.174783 -0.116976 0.390557
0.175206 -0.116855 0.390179
0.175691 -0.116738 0.38994
0.176223 -0.116624 0.3898
0.176749 -0.11651 0.389648
0.177383 -0.116403 0.389726
0.178063 -0.116299 0.389899
0.178835 -0.1162 0.390264
0.179681 -0.116106 0.390779
0.180595 -0.116015 0.391434
0.181414 -0.115918 0.39188
0.182231 -0.115819 0.392318
0.182997 -0.115717 0.392643
0.183699 -0.115611 0.392831
0.184154 -0.115489 0.392506
0.184599 -0.115368 0.392161
0.184864 -0.115236 0.391452
0.185007 -0.115098 0.390497
0.185229 -0.114964 0.389707
0.185631 -0.114842 0.389284
0.185968 -0.114715 0.388735
0.186388 -0.114594 0.388352
0.186777 -0.114471 0.387911
0.187018 -0.11434 0.387175
0.18727 -0.114211 0.386467
0.187596 -0.114086 0.385907
0.187883 -0.113959 0.385275
0.188189 -0.113834 0.384681
0.188548 -0.113711 0.384195
0.188877 -0.113587 0.383653
0.189209 -0.113464 0.383118
0.189599 -0.113343 0.382697
0.190022 -0.113224 0.382341
0.190389 -0.113103 0.38188
0.190765 -0.112982 0.381438
0.19115 -0.112862 0.381014
0.191464 -0.11274 0.380457
0.191777 -0.112617 0.379902
0.192102 -0.112495 0.379371
0.192424 -0.112374 0.378838
0.192747 -0.112253 0.378309
0.193147 -0.112135 0.377924
0.193553 -0.112017 0.377552
0.194022 -0.111901 0.377296
0.194507 -0.111786 0.37707
0.194977 -0.11167 0.376816
0.195431 -0.111554 0.376533
0.19585 -0.111436 0.376188
0.196264 -0.111319 0.375835
0.196709 -0.111203 0.375538
0.197145 -0.111087 0.375225
0.197632 -0.110972 0.375005
0.198118 -0.110857 0.374782
0.198666 -0.110743 0.374669
0.199186 -0.110629 0.374506
0.19974 -0.110515 0.374401
0.200261 -0.110401 0.374239
0.200809 -0.110287 0.374121
0.201262 -0.110171 0.37384
0.201695 -0.110054 0.373525
0.202125 -0.109938 0.373204
0.20249 -0.109821 0.372773
0.202869 -0.109704 0.372367
0.203313 -0.109588 0.372073
0.203828 -0.109474 0.371901
0.20434 -0.109359 0.371723
0.204931 -0.109245 0.371677
0.205518 -0.109132 0.371622
0.206102 -0.109018 0.371562
0.20666 -0.108904 0.371457
0.207236 -0.108789 0.371382
0.207796 -0.108674 0.371278
0.208316 -0.108559 0.371109
0.208799 -0.108444 0.370878
0.209262 -0.108328 0.370614
0.209761 -0.108213 0.370409
0.210283 -0.108098 0.370242
0.210844 -0.107983 0.370137
0.211389 -0.107867 0.370005
0.211929 -0.107752 0.369864
0.212432 -0.107637 0.369663
0.212916 -0.107521 0.369434
0.213386 -0.107405 0.36918
0.213872 -0.10729 0.368953
0.214306 -0.107174 0.368644
0.214717 -0.107059 0.368298
0.215104 -0.106943 0.367917
0.215493 -0.106827 0.36754
0.215887 -0.106712 0.367172
0.216336 -0.106597 0.36689
0.216839 -0.106482 0.366691
0.217398 -0.106366 0.366578
0.218015 -0.10625 0.366553
0.218639 -0.106134 0.366538
0.219279 -0.106018 0.366544
0.221821 -0.106431 0.369244
0.219879 -0.105902 0.36649
0.171351 -0.117576 0.39515
0.171751 -0.117451 0.394704
0.172116 -0.117324 0.394182
0.172423 -0.117192 0.39353
0.172727 -0.117061 0.392878
0.173044 -0.116931 0.392256
0.173378 -0.116802 0.391675
0.173726 -0.116675 0.391131
0.174156 -0.116554 0.390767
0.174576 -0.116433 0.390384
0.175024 -0.116313 0.390064
0.175541 -0.116198 0.389893
0.17609 -0.116086 0.389791
0.176632 -0.115973 0.389672
0.177253 -0.115864 0.389723
0.177903 -0.115757 0.389831
0.178617 -0.115654 0.390074
0.179412 -0.115555 0.390484
0.180249 -0.115459 0.390977
0.181017 -0.115357 0.391319
0.181788 -0.115255 0.391664
0.182514 -0.11515 0.391909
0.183124 -0.115038 0.391909
0.183498 -0.114913 0.391421
0.183838 -0.114787 0.390867
0.18401 -0.114651 0.389969
0.184081 -0.114511 0.388873
0.184301 -0.11438 0.388087
0.18484 -0.114265 0.387947
0.185343 -0.114148 0.387735
0.18593 -0.114035 0.387693
0.186497 -0.113921 0.387608
0.186895 -0.113799 0.387187
0.187195 -0.113673 0.386573
0.187541 -0.113549 0.38605
0.187846 -0.113424 0.385453
0.18815 -0.113299 0.384855
0.188492 -0.113176 0.384335
0.188807 -0.113052 0.383763
0.18914 -0.112929 0.38323
0.189533 -0.112809 0.382814
0.189956 -0.11269 0.38246
0.190337 -0.11257 0.382024
0.190713 -0.112449 0.381579
0.191096 -0.112329 0.381151
0.191408 -0.112207 0.380591
0.191705 -0.112085 0.380005
0.192028 -0.111963 0.379469
0.192335 -0.111842 0.378906
0.192642 -0.111721 0.378347
0.193028 -0.111602 0.377937
0.193434 -0.111485 0.377564
0.193889 -0.111368 0.377282
0.194374 -0.111253 0.377056
0.194828 -0.111137 0.376774
0.195266 -0.111021 0.376461
0.195668 -0.110903 0.376086
0.196067 -0.110786 0.375705
0.196496 -0.11067 0.37538
0.196932 -0.110553 0.375068
0.197415 -0.110438 0.374841
0.197916 -0.110323 0.374646
0.198478 -0.11021 0.374558
0.199017 -0.110096 0.374429
0.199589 -0.109983 0.374357
0.200128 -0.109868 0.374224
0.200675 -0.109754 0.374107
0.20116 -0.109639 0.373881
0.201629 -0.109523 0.373626
0.202095 -0.109408 0.373368
0.202497 -0.109291 0.372999
0.20291 -0.109175 0.37265
0.203353 -0.109059 0.372354
0.20387 -0.108945 0.372183
0.204384 -0.10883 0.372007
0.204975 -0.108716 0.37196
0.20556 -0.108602 0.371903
0.206129 -0.108487 0.371816
0.20667 -0.108372 0.371682
0.20723 -0.108257 0.371579
0.207786 -0.108142 0.371469
0.208293 -0.108027 0.371276
0.208777 -0.107911 0.371046
0.209258 -0.107796 0.370812
0.209758 -0.10768 0.370608
0.210263 -0.107565 0.370412
0.210821 -0.10745 0.370301
0.211362 -0.107334 0.370163
0.211868 -0.107219 0.369966
0.212352 -0.107103 0.369735
0.212818 -0.106987 0.369476
0.213269 -0.106872 0.369193
0.213739 -0.106756 0.368939
0.21419 -0.106641 0.368658
0.214605 -0.106525 0.368319
0.214996 -0.10641 0.367943
0.215383 -0.106294 0.367562
0.215774 -0.10618 0.367189
0.216205 -0.106064 0.366878
0.216724 -0.105949 0.366705
0.217302 -0.105833 0.366622
0.217925 -0.105717 0.366606
0.21855 -0.1056 0.366592
0.219208 -0.105483 0.366626
0.219809 -0.105367 0.366573
0.222326 -0.105774 0.369225
0.22039 -0.10525 0.366487
0.170897 -0.117164 0.395771
0.171269 -0.117037 0.395259
0.171659 -0.116912 0.39479
0.171995 -0.116783 0.3942
0.172275 -0.11665 0.393489
0.172578 -0.116519 0.392831
0.172881 -0.116389 0.39218
0.173201 -0.11626 0.391569
0.17355 -0.116133 0.391025
0.173977 -0.116013 0.390656
0.174398 -0.115892 0.390274
0.17486 -0.115773 0.389984
0.175404 -0.11566 0.389873
0.175969 -0.115548 0.389804
0.176526 -0.115436 0.389719
0.177148 -0.115327 0.389772
0.177783 -0.115218 0.38985
0.178454 -0.115112 0.39
0.179174 -0.115008 0.390253
0.179902 -0.114904 0.390517
0.180556 -0.114795 0.390623
0.181229 -0.114687 0.390766
0.181865 -0.114577 0.390828
0.182384 -0.11446 0.390644
0.182701 -0.114333 0.390043
0.182975 -0.114204 0.389358
0.183072 -0.114067 0.388315
0.183103 -0.113928 0.387141
0.183339 -0.113799 0.386392
0.183962 -0.113689 0.386431
0.18459 -0.113578 0.386478
0.18535 -0.113473 0.386787
0.186086 -0.113366 0.387045
0.186643 -0.113252 0.38694
0.187039 -0.11313 0.386518
0.187446 -0.11301 0.386116
0.187769 -0.112886 0.385553
0.188071 -0.112761 0.384951
0.188411 -0.112639 0.384425
0.188722 -0.112515 0.383847
0.18907 -0.112394 0.383341
0.189466 -0.112274 0.382931
0.189907 -0.112155 0.382609
0.19029 -0.112035 0.382177
0.190651 -0.111915 0.381704
0.191033 -0.111795 0.381272
0.191342 -0.111674 0.380706
0.191624 -0.111552 0.38009
0.191945 -0.111431 0.37955
0.192249 -0.11131 0.378982
0.19254 -0.111189 0.378392
0.19291 -0.11107 0.377951
0.193316 -0.110953 0.377577
0.193756 -0.110836 0.377268
0.194241 -0.110721 0.377042
0.194679 -0.110605 0.376731
0.195113 -0.110488 0.376411
0.195511 -0.110371 0.376029
0.195911 -0.110254 0.37565
0.196328 -0.110138 0.375304
0.196779 -0.110022 0.37502
0.197248 -0.109906 0.374766
0.197747 -0.109792 0.374567
0.198309 -0.109678 0.37448
0.198864 -0.109564 0.374379
0.199439 -0.10945 0.374311
0.199994 -0.109336 0.374208
0.200542 -0.109222 0.374093
0.201058 -0.109107 0.373921
0.201563 -0.108992 0.373728
0.202067 -0.108877 0.373535
0.20252 -0.108761 0.373253
0.202982 -0.108646 0.372987
0.203427 -0.10853 0.372692
0.203944 -0.108415 0.372521
0.204455 -0.1083 0.372338
0.205032 -0.108185 0.372266
0.205585 -0.10807 0.372154
0.20614 -0.107955 0.372043
0.206678 -0.10784 0.371903
0.207234 -0.107725 0.371793
0.207807 -0.10761 0.37171
0.208331 -0.107494 0.371545
0.208834 -0.107379 0.371344
0.209334 -0.107263 0.37114
0.209852 -0.107147 0.370965
0.210344 -0.107032 0.370747
0.210887 -0.106916 0.37061
0.211409 -0.1068 0.37044
0.211879 -0.106684 0.370185
0.212326 -0.106569 0.369894
0.212757 -0.106453 0.369578
0.213189 -0.106338 0.369263
0.213639 -0.106222 0.368979
0.214091 -0.106107 0.368698
0.214491 -0.105992 0.368336
0.214884 -0.105876 0.367963
0.215272 -0.105762 0.367583
0.21566 -0.105647 0.367205
0.216072 -0.105532 0.366865
0.216609 -0.105416 0.366719
0.217189 -0.1053 0.366638
0.217813 -0.105183 0.366624
0.218437 -0.105066 0.366609
0.219092 -0.104949 0.36664
0.219675 -0.104832 0.366559
0.220239 -0.104716 0.366448
0.220971 -0.105134 0.366401
0.220802 -0.104599 0.366334
0.223459 -0.104997 0.369177
0.2214 -0.104482 0.366274
0.171162 -0.116496 0.39531
0.17155 -0.116371 0.394836
0.171886 -0.116242 0.394246
0.172152 -0.116109 0.393503
0.172457 -0.115979 0.392849
0.17276 -0.11585 0.392197
0.173079 -0.115721 0.391583
0.173439 -0.115596 0.391063
0.173842 -0.115474 0.390642
0.174263 -0.115353 0.39026
0.174738 -0.115236 0.389997
0.175283 -0.115122 0.389887
0.175835 -0.11501 0.389794
0.176405 -0.114898 0.389735
0.177039 -0.114789 0.389814
0.177662 -0.114679 0.389866
0.178318 -0.114571 0.389985
0.178965 -0.114463 0.390082
0.179594 -0.114352 0.390139
0.180135 -0.114237 0.390009
0.180666 -0.114122 0.389857
0.181173 -0.114005 0.389655
0.181601 -0.113885 0.389288
0.181833 -0.113755 0.388517
0.182026 -0.113624 0.38767
0.182135 -0.11349 0.386657
0.182172 -0.113353 0.385503
0.182441 -0.113227 0.384827
0.183149 -0.11312 0.385045
0.183888 -0.113015 0.385321
0.184804 -0.112916 0.385948
0.185693 -0.112815 0.386515
0.186398 -0.112706 0.386708
0.18689 -0.112589 0.386477
0.187359 -0.112471 0.386198
0.187685 -0.112347 0.385639
0.188 -0.112224 0.385062
0.188325 -0.112101 0.384506
0.188636 -0.111978 0.383926
0.188983 -0.111857 0.383419
0.189394 -0.111738 0.383037
0.189838 -0.11162 0.38272
0.190237 -0.111501 0.382318
0.190585 -0.11138 0.381819
0.190952 -0.111261 0.381359
0.191262 -0.111139 0.380792
0.191529 -0.111017 0.380149
0.191836 -0.110897 0.379582
0.192138 -0.110776 0.379009
0.192427 -0.110656 0.378416
0.19278 -0.110537 0.377942
0.193184 -0.11042 0.377566
0.193623 -0.110304 0.377255
0.194108 -0.110189 0.377028
0.194531 -0.110072 0.376688
0.194947 -0.109955 0.376337
0.195343 -0.109839 0.375951
0.195742 -0.109722 0.375572
0.196133 -0.109605 0.375178
0.196585 -0.10949 0.374895
0.197052 -0.109374 0.374639
0.197535 -0.109259 0.374413
0.198098 -0.109145 0.374328
0.198684 -0.109032 0.374282
0.199275 -0.108918 0.374243
0.199846 -0.108804 0.374168
0.200409 -0.10869 0.37408
0.200942 -0.108575 0.373937
0.20148 -0.10846 0.373802
0.202023 -0.108345 0.373675
0.202514 -0.10823 0.373457
0.20301 -0.108114 0.373249
0.203471 -0.107999 0.37298
0.203971 -0.107884 0.372779
0.20448 -0.107768 0.372591
0.205055 -0.107653 0.372516
0.20561 -0.107538 0.372406
0.206163 -0.107422 0.372291
0.206716 -0.107307 0.372176
0.207273 -0.107191 0.372065
0.207864 -0.107076 0.372011
0.208408 -0.10696 0.371878
0.208932 -0.106845 0.371711
0.209449 -0.106729 0.371534
0.209986 -0.106613 0.371387
0.210467 -0.106497 0.371148
0.210994 -0.106381 0.370985
0.211498 -0.106265 0.370785
0.211931 -0.106149 0.370469
0.212343 -0.106034 0.370121
0.212752 -0.105918 0.369769
0.213147 -0.105803 0.369395
0.213561 -0.105688 0.369053
0.214009 -0.105572 0.368765
0.214392 -0.105458 0.368375
0.214768 -0.105343 0.367976
0.215153 -0.105229 0.367592
0.215542 -0.105114 0.367215
0.215938 -0.105 0.36685
0.216492 -0.104883 0.36673
0.217074 -0.104767 0.366652
0.217696 -0.10465 0.366636
0.218317 -0.104533 0.366615
0.218949 -0.104415 0.366611
0.219495 -0.104299 0.366474
0.220041 -0.104182 0.366336
0.220584 -0.104065 0.366194
0.221147 -0.103948 0.36608
0.170711 -0.116083 0.395939
0.171088 -0.115957 0.395437
0.171474 -0.115832 0.394959
0.171818 -0.115704 0.394385
0.172086 -0.115572 0.393645
0.17239 -0.115443 0.39299
0.172694 -0.115314 0.392337
0.173013 -0.115187 0.391723
0.173374 -0.115062 0.391204
0.173778 -0.11494 0.390784
0.174199 -0.114819 0.390401
0.174674 -0.114702 0.390138
0.175205 -0.114588 0.389998
0.175757 -0.114474 0.389901
0.176326 -0.114362 0.389841
0.176947 -0.114252 0.389891
0.177556 -0.114141 0.389913
0.178183 -0.114031 0.389971
0.17877 -0.113918 0.389942
0.17931 -0.113804 0.389811
0.179739 -0.113683 0.389447
0.18013 -0.113562 0.389004
0.180506 -0.113439 0.388532
0.180819 -0.113314 0.387932
0.18098 -0.113183 0.387018
0.181143 -0.113052 0.386116
0.181287 -0.112922 0.385179
0.18137 -0.112789 0.384124
0.181701 -0.112667 0.38358
0.182487 -0.112563 0.38396
0.183327 -0.112461 0.384445
0.184348 -0.112365 0.385289
0.185369 -0.112268 0.386122
0.186207 -0.112163 0.386582
0.186794 -0.112049 0.38654
0.187312 -0.111933 0.386359
0.18765 -0.11181 0.385822
0.187965 -0.111687 0.385245
0.188262 -0.111564 0.384633
0.188545 -0.111441 0.383998
0.188892 -0.11132 0.38349
0.189303 -0.111201 0.383108
0.189734 -0.111083 0.382765
0.190134 -0.110964 0.382364
0.19048 -0.110844 0.381861
0.190831 -0.110724 0.38137
0.191126 -0.110603 0.380776
0.191396 -0.110482 0.380137
0.191705 -0.110362 0.379573
0.192008 -0.110242 0.379002
0.192297 -0.110123 0.378408
0.192648 -0.110005 0.377931
0.193052 -0.109888 0.377554
0.19349 -0.109771 0.377241
0.193974 -0.109656 0.377014
0.194383 -0.10954 0.376648
0.194783 -0.109423 0.376268
0.195178 -0.109306 0.375879
0.195577 -0.10919 0.3755
0.195968 -0.109074 0.375107
0.196434 -0.108958 0.374849
0.196915 -0.108843 0.374618
0.197398 -0.108728 0.374392
0.197962 -0.108614 0.374309
0.19855 -0.1085 0.374266
0.199142 -0.108386 0.374229
0.199712 -0.108272 0.374155
0.200276 -0.108157 0.374066
0.20081 -0.108042 0.373924
0.20135 -0.107927 0.373793
0.20191 -0.107812 0.373696
0.202436 -0.107697 0.373538
0.202969 -0.107582 0.373392
0.203451 -0.107466 0.37316
0.203966 -0.107351 0.372983
0.204488 -0.107236 0.372817
0.20506 -0.10712 0.372735
0.205617 -0.107005 0.372628
0.206188 -0.106889 0.372542
0.206759 -0.106773 0.372456
0.207318 -0.106657 0.372348
0.207932 -0.106541 0.372331
0.208497 -0.106425 0.372232
0.209042 -0.106309 0.372098
0.209577 -0.106193 0.371948
0.210131 -0.106077 0.371828
0.210611 -0.10596 0.371588
0.211138 -0.105844 0.371422
0.211641 -0.105728 0.371218
0.212054 -0.105612 0.370868
0.212446 -0.105497 0.370488
0.212821 -0.105382 0.370079
0.213164 -0.105268 0.369621
0.21352 -0.105153 0.369187
0.21393 -0.105038 0.368837
0.214291 -0.104924 0.368412
0.21465 -0.104809 0.367987
0.215036 -0.104696 0.367603
0.215424 -0.104581 0.367225
0.21582 -0.104467 0.36686
0.216359 -0.104351 0.366717
0.21694 -0.104234 0.366638
0.217545 -0.104117 0.366594
0.218145 -0.104 0.366542
0.218756 -0.103882 0.366506
0.21928 -0.103766 0.366337
0.219805 -0.103649 0.366167
0.220328 -0.103533 0.365995
0.22087 -0.103416 0.365851
0.221676 -0.103832 0.365916
0.221378 -0.1033 0.365656
0.170937 -0.115412 0.395388
0.171326 -0.115288 0.394915
0.1717 -0.115163 0.394411
0.171971 -0.115032 0.393676
0.172303 -0.114905 0.393083
0.17261 -0.114777 0.392437
0.172953 -0.114651 0.391876
0.173316 -0.114527 0.391361
0.173722 -0.114405 0.390942
0.174143 -0.114285 0.390559
0.174641 -0.114169 0.390347
0.175159 -0.114054 0.390178
0.175712 -0.11394 0.390082
0.176279 -0.113827 0.390018
0.176886 -0.113716 0.390035
0.177466 -0.113603 0.389996
0.178051 -0.11349 0.389964
0.178592 -0.113375 0.389837
0.179072 -0.113258 0.389581
0.179413 -0.113134 0.389032
0.1797 -0.113008 0.388372
0.179966 -0.112882 0.387673
0.18016 -0.112753 0.386827
0.180372 -0.112626 0.386023
0.180645 -0.112501 0.385351
0.180932 -0.112378 0.384712
0.181214 -0.112254 0.384065
0.181639 -0.112136 0.383711
0.182365 -0.112029 0.383971
0.183151 -0.111924 0.384347
0.184117 -0.111823 0.38508
0.185082 -0.111723 0.385805
0.185994 -0.111619 0.386414
0.186633 -0.111506 0.386475
0.187184 -0.111391 0.386359
0.187534 -0.11127 0.385846
0.187863 -0.111148 0.385295
0.188144 -0.111025 0.384652
0.188429 -0.110903 0.38402
0.188774 -0.110782 0.383508
0.189183 -0.110664 0.383122
0.189584 -0.110545 0.382722
0.189967 -0.110426 0.382288
0.190309 -0.110306 0.381778
0.190644 -0.110187 0.381257
0.190939 -0.110066 0.380661
0.191223 -0.109946 0.380049
0.191549 -0.109827 0.379518
0.191855 -0.109708 0.378952
0.19216 -0.10959 0.378388
0.192513 -0.109472 0.377914
0.192918 -0.109355 0.377538
0.193357 -0.109239 0.377227
0.193841 -0.109124 0.377
0.19425 -0.109008 0.376634
0.19465 -0.108891 0.376254
0.195045 -0.108775 0.375865
0.195444 -0.108659 0.375486
0.195835 -0.108543 0.375092
0.1963 -0.108428 0.374833
0.196779 -0.108313 0.374599
0.197262 -0.108198 0.374372
0.197828 -0.108083 0.374293
0.198416 -0.107969 0.374251
0.199009 -0.107855 0.374215
0.199579 -0.10774 0.374141
0.200143 -0.107625 0.374052
0.200676 -0.10751 0.373909
0.201214 -0.107394 0.373774
0.201788 -0.107279 0.373701
0.202346 -0.107164 0.3736
0.2029 -0.107049 0.37349
0.203404 -0.106933 0.373293
0.20392 -0.106818 0.373118
0.204457 -0.106702 0.372977
0.20503 -0.106586 0.372897
0.205609 -0.10647 0.372825
0.206201 -0.106354 0.372774
0.206808 -0.106238 0.372747
0.207369 -0.106122 0.372642
0.208002 -0.106005 0.372655
0.208587 -0.105889 0.372588
0.209152 -0.105772 0.372486
0.209706 -0.105655 0.372365
0.210276 -0.105538 0.37227
0.210754 -0.105422 0.372024
0.211265 -0.105306 0.371831
0.211765 -0.105189 0.371621
0.212163 -0.105074 0.371246
0.212539 -0.104959 0.370837
0.212878 -0.104845 0.37037
0.213183 -0.104731 0.36985
0.213484 -0.104617 0.369327
0.213852 -0.104503 0.368911
0.214177 -0.10439 0.368429
0.214535 -0.104276 0.368001
0.214922 -0.104162 0.36762
0.215312 -0.104048 0.367243
0.215706 -0.103934 0.366875
0.216243 -0.103818 0.366728
0.216807 -0.103701 0.366624
0.217378 -0.103584 0.366529
0.217959 -0.103467 0.366448
0.218549 -0.103349 0.36638
0.219053 -0.103234 0.366181
0.21956 -0.103117 0.365984
0.220081 -0.103001 0.365809
0.220602 -0.102885 0.365635
0.22109 -0.102769 0.36541
0.221905 -0.103183 0.365489
0.221596 -0.102653 0.365212
0.170734 -0.114864 0.395221
0.171148 -0.114742 0.394807
0.171544 -0.114619 0.394351
0.17184 -0.11449 0.393674
0.172216 -0.114366 0.393178
0.172561 -0.114241 0.392617
0.172921 -0.114117 0.392092
0.173298 -0.113994 0.391605
0.173718 -0.113873 0.391217
0.174152 -0.113753 0.390862
0.174653 -0.113637 0.390654
0.175159 -0.113521 0.390456
0.175684 -0.113406 0.3903
0.176236 -0.113292 0.390201
0.176802 -0.113178 0.390131
0.177339 -0.113063 0.389999
0.177891 -0.112949 0.389896
0.1784 -0.112833 0.389702
0.178837 -0.112713 0.389354
0.179151 -0.112589 0.38875
0.179394 -0.112462 0.387998
0.179615 -0.112335 0.387206
0.179832 -0.112209 0.386411
0.180086 -0.112084 0.385696
0.180425 -0.111963 0.385159
0.180802 -0.111843 0.384706
0.1812 -0.111724 0.384295
0.181702 -0.111609 0.384098
0.182396 -0.111499 0.384291
0.183153 -0.111392 0.384607
0.184077 -0.111289 0.385257
0.18498 -0.111184 0.385855
0.185834 -0.111078 0.38635
0.18649 -0.110965 0.386446
0.187055 -0.11085 0.386358
0.187407 -0.110729 0.385848
0.187733 -0.110608 0.385292
0.188 -0.110485 0.38462
0.188297 -0.110364 0.384012
0.188641 -0.110244 0.383497
0.18905 -0.110125 0.38311
0.189434 -0.110007 0.382678
0.189799 -0.109888 0.38221
0.190123 -0.109768 0.381664
0.190426 -0.109648 0.381083
0.190705 -0.109529 0.380459
0.191004 -0.10941 0.379874
0.191331 -0.109291 0.379345
0.191654 -0.109173 0.378813
0.191991 -0.109056 0.378306
0.192362 -0.108939 0.377867
0.192769 -0.108822 0.377495
0.193223 -0.108707 0.377213
0.193708 -0.108591 0.376986
0.194131 -0.108476 0.376646
0.194533 -0.108359 0.376269
0.194928 -0.108243 0.375881
0.195327 -0.108128 0.375501
0.195717 -0.108012 0.375106
0.196169 -0.107897 0.374822
0.196649 -0.107782 0.374591
0.197133 -0.107667 0.374364
0.197682 -0.107552 0.374255
0.198253 -0.107437 0.374184
0.198843 -0.107322 0.374144
0.199414 -0.107208 0.374069
0.199978 -0.107092 0.373983
0.200511 -0.106977 0.373839
0.201045 -0.106862 0.373698
0.201599 -0.106747 0.373591
0.202171 -0.106631 0.373514
0.202746 -0.106515 0.373439
0.203286 -0.106399 0.373305
0.203822 -0.106284 0.373164
0.204389 -0.106168 0.373074
0.204981 -0.106052 0.373026
0.205582 -0.105935 0.37299
0.206197 -0.105819 0.372977
0.206839 -0.105702 0.373008
0.207434 -0.105585 0.372958
0.208064 -0.105468 0.372966
0.208666 -0.105351 0.372925
0.209249 -0.105233 0.372852
0.209824 -0.105116 0.372765
0.210397 -0.104999 0.372673
0.210875 -0.104883 0.372425
0.211367 -0.104766 0.3722
0.211852 -0.10465 0.371964
0.212234 -0.104535 0.371563
0.212595 -0.10442 0.371128
0.212916 -0.104306 0.370632
0.213183 -0.104194 0.37005
0.213444 -0.104081 0.369461
0.213773 -0.103968 0.368983
0.214079 -0.103855 0.368471
0.21444 -0.103742 0.368047
0.214832 -0.103628 0.367673
0.21522 -0.103515 0.367293
0.215611 -0.103401 0.36692
0.216127 -0.103285 0.366742
0.216674 -0.103168 0.36661
0.217227 -0.103052 0.366487
0.217805 -0.102934 0.366403
0.218378 -0.102816 0.366308
0.218865 -0.102701 0.366083
0.219354 -0.102585 0.36586
0.219875 -0.102469 0.365686
0.220378 -0.102353 0.365484
0.220865 -0.102237 0.365259
0.221369 -0.102121 0.365058
0.170472 -0.114314 0.394918
0.170894 -0.114193 0.394521
0.171332 -0.114072 0.394163
0.171674 -0.113947 0.39359
0.172082 -0.113825 0.393167
0.172483 -0.113703 0.39273
0.172899 -0.113582 0.392328
0.173318 -0.113461 0.391935
0.173769 -0.113342 0.391614
0.174217 -0.113223 0.391287
0.174706 -0.113106 0.391051
0.175185 -0.112989 0.390793
0.175683 -0.112872 0.390576
0.176206 -0.112756 0.390414
0.176726 -0.112641 0.390246
0.177219 -0.112523 0.390018
0.177724 -0.112407 0.389814
0.178202 -0.112289 0.389555
0.17861 -0.112169 0.389146
0.178925 -0.112046 0.388545
0.179157 -0.11192 0.387771
0.17938 -0.111794 0.386982
0.179612 -0.111669 0.386217
0.179883 -0.111546 0.385537
0.180252 -0.111426 0.385065
0.180704 -0.111309 0.384764
0.181189 -0.111193 0.384533
0.181768 -0.11108 0.384493
0.182498 -0.110971 0.384757
0.183284 -0.110863 0.38513
0.184161 -0.110757 0.385683
0.185012 -0.110649 0.386177
0.185802 -0.11054 0.386543
0.186442 -0.110426 0.386606
0.186979 -0.11031 0.386462
0.187331 -0.110189 0.385952
0.187657 -0.110068 0.385393
0.187909 -0.109946 0.384693
0.188192 -0.109825 0.384056
0.188521 -0.109705 0.383512
0.188929 -0.109587 0.383124
0.189284 -0.109469 0.382634
0.189633 -0.10935 0.382134
0.189954 -0.109231 0.381584
0.190227 -0.109111 0.380946
0.190491 -0.108992 0.380291
0.190802 -0.108874 0.379731
0.191145 -0.108757 0.379232
0.191472 -0.108639 0.378707
0.19184 -0.108523 0.37826
0.192227 -0.108406 0.37785
0.192634 -0.10829 0.377479
0.19309 -0.108174 0.377199
0.193575 -0.108059 0.376972
0.194014 -0.107943 0.376661
0.194417 -0.107828 0.376286
0.194814 -0.107712 0.3759
0.195197 -0.107596 0.375492
0.195571 -0.107481 0.375067
0.195992 -0.107366 0.37473
0.196458 -0.107251 0.374472
0.196927 -0.107136 0.37422
0.197459 -0.107021 0.374081
0.19801 -0.106906 0.373975
0.198596 -0.106791 0.373928
0.199166 -0.106676 0.373854
0.199733 -0.106561 0.373772
0.200281 -0.106445 0.373657
0.200814 -0.10633 0.373515
0.201365 -0.106214 0.373402
0.20195 -0.106098 0.373349
0.202542 -0.105982 0.373305
0.203102 -0.105866 0.373206
0.203672 -0.10575 0.373121
0.204271 -0.105634 0.373086
0.204897 -0.105517 0.373095
0.205535 -0.1054 0.373122
0.206189 -0.105283 0.373174
0.206864 -0.105164 0.373261
0.207474 -0.105047 0.373234
0.208102 -0.104929 0.373238
0.20872 -0.104811 0.373223
0.209321 -0.104694 0.373179
0.209902 -0.104576 0.373099
0.210477 -0.104458 0.373009
0.210955 -0.104342 0.372761
0.211445 -0.104226 0.372532
0.211916 -0.104109 0.372271
0.212298 -0.103994 0.371868
0.212642 -0.103881 0.371406
0.212944 -0.103768 0.370877
0.213174 -0.103656 0.370236
0.213399 -0.103545 0.369589
0.213692 -0.103433 0.369054
0.213997 -0.103321 0.368539
0.21436 -0.103207 0.368118
0.214756 -0.103094 0.36775
0.215147 -0.10298 0.367374
0.215535 -0.102867 0.366995
0.21603 -0.102751 0.366784
0.216557 -0.102635 0.366622
0.217075 -0.102519 0.366445
0.217635 -0.102402 0.366331
0.218202 -0.102284 0.36623
0.218675 -0.102169 0.365983
0.219166 -0.102053 0.365763
0.219706 -0.101936 0.365619
0.220209 -0.10182 0.365417
0.220697 -0.101704 0.365192
0.221199 -0.101588 0.36499
0.223814 -0.101954 0.367751
0.221702 -0.101472 0.364788
0.170662 -0.113645 0.394288
0.171134 -0.113526 0.394009
0.171537 -0.113405 0.393573
0.172007 -0.113286 0.39329
0.172468 -0.113168 0.392986
0.17293 -0.113049 0.392686
0.173383 -0.11293 0.392366
0.173863 -0.112812 0.392107
0.174315 -0.112693 0.391787
0.174791 -0.112575 0.391519
0.175241 -0.112456 0.391197
0.175705 -0.112338 0.390904
0.176183 -0.112221 0.390643
0.176659 -0.112103 0.390378
0.177109 -0.111984 0.390057
0.177567 -0.111866 0.389754
0.178027 -0.111748 0.389455
0.178406 -0.111627 0.388986
0.178711 -0.111504 0.388363
0.178972 -0.11138 0.38765
0.179213 -0.111256 0.386899
0.179446 -0.111132 0.386137
0.179746 -0.11101 0.385518
0.180146 -0.110892 0.385108
0.18063 -0.110776 0.384874
0.181191 -0.110662 0.384797
0.181847 -0.11055 0.384912
0.182612 -0.110441 0.385247
0.183428 -0.110332 0.38568
0.184261 -0.110223 0.386142
0.18505 -0.110113 0.386509
0.185762 -0.11 0.386719
0.186351 -0.109885 0.386681
0.186843 -0.109768 0.386447
0.187194 -0.109648 0.385934
0.187521 -0.109528 0.385377
0.187788 -0.109407 0.384705
0.188072 -0.109286 0.384071
0.188402 -0.109167 0.383528
0.18881 -0.10905 0.383139
0.18915 -0.108931 0.38262
0.189469 -0.108812 0.382064
0.189789 -0.108694 0.381511
0.190047 -0.108575 0.380843
0.190296 -0.108457 0.380162
0.190621 -0.108339 0.379628
0.190979 -0.108222 0.379159
0.191309 -0.108106 0.378638
0.191694 -0.107989 0.378223
0.192095 -0.107873 0.377839
0.192502 -0.107758 0.377467
0.192957 -0.107642 0.377185
0.193442 -0.107527 0.376958
0.193896 -0.107411 0.376676
0.194302 -0.107296 0.376306
0.194701 -0.107181 0.375924
0.195082 -0.107065 0.375509
0.195452 -0.10695 0.375078
0.195855 -0.106835 0.374707
0.196304 -0.10672 0.37442
0.196756 -0.106605 0.374138
0.197255 -0.10649 0.37394
0.197771 -0.106375 0.373774
0.198322 -0.10626 0.373667
0.198891 -0.106145 0.37359
0.199461 -0.106029 0.373516
0.200015 -0.105914 0.373411
0.200549 -0.105798 0.373272
0.201112 -0.105682 0.373182
0.201698 -0.105567 0.37313
0.202306 -0.10545 0.373114
0.202901 -0.105334 0.373076
0.203505 -0.105217 0.37305
0.204122 -0.1051 0.373046
0.204765 -0.104983 0.373083
0.205419 -0.104865 0.373139
0.206107 -0.104746 0.373248
0.206803 -0.104628 0.373368
0.207447 -0.104509 0.3734
0.208093 -0.104391 0.373432
0.208745 -0.104272 0.373473
0.209365 -0.104153 0.373458
0.20998 -0.104035 0.373435
0.210559 -0.103917 0.37335
0.211055 -0.1038 0.373129
0.211528 -0.103683 0.372871
0.211962 -0.103568 0.372549
0.212325 -0.103453 0.372115
0.21265 -0.10334 0.37162
0.212918 -0.103228 0.371036
0.21313 -0.103118 0.370364
0.213336 -0.103008 0.369688
0.213595 -0.102897 0.369098
0.213899 -0.102786 0.368581
0.21428 -0.102673 0.368187
0.214662 -0.10256 0.367797
0.215054 -0.102446 0.367423
0.21544 -0.102333 0.367041
0.2159 -0.102218 0.366775
0.216391 -0.102103 0.366556
0.216888 -0.101987 0.366348
0.217427 -0.10187 0.366204
0.217977 -0.101753 0.366075
0.218448 -0.101638 0.365826
0.218939 -0.101522 0.365607
0.21948 -0.101405 0.365465
0.219985 -0.101289 0.365267
0.220473 -0.101174 0.365042
0.220977 -0.101058 0.364842
0.221463 -0.100942 0.364615
0.170402 -0.113097 0.39399
0.170944 -0.112982 0.393871
0.171429 -0.112864 0.393619
0.171964 -0.112749 0.393482
0.172503 -0.112633 0.393354
0.173024 -0.112517 0.393184
0.17351 -0.112399 0.392936
0.173994 -0.112281 0.392683
0.174446 -0.112162 0.392361
0.174906 -0.112044 0.392055
0.175324 -0.111924 0.39166
0.17573 -0.111803 0.39124
0.176162 -0.111684 0.390877
0.176594 -0.111564 0.390516
0.176987 -0.111444 0.390071
0.177402 -0.111325 0.389677
0.177845 -0.111206 0.389342
0.178209 -0.111086 0.38884
0.178514 -0.110963 0.388217
0.178804 -0.110841 0.387565
0.179074 -0.110719 0.386876
0.179338 -0.110596 0.386177
0.17968 -0.110477 0.385644
0.180121 -0.110359 0.38532
0.180652 -0.110244 0.38518
0.181275 -0.110131 0.38523
0.181995 -0.11002 0.385475
0.182782 -0.10991 0.385852
0.183587 -0.1098 0.386261
0.184361 -0.109688 0.386603
0.185073 -0.109575 0.386814
0.185707 -0.10946 0.386865
0.186233 -0.109343 0.386701
0.186693 -0.109226 0.386403
0.187043 -0.109106 0.385889
0.18737 -0.108987 0.385332
0.187653 -0.108867 0.384692
0.187954 -0.108747 0.38409
0.188285 -0.108629 0.383549
0.188678 -0.108511 0.38313
0.189016 -0.108393 0.382606
0.189319 -0.108275 0.382019
0.189639 -0.108157 0.381467
0.189885 -0.108039 0.380775
0.190147 -0.107922 0.380119
0.190458 -0.107805 0.379557
0.190817 -0.107688 0.37909
0.191149 -0.107572 0.378573
0.19155 -0.107456 0.378189
0.19195 -0.107341 0.377803
0.192371 -0.107225 0.377456
0.192824 -0.10711 0.377171
0.193309 -0.106994 0.376944
0.193779 -0.106879 0.376691
0.194201 -0.106764 0.376349
0.194602 -0.106649 0.375971
0.194982 -0.106534 0.375555
0.195348 -0.106419 0.375116
0.195715 -0.106304 0.374681
0.196131 -0.10619 0.374335
0.196564 -0.106075 0.37402
0.19703 -0.105961 0.373763
0.197514 -0.105846 0.37354
0.198046 -0.10573 0.3734
0.198597 -0.105615 0.373294
0.199153 -0.105499 0.373196
0.199709 -0.105384 0.373095
0.200245 -0.105268 0.372961
0.20081 -0.105152 0.372876
0.20141 -0.105036 0.372848
0.202036 -0.104919 0.372866
0.202666 -0.104802 0.372887
0.203304 -0.104684 0.372922
0.203955 -0.104566 0.372976
0.204614 -0.104448 0.373041
0.205299 -0.104329 0.373148
0.206005 -0.10421 0.373287
0.206721 -0.104091 0.373441
0.207403 -0.103971 0.373535
0.208088 -0.103851 0.373633
0.20876 -0.103731 0.373707
0.209418 -0.103612 0.373754
0.210053 -0.103492 0.373762
0.21065 -0.103373 0.373705
0.211145 -0.103256 0.373481
0.211616 -0.10314 0.373219
0.212014 -0.103025 0.372839
0.212357 -0.102911 0.37237
0.212627 -0.1028 0.371786
0.212859 -0.102689 0.371143
0.21305 -0.10258 0.370438
0.213241 -0.102472 0.369735
0.213485 -0.102362 0.369121
0.213786 -0.102251 0.3686
0.214181 -0.102138 0.368228
0.214546 -0.102025 0.367811
0.21494 -0.101913 0.367439
0.215327 -0.1018 0.367059
0.215766 -0.101686 0.36676
0.21622 -0.101571 0.366485
0.216697 -0.101456 0.366245
0.217217 -0.10134 0.366071
0.217748 -0.101223 0.365915
0.218216 -0.101108 0.365662
0.218707 -0.100992 0.365445
0.219246 -0.100875 0.365298
0.219753 -0.100759 0.365104
0.220241 -0.100643 0.36488
0.220745 -0.100527 0.364681
0.221231 -0.100412 0.364454
0.223853 -0.100764 0.367222
0.221679 -0.100298 0.364172
0.170737 -0.112437 0.393693
0.171381 -0.112326 0.393804
0.17199 -0.112213 0.393833
0.172606 -0.1121 0.393877
0.173172 -0.111985 0.393805
0.173698 -0.111869 0.393643
0.174168 -0.11175 0.393355
0.174618 -0.111631 0.393025
0.175038 -0.111511 0.392629
0.175413 -0.111389 0.392137
0.175774 -0.111267 0.391615
0.176158 -0.111147 0.391148
0.176535 -0.111026 0.390666
0.176898 -0.110905 0.390157
0.177287 -0.110785 0.389704
0.177698 -0.110666 0.389302
0.178046 -0.110545 0.388768
0.178363 -0.110424 0.388169
0.17867 -0.110303 0.387554
0.178972 -0.110182 0.38693
0.17928 -0.110061 0.386322
0.17965 -0.109943 0.385847
0.180121 -0.109826 0.385584
0.180697 -0.109712 0.385537
0.181369 -0.109599 0.385684
0.182112 -0.109488 0.385975
0.182902 -0.109376 0.386357
0.183691 -0.109264 0.386731
0.184417 -0.109151 0.386973
0.185064 -0.109036 0.387055
0.185634 -0.108919 0.386978
0.186112 -0.108802 0.386716
0.186526 -0.108683 0.386326
0.186859 -0.108564 0.38578
0.187189 -0.108446 0.385228
0.187504 -0.108327 0.38465
0.187823 -0.108208 0.384082
0.18817 -0.10809 0.383574
0.188546 -0.107973 0.383122
0.188866 -0.107855 0.382563
0.189152 -0.107737 0.381942
0.189472 -0.10762 0.381391
0.18972 -0.107504 0.380703
0.189999 -0.107387 0.380078
0.190323 -0.107271 0.379541
0.190682 -0.107155 0.379073
0.191013 -0.107039 0.378555
0.191415 -0.106923 0.378171
0.191816 -0.106808 0.377787
0.192237 -0.106693 0.377442
0.192691 -0.106577 0.377157
0.193176 -0.106462 0.37693
0.19366 -0.106347 0.376703
0.194084 -0.106232 0.376366
0.194487 -0.106117 0.375989
0.194867 -0.106002 0.375574
0.195232 -0.105888 0.375133
0.19557 -0.105774 0.374645
0.195966 -0.10566 0.374263
0.196381 -0.105545 0.373914
0.196814 -0.105431 0.3736
0.197266 -0.105316 0.37332
0.197779 -0.105201 0.373149
0.198326 -0.105086 0.373037
0.198864 -0.10497 0.372908
0.199419 -0.104854 0.372807
0.199953 -0.104739 0.37267
0.200517 -0.104623 0.372583
0.201118 -0.104506 0.372561
0.201763 -0.104389 0.37261
0.20241 -0.104271 0.372663
0.203069 -0.104153 0.372734
0.203737 -0.104034 0.372818
0.204396 -0.103915 0.372884
0.205097 -0.103796 0.373018
0.205834 -0.103675 0.373211
0.206588 -0.103554 0.373429
0.207342 -0.103432 0.373644
0.208098 -0.103311 0.37386
0.208828 -0.103189 0.374027
0.209523 -0.103068 0.374136
0.210194 -0.102947 0.374203
0.21081 -0.102827 0.374176
0.211306 -0.10271 0.373952
0.211761 -0.102593 0.373661
0.212121 -0.10248 0.373218
0.212426 -0.102367 0.372685
0.21264 -0.102258 0.372009
0.212834 -0.10215 0.371304
0.213007 -0.102041 0.370569
0.21318 -0.101934 0.369838
0.213406 -0.101826 0.369194
0.213689 -0.101716 0.368643
0.214065 -0.101603 0.368242
0.214413 -0.101492 0.367797
0.214805 -0.101379 0.367424
0.215191 -0.101267 0.36704
0.215614 -0.101154 0.366717
0.216047 -0.10104 0.36641
0.21652 -0.100925 0.366163
0.217021 -0.100809 0.365962
0.217537 -0.100693 0.365782
0.218004 -0.100578 0.365529
0.218492 -0.100463 0.365305
0.219013 -0.100346 0.365133
0.219517 -0.10023 0.364935
0.220004 -0.100114 0.364711
0.220508 -0.0999981 0.364511
0.220993 -0.0998826 0.364284
0.221443 -0.0997685 0.364004
0.17214 -0.11168 0.394464
0.172796 -0.111568 0.394594
0.173375 -0.111453 0.39455
0.173915 -0.111337 0.394414
0.174353 -0.111217 0.394055
0.174776 -0.111096 0.39366
0.175167 -0.110975 0.393197
0.175515 -0.110854 0.392644
0.17586 -0.110732 0.392084
0.176202 -0.11061 0.391524
0.17656 -0.110489 0.390999
0.176895 -0.110368 0.390427
0.177267 -0.110248 0.389938
0.177638 -0.110128 0.389448
0.177983 -0.110008 0.388906
0.178287 -0.109887 0.388279
0.178609 -0.109767 0.387695
0.17893 -0.109647 0.38711
0.17927 -0.109527 0.386568
0.179672 -0.109409 0.386157
0.180188 -0.109294 0.385987
0.18081 -0.10918 0.386032
0.181517 -0.109066 0.38625
0.182275 -0.108954 0.38657
0.183049 -0.10884 0.386918
0.183788 -0.108727 0.38719
0.184436 -0.108611 0.387271
0.185005 -0.108495 0.387195
0.185513 -0.108377 0.386992
0.185944 -0.10826 0.386636
0.186326 -0.108141 0.386185
0.186659 -0.108023 0.385637
0.187004 -0.107905 0.385116
0.187338 -0.107787 0.384575
0.187674 -0.107669 0.384042
0.188038 -0.107552 0.383564
0.188398 -0.107435 0.38308
0.1887 -0.107317 0.382488
0.188967 -0.107201 0.38183
0.189288 -0.107084 0.381279
0.189538 -0.106968 0.380596
0.189835 -0.106852 0.380006
0.190175 -0.106736 0.379499
0.19056 -0.106621 0.379081
0.19089 -0.106506 0.37856
0.191292 -0.10639 0.378177
0.191695 -0.106275 0.377796
0.192117 -0.10616 0.377451
0.192558 -0.106045 0.377143
0.193042 -0.10593 0.376916
0.193527 -0.105814 0.376689
0.193966 -0.105699 0.376379
0.19437 -0.105585 0.376006
0.194754 -0.105471 0.375596
0.195119 -0.105357 0.375155
0.195458 -0.105243 0.374667
0.195826 -0.105129 0.374234
0.196222 -0.105016 0.373853
0.196622 -0.104902 0.37348
0.197055 -0.104788 0.373167
0.197536 -0.104673 0.372941
0.198067 -0.104557 0.3728
0.198586 -0.104442 0.372639
0.199134 -0.104326 0.372528
0.19965 -0.104211 0.372359
0.200226 -0.104094 0.372296
0.200843 -0.103977 0.372301
0.201505 -0.103859 0.372382
0.202171 -0.10374 0.372468
0.202844 -0.103621 0.372563
0.203514 -0.103502 0.372651
0.204157 -0.103384 0.372692
0.204873 -0.103263 0.372852
0.205629 -0.103141 0.373077
0.206419 -0.103018 0.373357
0.207244 -0.102894 0.373692
0.20809 -0.102769 0.374056
0.208893 -0.102645 0.374345
0.209662 -0.102521 0.374574
0.21037 -0.102398 0.3747
0.21099 -0.102278 0.374678
0.211501 -0.10216 0.374477
0.211941 -0.102044 0.374161
0.212269 -0.101932 0.373661
0.212535 -0.101821 0.373065
0.212707 -0.101714 0.37232
0.212828 -0.101608 0.371496
0.212964 -0.101502 0.3707
0.213102 -0.101397 0.369912
0.21331 -0.10129 0.36924
0.213574 -0.101181 0.368659
0.213948 -0.101069 0.368253
0.214278 -0.100959 0.367781
0.21467 -0.100846 0.367407
0.215055 -0.100734 0.367023
0.215461 -0.100621 0.366672
0.215875 -0.100509 0.366336
0.216346 -0.100394 0.366086
0.21683 -0.100278 0.36586
0.21733 -0.100163 0.365655
0.217798 -0.100048 0.365403
0.218284 -0.0999325 0.365177
0.218786 -0.0998165 0.364977
0.219271 -0.099701 0.364751
0.219739 -0.0995865 0.364499
0.220223 -0.0994713 0.364269
0.220689 -0.0993567 0.364015
0.22114 -0.0992426 0.363738
0.223796 -0.09958 0.366552
0.173111 -0.111038 0.395596
0.173618 -0.11092 0.395385
0.174086 -0.1108 0.395087
0.174481 -0.110679 0.394626
0.174874 -0.110558 0.394164
0.175253 -0.110437 0.393672
0.175589 -0.110315 0.393088
0.175918 -0.110193 0.392494
0.176233 -0.110071 0.39187
0.176576 -0.109951 0.391312
0.176883 -0.109829 0.390678
0.177239 -0.109709 0.390153
0.177595 -0.109589 0.38963
0.177951 -0.10947 0.38911
0.178255 -0.109349 0.388484
0.178608 -0.10923 0.387962
0.17896 -0.109112 0.387441
0.179331 -0.108993 0.386964
0.179764 -0.108876 0.386616
0.180327 -0.108761 0.386539
0.180983 -0.108646 0.386653
0.181708 -0.108532 0.386907
0.182466 -0.108418 0.387223
0.183206 -0.108303 0.387498
0.183866 -0.108188 0.387607
0.184421 -0.10807 0.387501
0.184913 -0.107953 0.387267
0.185358 -0.107836 0.386938
0.185729 -0.107717 0.386464
0.186093 -0.107599 0.385976
0.186441 -0.107482 0.385457
0.186802 -0.107364 0.384969
0.187155 -0.107247 0.384467
0.187522 -0.10713 0.383994
0.187901 -0.107013 0.383545
0.188246 -0.106896 0.383034
0.188532 -0.10678 0.382409
0.188796 -0.106664 0.381745
0.189115 -0.106548 0.381191
0.189369 -0.106432 0.380515
0.189684 -0.106317 0.379959
0.19004 -0.106202 0.379484
0.190427 -0.106087 0.379069
0.190773 -0.105972 0.378578
0.191189 -0.105857 0.37822
0.191594 -0.105742 0.377841
0.192015 -0.105627 0.377496
0.192454 -0.105512 0.377184
0.192924 -0.105397 0.376929
0.193394 -0.105282 0.376676
0.193834 -0.105167 0.376366
0.194238 -0.105053 0.375993
0.194635 -0.104939 0.375608
0.195018 -0.104825 0.375199
0.19536 -0.104712 0.374717
0.195729 -0.104599 0.374284
0.196123 -0.104485 0.3739
0.196505 -0.104372 0.373495
0.196922 -0.104258 0.373152
0.197387 -0.104144 0.372897
0.197901 -0.104028 0.372728
0.198404 -0.103913 0.372537
0.198921 -0.103798 0.372373
0.199417 -0.103683 0.37217
0.199991 -0.103566 0.372104
0.200608 -0.103448 0.372111
0.201271 -0.10333 0.372193
0.201951 -0.10321 0.372305
0.202622 -0.103091 0.372398
0.203273 -0.102971 0.372455
0.203898 -0.102853 0.372464
0.204597 -0.102732 0.372598
0.205354 -0.102609 0.372826
0.206148 -0.102486 0.373113
0.207058 -0.102358 0.37359
0.207995 -0.10223 0.374108
0.208893 -0.102102 0.374556
0.209737 -0.101975 0.374908
0.210529 -0.101849 0.375171
0.211166 -0.101727 0.375176
0.211683 -0.101609 0.374982
0.212125 -0.101493 0.374667
0.212402 -0.101382 0.374084
0.212592 -0.101275 0.373362
0.21269 -0.101171 0.372495
0.212753 -0.101068 0.371578
0.212838 -0.100965 0.3707
0.212973 -0.100861 0.369907
0.213179 -0.100754 0.36923
0.213441 -0.100646 0.368646
0.213814 -0.100535 0.368239
0.214128 -0.100426 0.367741
0.214519 -0.100314 0.367365
0.214904 -0.100202 0.36698
0.215293 -0.10009 0.366605
0.215692 -0.0999782 0.366243
0.216176 -0.0998629 0.366017
0.216661 -0.0997476 0.36579
0.217146 -0.0996323 0.365563
0.21763 -0.099517 0.365336
0.218115 -0.0994017 0.36511
0.218583 -0.0992868 0.364857
0.219032 -0.099173 0.364576
0.219478 -0.0990596 0.364291
0.219923 -0.0989461 0.364005
0.220371 -0.0988322 0.363724
0.220837 -0.0987178 0.36347
0.221551 -0.0991305 0.363402
0.221267 -0.0986053 0.363163
0.173388 -0.110502 0.396514
0.173766 -0.11038 0.396008
0.174156 -0.110259 0.395533
0.174507 -0.110137 0.394974
0.174886 -0.110016 0.394479
0.175251 -0.109895 0.393955
0.175586 -0.109774 0.393368
0.175919 -0.109653 0.392779
0.176247 -0.109531 0.392182
0.176578 -0.109411 0.391595
0.176882 -0.10929 0.390954
0.177238 -0.10917 0.390429
0.177579 -0.109051 0.389872
0.177938 -0.108931 0.389356
0.178268 -0.108812 0.388783
0.178624 -0.108693 0.388267
0.179005 -0.108576 0.387806
0.17942 -0.108458 0.387416
0.179897 -0.108341 0.387158
0.180506 -0.108226 0.387176
0.181197 -0.10811 0.38736
0.181912 -0.107995 0.38759
0.182639 -0.10788 0.387841
0.183315 -0.107763 0.387984
0.183885 -0.107646 0.387908
0.184362 -0.107529 0.387643
0.184791 -0.107411 0.38728
0.185174 -0.107293 0.386827
0.185511 -0.107176 0.386284
0.18586 -0.107058 0.385767
0.186222 -0.106941 0.385277
0.186602 -0.106824 0.384827
0.186972 -0.106707 0.384359
0.187355 -0.106591 0.383915
0.187732 -0.106474 0.383465
0.188065 -0.106358 0.382929
0.188336 -0.106243 0.382276
0.1886 -0.106127 0.381612
0.188918 -0.106012 0.381056
0.189186 -0.105898 0.380408
0.189519 -0.105783 0.379885
0.189893 -0.105668 0.379444
0.190297 -0.105553 0.379061
0.19066 -0.105438 0.378601
0.19108 -0.105324 0.378252
0.191483 -0.105209 0.377871
0.191903 -0.105094 0.37752
0.192338 -0.10498 0.377202
0.192792 -0.104865 0.376917
0.193261 -0.10475 0.376662
0.1937 -0.104635 0.376352
0.194104 -0.104521 0.375978
0.194488 -0.104407 0.375568
0.194869 -0.104294 0.375155
0.195211 -0.104181 0.374673
0.195581 -0.104068 0.374244
0.195964 -0.103955 0.373839
0.196343 -0.103843 0.373428
0.196742 -0.103729 0.373055
0.197204 -0.103615 0.372794
0.197706 -0.1035 0.372603
0.198208 -0.103385 0.372413
0.198724 -0.103269 0.372246
0.199235 -0.103154 0.37207
0.199795 -0.103037 0.37198
0.200428 -0.102919 0.372015
0.201091 -0.1028 0.372099
0.201769 -0.10268 0.372207
0.202422 -0.10256 0.37227
0.203053 -0.102441 0.372292
0.203658 -0.102322 0.372268
0.204322 -0.102202 0.372344
0.205041 -0.10208 0.37251
0.2058 -0.101956 0.372741
0.206743 -0.101826 0.373274
0.207756 -0.101694 0.37392
0.20877 -0.101561 0.374561
0.209724 -0.10143 0.375097
0.210624 -0.101299 0.375536
0.21131 -0.101176 0.375621
0.211828 -0.101057 0.375429
0.212264 -0.100941 0.375101
0.212548 -0.100831 0.374527
0.212636 -0.100728 0.373639
0.212639 -0.100628 0.372618
0.212624 -0.100529 0.371573
0.212715 -0.100427 0.370704
0.212786 -0.100327 0.369809
0.213027 -0.10022 0.369188
0.213307 -0.100112 0.368631
0.21368 -0.100001 0.368225
0.213995 -0.0998922 0.367727
0.214386 -0.0997804 0.367351
0.21477 -0.099669 0.366966
0.21516 -0.0995575 0.366591
0.215558 -0.0994457 0.36623
0.216043 -0.0993304 0.366003
0.216511 -0.0992158 0.36575
0.216978 -0.0991013 0.365496
0.217444 -0.0989869 0.365241
0.217911 -0.0988723 0.364987
0.218361 -0.0987585 0.364708
0.218807 -0.0986451 0.364423
0.219249 -0.0985317 0.364133
0.21969 -0.0984188 0.36384
0.220134 -0.0983054 0.363555
0.2206 -0.0981912 0.363301
0.221048 -0.0980777 0.363022
0.173194 -0.110084 0.397734
0.173537 -0.109961 0.397144
0.173844 -0.109837 0.396477
0.174174 -0.109716 0.395865
0.174496 -0.109593 0.395239
0.174848 -0.109472 0.394682
0.1752 -0.109351 0.394129
0.175549 -0.109231 0.393572
0.175909 -0.10911 0.393041
0.176241 -0.10899 0.392452
0.176588 -0.10887 0.391898
0.176918 -0.10875 0.391311
0.17729 -0.108631 0.390816
0.177634 -0.108512 0.390264
0.178008 -0.108393 0.389779
0.178368 -0.108274 0.389267
0.178727 -0.108156 0.388754
0.179123 -0.108038 0.388322
0.179566 -0.107921 0.387991
0.180075 -0.107804 0.387797
0.18069 -0.107688 0.387824
0.181385 -0.107572 0.388014
0.18207 -0.107456 0.38818
0.182738 -0.107339 0.388308
0.18334 -0.107222 0.388297
0.183834 -0.107104 0.388065
0.184247 -0.106986 0.387671
0.184611 -0.106869 0.387178
0.184945 -0.106752 0.386625
0.185265 -0.106635 0.386048
0.185614 -0.106518 0.385533
0.18598 -0.106401 0.385051
0.186377 -0.106285 0.384635
0.186762 -0.106168 0.384195
0.187159 -0.106052 0.383781
0.187536 -0.105936 0.38333
0.187869 -0.105821 0.382795
0.188126 -0.105706 0.382115
0.188388 -0.105592 0.381449
0.188692 -0.105477 0.380867
0.188977 -0.105363 0.38025
0.189311 -0.105249 0.37973
0.189714 -0.105134 0.379345
0.190135 -0.105019 0.378992
0.190514 -0.104905 0.378564
0.190938 -0.104791 0.378221
0.191357 -0.104676 0.37787
0.191775 -0.104562 0.377518
0.192208 -0.104447 0.377193
0.192659 -0.104332 0.376904
0.193113 -0.104217 0.376621
0.193537 -0.104103 0.376282
0.193924 -0.10399 0.375878
0.19429 -0.103877 0.375436
0.194656 -0.103764 0.374997
0.195012 -0.103652 0.374539
0.195397 -0.103539 0.374138
0.19578 -0.103426 0.373733
0.196161 -0.103314 0.373326
0.196573 -0.103201 0.372976
0.197037 -0.103086 0.372718
0.197538 -0.102971 0.372526
0.198057 -0.102856 0.372366
