ply
format ascii 1.0
element vertex 1663
property float x
property float y
property float z
end_header
-0.0133391 -0.22811 1.15992
-0.0130004 -0.226502 1.15855
-0.012661 -0.224954 1.15753
-0.0123231 -0.223408 1.15649
-0.0119866 -0.221854 1.15538
-0.0116495 -0.220344 1.15451
-0.0113099 -0.218894 1.154
-0.0109691 -0.217478 1.1537
-0.0106289 -0.216067 1.15342
-0.0102866 -0.214689 1.15335
-0.00994593 -0.213297 1.15317
-0.00960518 -0.21192 1.15308
-0.00926265 -0.210562 1.15312
-0.00891812 -0.209242 1.15341
-0.00857639 -0.207876 1.15338
-0.00823688 -0.206504 1.1533
-0.00789635 -0.205129 1.1532
-0.00755496 -0.203782 1.15328
-0.00721229 -0.202446 1.15344
-0.00686829 -0.201121 1.15368
-0.00652786 -0.199767 1.15371
-0.00619176 -0.198375 1.15343
-0.00585463 -0.197003 1.1533
-0.00551611 -0.195643 1.15325
-0.00516993 -0.194342 1.15366
-0.00481891 -0.193081 1.15438
-0.00445568 -0.19191 1.15585
-0.0040923 -0.190722 1.15722
-0.00372353 -0.189565 1.15886
-0.0033545 -0.1884 1.16048
-0.00298336 -0.187234 1.16213
-0.00261505 -0.186042 1.16359
-0.0022452 -0.18485 1.16508
-0.00187155 -0.183667 1.16668
-0.0015003 -0.182461 1.16812
-0.00113298 -0.181231 1.16938
-0.000766092 -0.179985 1.17051
-0.000400601 -0.178729 1.17157
-1.90161e-05 -0.177544 1.17334
0.000398918 -0.17652 1.17672
0.000829394 -0.175529 1.18053
0.00126023 -0.174519 1.18426
0.00168694 -0.173466 1.18765
0.00209066 -0.172299 1.18998
0.00245525 -0.170968 1.19063
0.00419449 -0.170046 1.19158
0.00281182 -0.1696 1.19091
0.00473302 -0.169313 1.19877
0.00315896 -0.168199 1.19083
-0.0174613 -0.240218 1.1675
-0.0171081 -0.238803 1.16744
-0.0167559 -0.237376 1.16731
-0.0164055 -0.235855 1.16663
-0.016057 -0.234304 1.16575
-0.0157088 -0.232713 1.16462
-0.0153642 -0.23108 1.16322
-0.0150205 -0.229453 1.16181
-0.0146767 -0.22786 1.16058
-0.014336 -0.226239 1.15915
-0.0139943 -0.224688 1.15811
-0.0136542 -0.223128 1.15698
-0.0133156 -0.22156 1.15579
-0.0129767 -0.220035 1.15483
-0.0126362 -0.21858 1.15429
-0.0122953 -0.217149 1.1539
-0.0119543 -0.215726 1.15354
-0.0116117 -0.214346 1.15345
-0.0112703 -0.212953 1.15327
-0.0109279 -0.211588 1.15327
-0.0105846 -0.210244 1.15341
-0.0102369 -0.208948 1.15387
-0.00989316 -0.207607 1.15402
-0.00955036 -0.206257 1.15411
-0.00920738 -0.204917 1.15426
-0.0088623 -0.203595 1.15454
-0.00851428 -0.202303 1.15505
-0.00816771 -0.201002 1.15549
-0.00782211 -0.199679 1.15577
-0.0074815 -0.198316 1.15574
-0.00713722 -0.196984 1.15595
-0.00679328 -0.195653 1.15616
-0.00644293 -0.194381 1.15683
-0.00608856 -0.193137 1.15775
-0.00572669 -0.191948 1.15912
-0.00536643 -0.19074 1.16036
-0.00500282 -0.189545 1.16175
-0.00463781 -0.188344 1.16311
-0.00427415 -0.187134 1.16442
-0.00391049 -0.185909 1.16563
-0.00354842 -0.184665 1.16671
-0.00318461 -0.18343 1.16788
-0.00282169 -0.182181 1.16896
-0.00245999 -0.180918 1.16992
-0.00210081 -0.179634 1.17071
-0.00174158 -0.17835 1.17152
-0.00136229 -0.177163 1.17328
-0.000955612 -0.176104 1.17633
-0.000536406 -0.175086 1.17988
-0.000113245 -0.174064 1.1835
0.00030764 -0.173008 1.18687
0.000704702 -0.171825 1.18904
0.00107231 -0.170511 1.18986
0.00142814 -0.169144 1.19013
0.00177313 -0.167735 1.18995
-0.0188188 -0.239709 1.16667
-0.0184666 -0.238284 1.16655
-0.0181141 -0.236866 1.16646
-0.0177622 -0.23536 1.16586
-0.0174106 -0.233841 1.16517
-0.0170608 -0.232282 1.16422
-0.0167124 -0.230697 1.16309
-0.016365 -0.229113 1.16194
-0.016019 -0.227536 1.1608
-0.0156748 -0.225928 1.15944
-0.015331 -0.224375 1.1584
-0.0149888 -0.222815 1.15727
-0.0146477 -0.221234 1.156
-0.0143074 -0.219697 1.15496
-0.0139656 -0.218228 1.15434
-0.0136242 -0.216783 1.15386
-0.0132824 -0.215357 1.15348
-0.0129394 -0.213979 1.15341
-0.0125962 -0.212599 1.15331
-0.012252 -0.211248 1.1534
-0.0119071 -0.209916 1.15362
-0.011561 -0.208622 1.15411
-0.0112165 -0.20728 1.15426
-0.0108722 -0.205943 1.15445
-0.010527 -0.204624 1.15476
-0.0101793 -0.203336 1.1553
-0.00982871 -0.202079 1.15607
-0.00947732 -0.200831 1.15692
-0.00912705 -0.199551 1.15754
-0.00878078 -0.19823 1.15786
-0.00843273 -0.196931 1.15835
-0.00808449 -0.195632 1.15885
-0.00773163 -0.194369 1.15963
-0.00737589 -0.193129 1.16061
-0.00701888 -0.1919 1.16171
-0.00666331 -0.190644 1.1626
-0.00630319 -0.189417 1.16375
-0.005945 -0.188171 1.16476
-0.00558843 -0.186909 1.16566
-0.00522845 -0.185662 1.1667
-0.00486982 -0.184395 1.16759
-0.00451376 -0.183112 1.16836
-0.00415535 -0.181835 1.16918
-0.00379766 -0.180551 1.16996
-0.00344481 -0.179238 1.1705
-0.0030885 -0.177935 1.17113
-0.00271222 -0.176747 1.17287
-0.00231538 -0.175662 1.17568
-0.00190608 -0.174617 1.17898
-0.0014921 -0.173574 1.18237
-0.0010777 -0.172514 1.18572
-0.000688117 -0.171316 1.18771
-0.000319392 -0.170013 1.18863
3.82324e-05 -0.168655 1.189
0.000387864 -0.167264 1.18898
-0.0201749 -0.239144 1.16553
-0.0198212 -0.237718 1.16539
-0.0194686 -0.236308 1.16534
-0.0191157 -0.23482 1.16483
-0.0187633 -0.23332 1.16423
-0.0184118 -0.231806 1.16354
-0.0180614 -0.230254 1.1626
-0.0177117 -0.228701 1.16163
-0.0173633 -0.22714 1.16058
-0.0170172 -0.225545 1.15931
-0.0166704 -0.223993 1.15826
-0.0163257 -0.222446 1.15722
-0.0159819 -0.220881 1.15604
-0.0156398 -0.219345 1.15501
-0.015296 -0.217875 1.15438
-0.0149535 -0.216417 1.15381
-0.0146104 -0.214991 1.15343
-0.0142665 -0.213614 1.15337
-0.0139224 -0.212248 1.15337
-0.0135776 -0.210911 1.15357
-0.0132327 -0.209588 1.15386
-0.0128854 -0.208293 1.15434
-0.0125405 -0.20696 1.15456
-0.0121958 -0.205623 1.15474
-0.0118499 -0.204306 1.15507
-0.0115023 -0.203017 1.15561
-0.0111517 -0.20178 1.15654
-0.0107988 -0.200553 1.15756
-0.0104464 -0.199319 1.15854
-0.0100958 -0.198044 1.15923
-0.00974354 -0.196789 1.16008
-0.00939093 -0.195521 1.16084
-0.00903834 -0.194255 1.16163
-0.0086843 -0.193 1.16253
-0.0083299 -0.191736 1.16337
-0.00797893 -0.190442 1.16397
-0.00762442 -0.189168 1.16475
-0.00726876 -0.187897 1.16557
-0.00691633 -0.186604 1.16622
-0.00655976 -0.185335 1.16708
-0.00620314 -0.184056 1.16787
-0.00585022 -0.182753 1.16847
-0.00549525 -0.181457 1.16913
-0.00513986 -0.180164 1.16983
-0.00478813 -0.178842 1.17028
-0.00443571 -0.17752 1.17073
-0.00406477 -0.176314 1.17231
-0.00367697 -0.175191 1.17475
-0.00327811 -0.17412 1.17777
-0.00287417 -0.173053 1.18094
-0.00246581 -0.171986 1.18419
-0.00207933 -0.17079 1.18619
-0.0017091 -0.169506 1.18731
-0.00134954 -0.16816 1.18777
-0.000998255 -0.166778 1.18785
0.000887595 -0.166482 1.1958
-0.00065807 -0.165351 1.1874
-0.0215265 -0.238553 1.16423
-0.0211722 -0.237098 1.16392
-0.0208194 -0.235693 1.16388
-0.020466 -0.234209 1.16338
-0.0201131 -0.232727 1.16288
-0.0197609 -0.231246 1.16237
-0.0194092 -0.229725 1.1616
-0.0190582 -0.228192 1.16074
-0.018708 -0.226661 1.15987
-0.0183586 -0.225082 1.15868
-0.0180109 -0.223531 1.15763
-0.0176636 -0.221998 1.15667
-0.0173179 -0.22045 1.15559
-0.0169732 -0.218929 1.15465
-0.0166282 -0.217475 1.15412
-0.0162838 -0.216015 1.15354
-0.0159402 -0.214589 1.15316
-0.0155956 -0.213213 1.1531
-0.0152508 -0.211851 1.15312
-0.0149056 -0.210515 1.15332
-0.0145602 -0.209192 1.15361
-0.0142141 -0.207893 1.15406
-0.0138694 -0.206559 1.15427
-0.0135241 -0.205221 1.15445
-0.0131788 -0.203913 1.15485
-0.0128306 -0.202634 1.15546
-0.0124799 -0.201407 1.15647
-0.0121281 -0.200193 1.15759
-0.0117747 -0.198982 1.15875
-0.0114222 -0.197744 1.15973
-0.0110674 -0.196532 1.16093
-0.0107143 -0.195284 1.16187
-0.0103605 -0.194033 1.1628
-0.0100059 -0.192784 1.16376
-0.0096543 -0.191488 1.16435
-0.00930519 -0.190162 1.16471
-0.00895409 -0.188867 1.16532
-0.00860151 -0.187573 1.16597
-0.00825139 -0.186252 1.16638
-0.00789738 -0.184962 1.16706
-0.00754464 -0.183662 1.16767
-0.00719372 -0.182347 1.16816
-0.00684061 -0.181042 1.16874
-0.00648548 -0.17975 1.16945
-0.00613329 -0.17843 1.16991
-0.00578237 -0.177107 1.17035
-0.00541318 -0.175897 1.17189
-0.00503514 -0.174737 1.17397
-0.00464555 -0.173635 1.17669
-0.0042513 -0.17254 1.17957
-0.00385116 -0.171454 1.18263
-0.00347047 -0.170246 1.18448
-0.00309629 -0.168991 1.18588
-0.00273654 -0.167656 1.18645
-0.00238208 -0.166293 1.18671
-0.00203848 -0.164882 1.18643
-0.000163405 -0.16457 1.19437
-0.00169317 -0.16348 1.18623
-0.0232299 -0.239396 1.16313
-0.0228743 -0.23795 1.16286
-0.0225196 -0.236465 1.16237
-0.0221655 -0.235033 1.16217
-0.0218117 -0.233553 1.16167
-0.0214583 -0.232075 1.16118
-0.0211055 -0.230625 1.16083
-0.0207528 -0.229124 1.16017
-0.0204013 -0.227624 1.15949
-0.0200499 -0.226122 1.15878
-0.0196984 -0.224572 1.15776
-0.0193493 -0.223038 1.15681
-0.0190001 -0.221522 1.15594
-0.0186525 -0.220001 1.15502
-0.018306 -0.218496 1.15418
-0.0179593 -0.217046 1.15367
-0.0176143 -0.215587 1.15309
-0.0172694 -0.214171 1.15277
-0.0169242 -0.212794 1.1527
-0.0165799 -0.211434 1.15274
-0.016235 -0.210098 1.15293
-0.0158895 -0.208775 1.15322
-0.0155433 -0.207462 1.15358
-0.0151984 -0.206128 1.15378
-0.0148539 -0.204791 1.15396
-0.0145079 -0.203486 1.15438
-0.0141611 -0.202195 1.1549
-0.0138119 -0.200966 1.15589
-0.0134618 -0.199751 1.157
-0.0131087 -0.198554 1.15827
-0.0127567 -0.197339 1.15942
-0.0124018 -0.19615 1.1608
-0.0120485 -0.19492 1.16189
-0.0116947 -0.193688 1.16298
-0.011341 -0.192439 1.16395
-0.0109897 -0.191145 1.16456
-0.0106406 -0.189818 1.16492
-0.0102896 -0.188522 1.16553
-0.00993796 -0.187219 1.1661
-0.00958887 -0.18589 1.16645
-0.00923746 -0.18458 1.16697
-0.00888646 -0.183266 1.16746
-0.00853719 -0.18193 1.16775
-0.00818571 -0.180616 1.16824
-0.00783113 -0.179326 1.16897
-0.00747897 -0.178016 1.16952
-0.00712759 -0.176695 1.16998
-0.00676131 -0.175482 1.17149
-0.00638977 -0.174295 1.1733
-0.00600864 -0.17316 1.17571
-0.00562237 -0.17204 1.17832
-0.0052309 -0.170937 1.18118
-0.00485398 -0.169723 1.18297
-0.00448065 -0.168477 1.18445
-0.00412008 -0.167155 1.18514
-0.00376329 -0.165809 1.18558
-0.00341484 -0.164415 1.18547
-0.00306627 -0.16303 1.18546
-0.00120629 -0.162689 1.19321
-0.00272019 -0.161636 1.18531
-0.0235851 -0.240844 1.16339
-0.0249348 -0.240352 1.16266
-0.0245763 -0.238837 1.16201
-0.0242189 -0.237346 1.16148
-0.0238609 -0.235807 1.16067
-0.0235062 -0.234342 1.16026
-0.0231504 -0.232851 1.15968
-0.0227967 -0.231376 1.15919
-0.0224442 -0.229944 1.15892
-0.0220909 -0.228462 1.15836
-0.0217389 -0.226981 1.15778
-0.0213871 -0.225512 1.15725
-0.0210353 -0.224005 1.15648
-0.0206844 -0.222489 1.15563
-0.0203342 -0.221003 1.15494
-0.0199858 -0.219521 1.15426
-0.0196381 -0.218046 1.1536
-0.0192906 -0.21661 1.15317
-0.0189444 -0.215166 1.15269
-0.0185983 -0.213761 1.15244
-0.0182532 -0.212371 1.15227
-0.0179073 -0.211009 1.1523
-0.0175629 -0.209662 1.15242
-0.0172178 -0.208339 1.1527
-0.0168726 -0.207016 1.15298
-0.016527 -0.205682 1.15318
-0.0161823 -0.204337 1.1533
-0.0158379 -0.203023 1.15365
-0.0154919 -0.201723 1.1541
-0.0151447 -0.200472 1.15491
-0.0147959 -0.199243 1.15592
-0.0144454 -0.198045 1.15716
-0.0140949 -0.19684 1.15839
-0.0137417 -0.195664 1.15987
-0.0133879 -0.194468 1.16121
-0.0130343 -0.193259 1.16248
-0.012681 -0.192023 1.16355
-0.012329 -0.190759 1.16442
-0.0119785 -0.189453 1.16495
-0.0116271 -0.188166 1.16566
-0.0112744 -0.186874 1.16631
-0.010925 -0.185552 1.16673
-0.010575 -0.184223 1.16709
-0.0102255 -0.182898 1.16748
-0.00987775 -0.18155 1.16767
-0.0095273 -0.180224 1.16807
-0.00917469 -0.178927 1.16873
-0.00882214 -0.177618 1.16929
-0.0084709 -0.176298 1.16976
-0.00810749 -0.175077 1.1712
-0.00773953 -0.17388 1.17292
-0.00736402 -0.172731 1.17517
-0.00698526 -0.171581 1.17749
-0.00660205 -0.17045 1.18006
-0.00623077 -0.169219 1.18164
-0.0058624 -0.167958 1.18295
-0.00550146 -0.166646 1.18373
-0.00514234 -0.165318 1.18436
-0.00478985 -0.163951 1.18453
-0.00443467 -0.162598 1.18488
-0.0040812 -0.161235 1.1851
-0.00236878 -0.160263 1.18542
-0.00372595 -0.159886 1.1855
-0.0266409 -0.241322 1.16227
-0.0262818 -0.239835 1.16178
-0.0259202 -0.23828 1.16091
-0.0255601 -0.236753 1.16016
-0.0251989 -0.235178 1.15913
-0.0248414 -0.233666 1.15843
-0.0244841 -0.23215 1.15769
-0.0241294 -0.230676 1.15718
-0.0237773 -0.229246 1.15692
-0.0234236 -0.227769 1.15636
-0.0230706 -0.226308 1.15588
-0.0227192 -0.224871 1.15553
-0.0223672 -0.223397 1.15494
-0.0220164 -0.221914 1.15428
-0.0216657 -0.220458 1.15377
-0.0213161 -0.219005 1.15326
-0.0209674 -0.217558 1.15277
-0.0206201 -0.216139 1.15245
-0.0202728 -0.21471 1.15205
-0.019926 -0.213305 1.15179
-0.0195807 -0.211916 1.15163
-0.0192347 -0.210554 1.15165
-0.0188898 -0.209207 1.15176
-0.0185448 -0.207885 1.15204
-0.0181999 -0.206562 1.15232
-0.0178549 -0.20524 1.15261
-0.0175104 -0.203907 1.15281
-0.0171649 -0.202595 1.15317
-0.0168201 -0.201285 1.15354
-0.0164739 -0.200018 1.15424
-0.0161277 -0.198755 1.15497
-0.0157792 -0.197532 1.15603
-0.0154311 -0.196308 1.1571
-0.0150801 -0.195135 1.15858
-0.0147285 -0.193952 1.16002
-0.0143751 -0.192777 1.16156
-0.0140222 -0.191566 1.16283
-0.0136698 -0.190344 1.16405
-0.0133182 -0.18907 1.16484
-0.0129659 -0.187794 1.16563
-0.0126145 -0.18651 1.16637
-0.0122638 -0.185196 1.16686
-0.0119148 -0.183858 1.16715
-0.0115659 -0.182524 1.16746
-0.0112185 -0.181166 1.16756
-0.0108691 -0.17983 1.16786
-0.0105173 -0.178522 1.16842
-0.0101656 -0.177214 1.16899
-0.009815 -0.175894 1.16946
-0.00945305 -0.174675 1.17093
-0.00908822 -0.17347 1.17257
-0.00871717 -0.172311 1.17473
-0.00834381 -0.171144 1.17687
-0.00796753 -0.169986 1.17917
-0.00760081 -0.168741 1.1806
-0.00723597 -0.16747 1.18179
-0.00687648 -0.166152 1.18249
-0.00651682 -0.164835 1.18321
-0.00616008 -0.163501 1.18376
-0.00580063 -0.162174 1.1844
-0.00544312 -0.160835 1.1849
-0.00508182 -0.159516 1.18565
-0.0270008 -0.242818 1.16278
-0.028344 -0.242231 1.16154
-0.0279835 -0.240757 1.16113
-0.0276236 -0.239265 1.16061
-0.0272584 -0.237683 1.15957
-0.0268948 -0.236109 1.15855
-0.026532 -0.234532 1.15748
-0.0261708 -0.232982 1.15655
-0.0258118 -0.231454 1.15572
-0.0254561 -0.22997 1.15513
-0.0251031 -0.228541 1.15485
-0.024749 -0.227069 1.1543
-0.0243975 -0.225638 1.15399
-0.0240463 -0.224219 1.15373
-0.0236946 -0.222778 1.15333
-0.0233436 -0.221327 1.15285
-0.0229942 -0.219914 1.1526
-0.0226445 -0.21848 1.15219
-0.0222959 -0.217061 1.15188
-0.0219475 -0.215656 1.15164
-0.0215996 -0.214242 1.15133
-0.0212524 -0.212841 1.1511
-0.0209067 -0.211464 1.15101
-0.0205612 -0.210104 1.15103
-0.0202154 -0.208759 1.15115
-0.0198706 -0.207437 1.15143
-0.0195258 -0.206115 1.15171
-0.019181 -0.204793 1.15199
-0.0188362 -0.203472 1.15227
-0.0184918 -0.20216 1.15263
-0.0181467 -0.200849 1.15299
-0.0178021 -0.19956 1.15352
-0.0174567 -0.198271 1.15406
-0.01711 -0.197024 1.15492
-0.0167637 -0.195789 1.1559
-0.0164153 -0.194598 1.15723
-0.0160662 -0.193428 1.15876
-0.0157146 -0.192284 1.16055
-0.0153623 -0.191107 1.16208
-0.0150096 -0.18992 1.16359
-0.0146572 -0.188707 1.16489
-0.0143047 -0.187462 1.16596
-0.0139531 -0.186177 1.1667
-0.0136025 -0.184861 1.16718
-0.0132535 -0.183521 1.16745
-0.0129059 -0.182161 1.16755
-0.0125592 -0.180786 1.16749
-0.0122104 -0.179447 1.16776
-0.01186 -0.178128 1.16822
-0.0115088 -0.17681 1.1687
-0.0111587 -0.17549 1.16917
-0.0107962 -0.174303 1.17095
-0.0104332 -0.173098 1.17261
-0.0100647 -0.171939 1.17478
-0.00969608 -0.170754 1.17674
-0.00932467 -0.169575 1.17884
-0.0089647 -0.16829 1.17984
-0.00860331 -0.167002 1.18083
-0.00824627 -0.165675 1.18142
-0.00788498 -0.164381 1.1824
-0.00752429 -0.163073 1.18324
-0.00716178 -0.161772 1.18418
-0.00680186 -0.160457 1.18496
-0.00643696 -0.159158 1.18597
-0.00459343 -0.158837 1.19439
-0.00607241 -0.157855 1.18697
-0.0296743 -0.24153 1.15966
-0.0293166 -0.24009 1.15942
-0.0289572 -0.238626 1.15905
-0.0285897 -0.237032 1.15792
-0.0282221 -0.235426 1.1567
-0.0278587 -0.233866 1.15572
-0.0274952 -0.232306 1.1547
-0.0271352 -0.230767 1.15379
-0.0267778 -0.229285 1.15319
-0.0264252 -0.227859 1.15292
-0.0260707 -0.226403 1.15244
-0.0257199 -0.224989 1.15222
-0.0253691 -0.223589 1.15206
-0.0250192 -0.222189 1.1519
-0.0246683 -0.220767 1.15159
-0.0243195 -0.219373 1.15144
-0.0239701 -0.217969 1.15122
-0.023622 -0.216577 1.15107
-0.0232731 -0.215175 1.15084
-0.0229256 -0.213785 1.15068
-0.0225784 -0.212409 1.15061
-0.0222318 -0.211037 1.15055
-0.0218864 -0.20969 1.15066
-0.0215407 -0.208345 1.15078
-0.0211956 -0.207012 1.15098
-0.0208509 -0.20568 1.15119
-0.0205061 -0.204358 1.15146
-0.0201614 -0.203037 1.15174
-0.0198173 -0.201726 1.1521
-0.0194725 -0.200416 1.15247
-0.0191279 -0.199116 1.15291
-0.018783 -0.197815 1.15335
-0.0184379 -0.196556 1.15411
-0.0180929 -0.195311 1.155
-0.0177466 -0.194098 1.15617
-0.0173997 -0.192915 1.15759
-0.0170511 -0.19178 1.15943
-0.0167017 -0.190615 1.16107
-0.0163503 -0.189464 1.16286
-0.0159978 -0.188315 1.16471
-0.0156454 -0.187113 1.16614
-0.0152941 -0.185838 1.16698
-0.0149439 -0.184527 1.16751
-0.0145939 -0.183184 1.16776
-0.0142468 -0.181805 1.16769
-0.0138998 -0.180413 1.16748
-0.0135515 -0.179072 1.16774
-0.0132018 -0.17774 1.16809
-0.0128516 -0.176414 1.16848
-0.012502 -0.175087 1.16887
-0.012142 -0.17389 1.17058
-0.0117818 -0.172685 1.17223
-0.011417 -0.171516 1.17431
-0.0110523 -0.170322 1.17618
-0.0106856 -0.169128 1.17812
-0.0103265 -0.16784 1.17908
-0.00996915 -0.166537 1.1799
-0.00961252 -0.16521 1.18048
-0.00925062 -0.163933 1.18163
-0.00888789 -0.162649 1.18274
-0.00852461 -0.161366 1.18389
-0.0081615 -0.160072 1.18495
-0.00779453 -0.158793 1.18621
-0.0074303 -0.157498 1.18732
-0.0309919 -0.24073 1.15723
-0.0306371 -0.239334 1.15722
-0.0302786 -0.237883 1.15689
-0.0299112 -0.236316 1.1559
-0.0295436 -0.234731 1.15478
-0.0291794 -0.233189 1.15388
-0.0288148 -0.231629 1.15285
-0.0284543 -0.230108 1.15202
-0.0280978 -0.228643 1.15151
-0.0277452 -0.227236 1.15133
-0.0273919 -0.225797 1.15094
-0.0270397 -0.224387 1.15072
-0.0266895 -0.222989 1.15056
-0.0263399 -0.221605 1.15049
-0.0259899 -0.2202 1.15027
-0.0256412 -0.218835 1.15029
-0.0252932 -0.217458 1.15024
-0.0249452 -0.216081 1.15018
-0.0245975 -0.214702 1.15009
-0.0242505 -0.213339 1.15011
-0.0239039 -0.211978 1.15013
-0.0235565 -0.21061 1.15009
-0.0232118 -0.209274 1.15028
-0.0228655 -0.207917 1.15031
-0.0225197 -0.206573 1.15043
-0.0221749 -0.205229 1.15055
-0.0218298 -0.203907 1.15082
-0.0214856 -0.202597 1.15117
-0.021142 -0.201299 1.15163
-0.0207978 -0.200003 1.15209
-0.0204538 -0.198704 1.15254
-0.0201089 -0.197403 1.15298
-0.0197647 -0.196133 1.15366
-0.0194209 -0.194877 1.15446
-0.0190762 -0.193643 1.15545
-0.0187311 -0.192437 1.15668
-0.0183845 -0.191287 1.1584
-0.0180375 -0.190131 1.1601
-0.017689 -0.188995 1.16202
-0.0173387 -0.187883 1.16418
-0.0169879 -0.186722 1.16597
-0.0166366 -0.18547 1.167
-0.0162866 -0.184157 1.16753
-0.0159375 -0.182809 1.16774
-0.0155896 -0.181419 1.16757
-0.0152424 -0.180017 1.16726
-0.0148944 -0.178667 1.16744
-0.014545 -0.177335 1.16778
-0.0141948 -0.176008 1.16817
-0.0138451 -0.174682 1.16857
-0.0134886 -0.173469 1.17011
-0.0131309 -0.172254 1.17166
-0.01277 -0.171066 1.17356
-0.0124095 -0.169856 1.17525
-0.0120474 -0.168648 1.17702
-0.0116906 -0.167353 1.17792
-0.0113335 -0.166051 1.17873
-0.0109777 -0.164732 1.17939
-0.0106159 -0.163473 1.18073
-0.0102525 -0.162213 1.18211
-0.00988747 -0.160953 1.18354
-0.00952329 -0.159674 1.18477
-0.00915714 -0.158407 1.18619
-0.00879147 -0.157125 1.18747
-0.0326531 -0.241295 1.15465
-0.032298 -0.239888 1.15456
-0.0319461 -0.238523 1.1547
-0.031589 -0.237094 1.15447
-0.0312237 -0.235566 1.15367
-0.0308585 -0.234029 1.15281
-0.0304946 -0.232507 1.152
-0.0301283 -0.230952 1.15098
-0.0297684 -0.229462 1.15032
-0.0294145 -0.228031 1.14999
-0.0290621 -0.226631 1.14984
-0.02871 -0.225222 1.14962
-0.0283599 -0.223838 1.14955
-0.0280092 -0.222443 1.1494
-0.0276598 -0.221062 1.14933
-0.0273102 -0.219683 1.14927
-0.0269632 -0.218334 1.14938
-0.0266145 -0.216947 1.14926
-0.0262653 -0.215572 1.14919
-0.0259174 -0.214195 1.14912
-0.025571 -0.212835 1.14914
-0.025224 -0.21148 1.14919
-0.024878 -0.210136 1.14931
-0.0245334 -0.208812 1.14957
-0.0241875 -0.207464 1.14966
-0.0238417 -0.206119 1.14977
-0.0234969 -0.204774 1.14987
-0.0231523 -0.203453 1.15014
-0.022809 -0.202154 1.15058
-0.0224659 -0.20087 1.15113
-0.0221225 -0.199588 1.1517
-0.0217789 -0.198303 1.15224
-0.0214349 -0.197013 1.15277
-0.0210916 -0.195742 1.15345
-0.0207474 -0.194476 1.15417
-0.0204036 -0.193222 1.155
-0.0200597 -0.191982 1.15596
-0.019716 -0.190808 1.15748
-0.0193714 -0.18963 1.159
-0.0190253 -0.188495 1.16091
-0.0186783 -0.187395 1.16317
-0.0183304 -0.186258 1.16517
-0.0179806 -0.185018 1.1663
-0.0176313 -0.183714 1.1669
-0.0172825 -0.182367 1.16711
-0.0169339 -0.180976 1.16692
-0.0165862 -0.179574 1.16661
-0.0162371 -0.178233 1.16686
-0.0158871 -0.176919 1.16737
-0.0155373 -0.175611 1.16794
-0.0151873 -0.174303 1.16852
-0.0148326 -0.173089 1.17005
-0.0144776 -0.171861 1.1715
-0.0141205 -0.170645 1.17309
-0.013764 -0.16941 1.17453
-0.0134057 -0.168177 1.17604
-0.0130504 -0.166877 1.17686
-0.0126949 -0.165575 1.17767
-0.0123389 -0.164268 1.17843
-0.0119773 -0.163025 1.17996
-0.0116137 -0.161788 1.18162
-0.0112496 -0.160546 1.18324
-0.0108853 -0.159286 1.18472
-0.0105181 -0.158033 1.18632
-0.0101525 -0.156763 1.18777
-0.00832893 -0.156483 1.19705
-0.00978113 -0.155523 1.18965
-0.0339538 -0.240473 1.1521
-0.0335993 -0.239077 1.15205
-0.0332479 -0.237718 1.15219
-0.0328917 -0.236293 1.15197
-0.0325292 -0.234814 1.15143
-0.0321668 -0.233326 1.15082
-0.031804 -0.231826 1.15012
-0.0314395 -0.230302 1.14927
-0.0310817 -0.228844 1.14878
-0.0307285 -0.227434 1.14856
-0.0303776 -0.226055 1.14852
-0.0300267 -0.224664 1.1484
-0.0296773 -0.223294 1.1484
-0.0293268 -0.221911 1.14831
-0.028978 -0.220545 1.14833
-0.0286303 -0.219184 1.14837
-0.0282843 -0.217848 1.14857
-0.0279331 -0.216451 1.14837
-0.0275848 -0.215074 1.14828
-0.0272372 -0.21371 1.14828
-0.0268889 -0.212341 1.14824
-0.0265438 -0.211001 1.14838
-0.0261989 -0.209681 1.14866
-0.0258547 -0.208357 1.14892
-0.0255083 -0.206999 1.14894
-0.0251625 -0.205665 1.14911
-0.0248175 -0.204322 1.14922
-0.0244727 -0.203002 1.14949
-0.0241305 -0.201715 1.15001
-0.0237889 -0.200444 1.15065
-0.0234467 -0.199175 1.15131
-0.0231044 -0.197901 1.15195
-0.0227608 -0.196622 1.15255
-0.0224184 -0.195351 1.15324
-0.0220751 -0.194085 1.15396
-0.0217318 -0.192821 1.15471
-0.0213878 -0.191552 1.15543
-0.0210457 -0.190354 1.15676
-0.0207027 -0.189161 1.15815
-0.0203597 -0.188014 1.15996
-0.0200163 -0.186913 1.16221
-0.0196715 -0.185793 1.16435
-0.0193236 -0.184562 1.16556
-0.0189747 -0.183272 1.16627
-0.0186257 -0.181936 1.16657
-0.0182766 -0.180556 1.16648
-0.0179276 -0.179172 1.16634
-0.0175785 -0.177841 1.16668
-0.0172296 -0.176539 1.1673
-0.0168795 -0.17524 1.16797
-0.0165295 -0.173942 1.16866
-0.0161769 -0.172704 1.16996
-0.0158248 -0.171457 1.17121
-0.015471 -0.170212 1.1725
-0.0151164 -0.168956 1.17372
-0.0147616 -0.167693 1.1749
-0.0144087 -0.166386 1.17562
-0.0140539 -0.165084 1.17642
-0.0136994 -0.163792 1.17734
-0.0133386 -0.162567 1.17907
-0.0129747 -0.161357 1.18103
-0.0126105 -0.160143 1.183
-0.0122459 -0.158912 1.18484
-0.0118801 -0.157665 1.18654
-0.0115158 -0.156395 1.188
-0.0111451 -0.155167 1.19005
-0.00932639 -0.154879 1.19948
-0.0107728 -0.153938 1.19216
-0.0352353 -0.239555 1.14901
-0.0348923 -0.238263 1.14951
-0.0345467 -0.236949 1.14989
-0.0341868 -0.235503 1.14952
-0.0338279 -0.234054 1.14913
-0.0334693 -0.232617 1.14879
-0.0331077 -0.231137 1.14819
-0.0327461 -0.229664 1.14761
-0.0323919 -0.228249 1.14736
-0.0320413 -0.226869 1.14731
-0.031691 -0.225495 1.14729
-0.0313401 -0.224119 1.14725
-0.0309923 -0.222762 1.14732
-0.0306432 -0.221396 1.14733
-0.0302962 -0.220047 1.14745
-0.0299482 -0.21869 1.14751
-0.029601 -0.217343 1.14762
-0.0292472 -0.21592 1.14724
-0.0288972 -0.214529 1.14706
-0.028549 -0.213154 1.14697
-0.0282016 -0.2118 1.14701
-0.0278569 -0.210473 1.14724
-0.0275137 -0.209166 1.1476
-0.0271702 -0.207856 1.14793
-0.0268244 -0.206514 1.14805
-0.0264805 -0.205195 1.14833
-0.0261364 -0.203865 1.14853
-0.0257928 -0.202556 1.14888
-0.0254514 -0.201282 1.14948
-0.0251111 -0.200021 1.1502
-0.0247702 -0.198764 1.15095
-0.0244292 -0.197501 1.15166
-0.0240868 -0.196231 1.15234
-0.0237444 -0.194961 1.15303
-0.0234029 -0.193694 1.15375
-0.0230595 -0.19243 1.1545
-0.0227157 -0.191141 1.15506
-0.0223745 -0.189912 1.15614
-0.0220324 -0.188687 1.15726
-0.0216909 -0.187518 1.15888
-0.0213499 -0.186386 1.16085
-0.0210082 -0.185267 1.16299
-0.0206627 -0.184052 1.16433
-0.0203158 -0.18279 1.16528
-0.0199672 -0.181478 1.1658
-0.0196185 -0.180131 1.16599
-0.019269 -0.178777 1.16612
-0.0189201 -0.177456 1.16656
-0.0185713 -0.176163 1.16728
-0.0182226 -0.174874 1.16805
-0.0178725 -0.173578 1.16875
-0.0175221 -0.172315 1.16982
-0.0171716 -0.171049 1.17087
-0.01682 -0.169767 1.1718
-0.0164685 -0.168485 1.17273
-0.0161158 -0.167198 1.17363
-0.015764 -0.165883 1.17425
-0.0154108 -0.164582 1.17503
-0.015056 -0.163312 1.1762
-0.0146979 -0.162105 1.17812
-0.0143355 -0.160926 1.18045
-0.0139721 -0.159741 1.18279
-0.0136071 -0.158539 1.18499
-0.013243 -0.157307 1.18688
-0.0128792 -0.156045 1.18846
-0.0125111 -0.154814 1.19049
-0.0121417 -0.153581 1.19259
-0.0103954 -0.152729 1.19464
-0.0117685 -0.152356 1.19487
-0.00994367 -0.152062 1.20474
-0.0113935 -0.151137 1.19731
-0.036519 -0.23874 1.14648
-0.0361816 -0.237485 1.14716
-0.0358389 -0.236189 1.14762
-0.0354798 -0.234749 1.14727
-0.0351204 -0.233305 1.14688
-0.0347637 -0.231887 1.14663
-0.0344034 -0.230429 1.14614
-0.0340453 -0.228991 1.14575
-0.0336955 -0.227622 1.14575
-0.0333484 -0.226285 1.14594
-0.033001 -0.224937 1.14607
-0.0326516 -0.223574 1.1461
-0.0323064 -0.222245 1.14633
-0.0319596 -0.220907 1.14651
-0.0316138 -0.219577 1.14674
-0.031266 -0.218224 1.14681
-0.0309189 -0.216874 1.14691
-0.0305621 -0.215423 1.14634
-0.0302084 -0.214006 1.14597
-0.0298584 -0.21262 1.1458
-0.0295114 -0.211269 1.14585
-0.0291679 -0.209946 1.14609
-0.0288267 -0.208661 1.14659
-0.0284851 -0.207366 1.14703
-0.0281413 -0.20605 1.14732
-0.0278002 -0.204757 1.14778
-0.0274569 -0.203453 1.14815
-0.0271148 -0.202156 1.14859
-0.0267747 -0.200892 1.14927
-0.0264353 -0.199631 1.14999
-0.0260953 -0.198373 1.15073
-0.0257543 -0.19711 1.15145
-0.0254128 -0.195841 1.15213
-0.0250713 -0.19457 1.15281
-0.0247295 -0.193294 1.15346
-0.0243866 -0.192019 1.15413
-0.0240432 -0.190718 1.1546
-0.0237009 -0.18946 1.15543
-0.0233594 -0.188213 1.15636
-0.0230196 -0.187024 1.15781
-0.0226804 -0.185865 1.15954
-0.0223412 -0.184726 1.1615
-0.0219987 -0.183529 1.16298
-0.0216535 -0.18229 1.16412
-0.0213071 -0.18101 1.16492
-0.0209592 -0.179696 1.16541
-0.0206104 -0.178379 1.16588
-0.0202622 -0.177068 1.16641
-0.0199147 -0.175782 1.16721
-0.0195655 -0.174501 1.16805
-0.0192166 -0.173211 1.16883
-0.0188678 -0.17193 1.16972
-0.0185177 -0.170637 1.17051
-0.018167 -0.169329 1.17114
-0.017817 -0.168022 1.17181
-0.0174659 -0.16672 1.17254
-0.0171156 -0.165392 1.173
-0.0167632 -0.164104 1.17391
-0.0164096 -0.162849 1.17524
-0.0160536 -0.161659 1.17736
-0.0156939 -0.160505 1.17999
-0.0153319 -0.159358 1.18278
-0.0149698 -0.158177 1.18526
-0.0146063 -0.156959 1.18735
-0.0142441 -0.155703 1.18903
-0.0138789 -0.154463 1.19097
-0.0135127 -0.15322 1.19296
-0.0131446 -0.151972 1.19495
-0.0127738 -0.150737 1.19719
-0.0381498 -0.239313 1.14401
-0.0378009 -0.237962 1.14414
-0.0374601 -0.236671 1.1446
-0.0371169 -0.235367 1.14499
-0.0367589 -0.233943 1.14471
-0.0363999 -0.232506 1.14433
-0.0360467 -0.231116 1.14423
-0.0356894 -0.229692 1.1439
-0.0353358 -0.2283 1.14376
-0.0349913 -0.226978 1.14403
-0.0346503 -0.225685 1.14448
-0.0343064 -0.224367 1.14477
-0.0339617 -0.223044 1.14503
-0.0336203 -0.221754 1.1455
-0.0332776 -0.220447 1.14586
-0.0329354 -0.219147 1.14628
-0.0325872 -0.217795 1.14635
-0.0322382 -0.216429 1.14634
-0.0318752 -0.214937 1.14549
-0.0315188 -0.213494 1.14495
-0.0311651 -0.212087 1.14463
-0.0308181 -0.210729 1.14462
-0.0304727 -0.209396 1.14478
-0.0301351 -0.208136 1.14544
-0.029795 -0.206854 1.14596
-0.0294544 -0.205565 1.14643
-0.0291167 -0.20431 1.14716
-0.0287777 -0.20304 1.14778
-0.028437 -0.201756 1.14831
-0.028098 -0.200502 1.14906
-0.0277586 -0.199242 1.14978
-0.0274195 -0.197983 1.15052
-0.0270794 -0.19672 1.15124
-0.0267388 -0.19545 1.15192
-0.0263981 -0.194179 1.1526
-0.0260562 -0.192902 1.15325
-0.0257145 -0.191626 1.1539
-0.0253706 -0.190315 1.15429
-0.0250283 -0.189044 1.15501
-0.0246861 -0.187777 1.15578
-0.0243476 -0.186567 1.15704
-0.0240096 -0.185379 1.15853
-0.0236719 -0.184213 1.16024
-0.0233312 -0.183009 1.16165
-0.0229882 -0.18179 1.16296
-0.0226447 -0.180534 1.16396
-0.0222978 -0.179251 1.16473
-0.0219521 -0.17797 1.16554
-0.0216049 -0.176683 1.1663
-0.0212571 -0.175397 1.1671
-0.0209094 -0.174115 1.16793
-0.0205616 -0.172822 1.1687
-0.0202131 -0.171531 1.16948
-0.0198633 -0.17022 1.17007
-0.0195139 -0.168902 1.17061
-0.0191643 -0.167587 1.17118
-0.0188137 -0.166278 1.17184
-0.0184642 -0.164959 1.17238
-0.0181131 -0.16368 1.1734
-0.0177616 -0.162434 1.17483
-0.0174072 -0.161252 1.17705
-0.0170519 -0.160107 1.17978
-0.0166937 -0.158967 1.18268
-0.0163333 -0.157799 1.18535
-0.0159726 -0.156595 1.18764
-0.0156115 -0.155352 1.18949
-0.0152487 -0.15411 1.19144
-0.0148854 -0.152864 1.1934
-0.0145198 -0.151607 1.19529
-0.0141531 -0.150357 1.19735
-0.0123485 -0.150029 1.20711
-0.0137826 -0.14912 1.19968
-0.0384872 -0.240574 1.14339
-0.0401161 -0.241201 1.14125
-0.0397762 -0.239911 1.1417
-0.0394293 -0.238573 1.14188
-0.0390763 -0.237192 1.14183
-0.0387278 -0.235843 1.14195
-0.0383833 -0.234523 1.14223
-0.038028 -0.233117 1.14202
-0.0376718 -0.231712 1.14181
-0.0373211 -0.230339 1.14177
-0.0369673 -0.228945 1.1416
-0.0366174 -0.227585 1.14163
-0.0362771 -0.226287 1.14203
-0.035941 -0.225029 1.14266
-0.0356021 -0.223755 1.14321
-0.0352622 -0.222463 1.14365
-0.0349254 -0.221206 1.14431
-0.0345899 -0.219953 1.145
-0.0342527 -0.218694 1.14566
-0.033906 -0.217355 1.14582
-0.0335551 -0.215977 1.14573
-0.0331898 -0.21448 1.14485
-0.0328291 -0.213013 1.14413
-0.0324737 -0.211594 1.14372
-0.0321254 -0.210227 1.14365
-0.0317812 -0.208906 1.14388
-0.0314433 -0.207635 1.14446
-0.0311049 -0.206365 1.14505
-0.0307661 -0.205091 1.14562
-0.0304322 -0.203862 1.14652
-0.0300964 -0.202617 1.14732
-0.0297579 -0.201356 1.14801
-0.0294214 -0.200112 1.14885
-0.0290828 -0.198851 1.14957
-0.0287446 -0.197593 1.15031
-0.0284053 -0.196329 1.15103
-0.0280647 -0.19506 1.15171
-0.027725 -0.193788 1.15239
-0.0273834 -0.192511 1.15303
-0.0270426 -0.191234 1.15369
-0.0266968 -0.189912 1.15398
-0.0263553 -0.188631 1.15462
-0.0260141 -0.187362 1.15537
-0.0256756 -0.186131 1.15645
-0.0253379 -0.184924 1.15777
-0.0250014 -0.183745 1.15936
-0.0246621 -0.182531 1.16069
-0.0243225 -0.181313 1.162
-0.0239803 -0.180079 1.16319
-0.023636 -0.178816 1.16414
-0.0232919 -0.177553 1.16512
-0.0229461 -0.176274 1.16596
-0.022599 -0.174981 1.16668
-0.0222526 -0.17369 1.16744
-0.0219047 -0.17239 1.16811
-0.021556 -0.171083 1.16874
-0.0212075 -0.169763 1.16923
-0.0208578 -0.168437 1.16967
-0.0205091 -0.167123 1.17024
-0.02016 -0.165817 1.17091
-0.0198101 -0.164507 1.17156
-0.019461 -0.163239 1.1727
-0.0191115 -0.162009 1.1743
-0.0187612 -0.160834 1.17662
-0.0184087 -0.159694 1.17941
-0.0180551 -0.158566 1.18247
-0.0176989 -0.157411 1.1853
-0.0173409 -0.156214 1.18769
-0.0169821 -0.154982 1.18973
-0.0166218 -0.15374 1.19169
-0.01626 -0.152486 1.19356
-0.0158983 -0.151221 1.19536
-0.0155339 -0.149958 1.19724
-0.0151676 -0.148702 1.1993
-0.0410718 -0.239326 1.14042
-0.0407161 -0.237926 1.14026
-0.040358 -0.236509 1.14
-0.0399975 -0.235082 1.13966
-0.039647 -0.233713 1.13965
-0.0392911 -0.232314 1.13945
-0.0389366 -0.230917 1.13926
-0.0385843 -0.229539 1.13917
-0.0382326 -0.228162 1.13908
-0.0378856 -0.226819 1.13919
-0.0375483 -0.22554 1.13967
-0.0372194 -0.224329 1.14057
-0.0368888 -0.223103 1.14139
-0.036555 -0.221856 1.1421
-0.0362256 -0.220642 1.14301
-0.0358957 -0.219432 1.14396
-0.0355636 -0.218201 1.1448
-0.0352185 -0.216879 1.14506
-0.0348687 -0.215513 1.14504
-0.0345038 -0.21403 1.14423
-0.0341417 -0.212563 1.14352
-0.0337837 -0.211134 1.14303
-0.0334367 -0.209786 1.14308
-0.0330936 -0.208465 1.14331
-0.0327542 -0.207183 1.14381
-0.0324184 -0.205924 1.14447
-0.032083 -0.204672 1.1452
-0.0317499 -0.203445 1.14611
-0.0314158 -0.202215 1.14702
-0.0310798 -0.200965 1.1478
-0.0307447 -0.199722 1.14864
-0.030407 -0.198461 1.14936
-0.0300688 -0.197203 1.1501
-0.0297304 -0.195939 1.15082
-0.0293907 -0.194669 1.1515
-0.0290509 -0.193397 1.15218
-0.0287108 -0.19212 1.15282
-0.0283699 -0.190843 1.15348
-0.0280261 -0.189532 1.15387
-0.0276839 -0.188242 1.15443
-0.0273422 -0.186963 1.1551
-0.0270034 -0.185712 1.15601
-0.0266653 -0.184483 1.15713
-0.026329 -0.183273 1.15845
-0.0259907 -0.182047 1.15966
-0.025652 -0.180819 1.16087
-0.025312 -0.179594 1.16215
-0.0249706 -0.178342 1.16319
-0.0246284 -0.177091 1.16427
-0.0242841 -0.175823 1.16521
-0.0239389 -0.174538 1.166
-0.0235926 -0.173248 1.16676
-0.0232461 -0.171948 1.16743
-0.0228985 -0.170642 1.16806
-0.02255 -0.169324 1.16857
-0.0222008 -0.167992 1.16893
-0.0218519 -0.166677 1.16949
-0.0215038 -0.165379 1.17025
-0.0211562 -0.164087 1.17108
-0.0208089 -0.162835 1.1724
-0.0204624 -0.161621 1.17419
-0.0201152 -0.160444 1.17649
-0.0197662 -0.159299 1.17926
-0.0194164 -0.15816 1.1822
-0.0190644 -0.156991 1.18487
-0.0187096 -0.155794 1.18726
-0.0183536 -0.154571 1.18941
-0.0179958 -0.153329 1.19138
-0.0176368 -0.152075 1.19327
-0.0172775 -0.150816 1.19514
-0.0169155 -0.149551 1.19702
-0.0165528 -0.148289 1.199
-0.0147707 -0.147925 1.20862
-0.0161883 -0.147022 1.20101
-0.0427171 -0.24011 1.13915
-0.0423601 -0.238713 1.139
-0.0419949 -0.237258 1.13851
-0.0416258 -0.235777 1.13788
-0.0412541 -0.234279 1.13713
-0.0408949 -0.232861 1.13682
-0.0405389 -0.231457 1.13656
-0.040185 -0.230066 1.13638
-0.039836 -0.22871 1.13639
-0.0394883 -0.227363 1.13646
-0.0391468 -0.226051 1.13672
-0.0388133 -0.2248 1.13735
-0.0384904 -0.223617 1.1384
-0.0381653 -0.22242 1.13938
-0.0378388 -0.221218 1.14035
-0.0375188 -0.220059 1.14159
-0.0371985 -0.218903 1.14288
-0.0368729 -0.217715 1.14397
-0.0365362 -0.216445 1.14457
-0.0361895 -0.215107 1.14472
-0.0358261 -0.213652 1.1441
-0.0354623 -0.212186 1.14339
-0.0351059 -0.21077 1.14299
-0.0347566 -0.20941 1.14296
-0.0344131 -0.208088 1.14318
-0.0340726 -0.206794 1.1436
-0.0337374 -0.205535 1.14426
-0.0334036 -0.204292 1.14505
-0.0330727 -0.203077 1.14606
-0.0327418 -0.201858 1.14705
-0.0324076 -0.200619 1.14791
-0.0320731 -0.199375 1.14875
-0.031735 -0.198103 1.14939
-0.0313964 -0.196833 1.15005
-0.031058 -0.195568 1.15076
-0.0307194 -0.194298 1.15145
-0.0303801 -0.193028 1.15214
-0.0300407 -0.19175 1.15278
-0.0297 -0.190473 1.15344
-0.0293562 -0.189163 1.15383
-0.0290138 -0.187865 1.15434
-0.0286735 -0.186586 1.15501
-0.0283339 -0.185324 1.15583
-0.0279956 -0.184073 1.15677
-0.0276576 -0.182833 1.15782
-0.0273192 -0.181586 1.15883
-0.0269799 -0.180339 1.15987
-0.0266422 -0.179113 1.16112
-0.0263017 -0.177864 1.16219
-0.025961 -0.176614 1.16327
-0.0256194 -0.175356 1.1643
-0.0252747 -0.174072 1.16509
-0.0249296 -0.172774 1.16576
-0.0245844 -0.171483 1.16652
-0.0242379 -0.170187 1.16723
-0.0238907 -0.168872 1.16776
-0.0235421 -0.167549 1.16821
-0.0231951 -0.166249 1.16893
-0.022849 -0.164966 1.16984
-0.0225026 -0.163696 1.17093
-0.0221584 -0.16246 1.17244
-0.021814 -0.161252 1.17432
-0.0214688 -0.160065 1.17652
-0.0211238 -0.158897 1.17902
-0.0207772 -0.157741 1.18177
-0.0204284 -0.156559 1.18427
-0.0200771 -0.155354 1.18657
-0.0197241 -0.154137 1.1888
-0.0193702 -0.152907 1.19094
-0.0190139 -0.151655 1.19285
-0.018656 -0.150401 1.19481
-0.0182972 -0.149142 1.19677
-0.0179372 -0.147885 1.19884
-0.0175747 -0.146625 1.20096
-0.0158225 -0.145752 1.20303
-0.0172114 -0.145367 1.20318
-0.0154309 -0.14493 1.21223
-0.016847 -0.144096 1.20531
-0.0430731 -0.241504 1.13928
-0.0443443 -0.240809 1.13742
-0.0439899 -0.239427 1.13735
-0.0436311 -0.238021 1.13713
-0.0432561 -0.236514 1.13635
-0.0428829 -0.235018 1.1356
-0.0425035 -0.233481 1.13461
-0.0421377 -0.232026 1.13406
-0.0417833 -0.230636 1.13387
-0.0414318 -0.229262 1.13377
-0.0410872 -0.227938 1.13394
-0.0407433 -0.226612 1.1341
-0.0404085 -0.225343 1.1346
-0.0400796 -0.224107 1.1353
-0.0397623 -0.222951 1.1365
-0.0394406 -0.221768 1.13755
-0.0391218 -0.220606 1.13874
-0.038806 -0.219464 1.14009
-0.0384957 -0.218361 1.1417
-0.0381768 -0.217204 1.14299
-0.0378484 -0.215987 1.14391
-0.0375084 -0.21469 1.14433
-0.0371531 -0.213297 1.14412
-0.036788 -0.211839 1.14346
-0.0364326 -0.210436 1.14314
-0.0360824 -0.209075 1.14311
-0.0357378 -0.207751 1.14332
-0.0353964 -0.206447 1.14367
-0.0350615 -0.205188 1.14434
-0.0347305 -0.203955 1.14521
-0.0344004 -0.202739 1.14621
-0.0340708 -0.201517 1.1472
-0.0337378 -0.200278 1.14806
-0.0334036 -0.199033 1.1489
-0.033064 -0.197748 1.14944
-0.0327241 -0.196465 1.15001
-0.0323854 -0.195189 1.15064
-0.032046 -0.193909 1.15125
-0.0317067 -0.19263 1.15187
-0.0313685 -0.191361 1.15259
-0.0310301 -0.190093 1.15332
-0.0306874 -0.188792 1.1538
-0.0303462 -0.187505 1.15439
-0.0300058 -0.186226 1.15507
-0.0296656 -0.184943 1.15572
-0.0293255 -0.183672 1.15648
-0.0289866 -0.182413 1.15736
-0.0286466 -0.181139 1.15813
-0.0283068 -0.179874 1.15899
-0.0279694 -0.178637 1.16014
-0.0276306 -0.177387 1.16119
-0.0272915 -0.176131 1.1622
-0.0269506 -0.174875 1.16324
-0.026608 -0.173599 1.1641
-0.0262638 -0.172301 1.16476
-0.0259188 -0.171012 1.16552
-0.0255747 -0.169725 1.16632
-0.0252288 -0.16842 1.16695
-0.0248813 -0.167105 1.16749
-0.0245363 -0.165821 1.16837
-0.024193 -0.164553 1.16945
-0.0238496 -0.163307 1.17081
-0.0235074 -0.162087 1.17251
-0.0231662 -0.160887 1.17449
-0.0228245 -0.15969 1.17659
-0.0224811 -0.158504 1.17889
-0.0221377 -0.157325 1.18136
-0.0217917 -0.156128 1.18368
-0.021444 -0.154916 1.1859
-0.0210943 -0.153703 1.18819
-0.0207431 -0.15248 1.19042
-0.0203895 -0.151234 1.19242
-0.0200347 -0.149987 1.19449
-0.0196792 -0.148733 1.19653
-0.019321 -0.147476 1.19861
-0.0189625 -0.146221 1.20082
-0.0186019 -0.144969 1.20315
-0.0182399 -0.143698 1.2053
-0.0164647 -0.143239 1.21429
-0.0178764 -0.142419 1.2074
-0.0456184 -0.240166 1.13584
-0.0452645 -0.238786 1.13577
-0.0449061 -0.237388 1.13558
-0.0445243 -0.235848 1.1346
-0.0441437 -0.234319 1.13366
-0.043763 -0.232784 1.13266
-0.0433935 -0.231318 1.13202
-0.043038 -0.229926 1.1318
-0.0426883 -0.228567 1.13176
-0.0423454 -0.227246 1.13194
-0.0420052 -0.225942 1.13221
-0.0416751 -0.224694 1.13282
-0.0413466 -0.223462 1.13353
-0.0410336 -0.222319 1.13479
-0.0407158 -0.22115 1.13592
-0.0404015 -0.220002 1.13719
-0.0400906 -0.218876 1.13862
-0.0397888 -0.217814 1.14048
-0.0394771 -0.216685 1.14194
-0.0391583 -0.215521 1.14321
-0.0388249 -0.214265 1.14389
-0.0384794 -0.212937 1.1441
-0.0381192 -0.211516 1.14369
-0.0377659 -0.210137 1.14354
-0.0374171 -0.208786 1.14358
-0.0370735 -0.207471 1.14386
-0.0367306 -0.206157 1.14415
-0.0363943 -0.204887 1.14476
-0.0360621 -0.203642 1.14555
-0.0357304 -0.202401 1.14638
-0.0353972 -0.201158 1.14721
-0.0350634 -0.199907 1.14799
-0.0347274 -0.198641 1.14867
-0.0343858 -0.197343 1.14912
-0.0340465 -0.196056 1.14966
-0.0337084 -0.194778 1.15027
-0.0333691 -0.1935 1.15089
-0.0330308 -0.192221 1.15152
-0.0326946 -0.190961 1.1523
-0.0323563 -0.189691 1.15302
-0.0320157 -0.1884 1.15358
-0.0316756 -0.187114 1.15419
-0.0313358 -0.185836 1.15487
-0.0309945 -0.184542 1.15542
-0.0306541 -0.183259 1.15608
-0.0303137 -0.181982 1.1568
-0.0299738 -0.1807 1.1575
-0.0296334 -0.179427 1.15828
-0.0292974 -0.178181 1.15934
-0.0289579 -0.17692 1.16028
-0.0286186 -0.175656 1.1612
-0.0282789 -0.174391 1.16214
-0.0279381 -0.173116 1.16301
-0.027595 -0.171828 1.16375
-0.0272524 -0.170546 1.16458
-0.0269099 -0.169269 1.16547
-0.0265657 -0.167972 1.16618
-0.0262197 -0.166668 1.16682
-0.0258774 -0.165393 1.16779
-0.0255359 -0.164141 1.16906
-0.0251966 -0.162913 1.17062
-0.0248584 -0.16171 1.17253
-0.0245202 -0.160516 1.17461
-0.0241806 -0.159317 1.17669
-0.0238396 -0.158113 1.17879
-0.0234981 -0.156918 1.18107
-0.0231546 -0.155704 1.18318
-0.0228082 -0.154479 1.18524
-0.0224615 -0.153254 1.18735
-0.0221145 -0.152035 1.18965
-0.0217642 -0.150802 1.19183
-0.0214136 -0.14957 1.1941
-0.021061 -0.148335 1.19643
-0.0207067 -0.147094 1.19877
-0.0203507 -0.145843 1.20106
-0.0199935 -0.144589 1.20339
-0.0196341 -0.14331 1.20544
-0.0192727 -0.14203 1.20754
-0.0175117 -0.141106 1.20904
-0.0189103 -0.14071 1.20908
-0.0472247 -0.240799 1.13379
-0.0468847 -0.2395 1.13414
-0.0465322 -0.238133 1.13411
-0.0461742 -0.236735 1.13391
-0.045793 -0.235214 1.13302
-0.0454112 -0.23369 1.13209
-0.0450295 -0.232159 1.1311
-0.0446542 -0.230668 1.13031
-0.0442939 -0.229252 1.12993
-0.0439439 -0.227892 1.12987
-0.043602 -0.226578 1.13007
-0.043265 -0.225293 1.13044
-0.042941 -0.224075 1.13121
-0.0426208 -0.222883 1.13216
-0.0423129 -0.221757 1.13351
-0.041999 -0.220603 1.13472
-0.0416915 -0.219483 1.13616
-0.041385 -0.21837 1.13766
-0.0410884 -0.217321 1.1396
-0.0407802 -0.216202 1.14113
-0.0404684 -0.215067 1.14258
-0.0401424 -0.21385 1.14351
-0.0398056 -0.212576 1.14408
-0.0394515 -0.211195 1.14393
-0.0391014 -0.209839 1.14395
-0.0387554 -0.208507 1.14413
-0.0384119 -0.20719 1.14441
-0.0380684 -0.205877 1.14471
-0.037731 -0.204596 1.14524
-0.0373966 -0.203337 1.14594
-0.0370614 -0.202069 1.14658
-0.036726 -0.200801 1.14724
-0.036389 -0.199528 1.14786
-0.0360493 -0.19824 1.14838
-0.0357072 -0.196931 1.14874
-0.0353662 -0.195632 1.14919
-0.0350285 -0.194353 1.14979
-0.0346906 -0.193076 1.15042
-0.0343519 -0.191798 1.15105
-0.0340179 -0.190547 1.1519
-0.0336822 -0.189286 1.1527
-0.0333441 -0.188006 1.15335
-0.0330046 -0.186722 1.15397
-0.0326651 -0.185444 1.15466
-0.0323226 -0.184139 1.15511
-0.0319809 -0.182843 1.15566
-0.0316397 -0.181547 1.15621
-0.0312992 -0.180259 1.15684
-0.0309577 -0.178969 1.15747
-0.0306204 -0.177706 1.15836
-0.0302796 -0.176426 1.15911
-0.0299393 -0.175144 1.15985
-0.0296 -0.173873 1.16071
-0.0292611 -0.172608 1.16165
-0.028921 -0.171329 1.16248
-0.0285812 -0.170066 1.16349
-0.0282428 -0.168806 1.16455
-0.027901 -0.167526 1.16542
-0.0275582 -0.166237 1.16623
-0.0272177 -0.164979 1.16737
-0.0268806 -0.163744 1.16883
-0.0265459 -0.162538 1.17066
-0.0262107 -0.161345 1.17268
-0.0258754 -0.16015 1.17477
-0.0255384 -0.158943 1.17677
-0.0251987 -0.157721 1.17867
-0.0248578 -0.156503 1.18067
-0.024515 -0.155269 1.18253
-0.0241713 -0.154036 1.18448
-0.0238272 -0.152804 1.1865
-0.0234831 -0.151585 1.1888
-0.0231374 -0.150371 1.19125
-0.0227924 -0.149171 1.19398
-0.0224442 -0.147956 1.19663
-0.0220942 -0.146732 1.19925
-0.0217419 -0.145489 1.2017
-0.0213872 -0.144219 1.20382
-0.0210295 -0.142928 1.20568
-0.020671 -0.141635 1.2076
-0.02031 -0.140309 1.20905
-0.0185471 -0.139791 1.21769
-0.0199481 -0.138975 1.21042
-0.0484966 -0.240192 1.1324
-0.0481518 -0.238868 1.13261
-0.0477966 -0.237491 1.13251
-0.0474315 -0.236061 1.13212
-0.0470522 -0.234557 1.13131
-0.0466682 -0.233026 1.13032
-0.0462846 -0.231502 1.12935
-0.0459094 -0.230013 1.12856
-0.045548 -0.2286 1.12818
-0.0451981 -0.227244 1.12813
-0.0448595 -0.225945 1.1284
-0.0445286 -0.224688 1.12892
-0.0442103 -0.223498 1.12985
-0.0438977 -0.222335 1.13096
-0.0435931 -0.221223 1.13239
-0.0432874 -0.220098 1.13378
-0.0429867 -0.219006 1.13538
-0.0426826 -0.217895 1.1369
-0.0423916 -0.216857 1.13891
-0.0420891 -0.215759 1.14057
-0.0417833 -0.214645 1.14215
-0.0414616 -0.213447 1.14321
-0.041133 -0.212211 1.14404
-0.0407802 -0.210846 1.144
-0.0404298 -0.209491 1.14403
-0.0400833 -0.20816 1.14421
-0.0397397 -0.206843 1.14449
-0.0393965 -0.205529 1.14479
-0.0390589 -0.204246 1.14531
-0.0387253 -0.202983 1.14599
-0.0383871 -0.201699 1.14652
-0.0380496 -0.200416 1.14706
-0.0377114 -0.19913 1.14759
-0.0373706 -0.197831 1.14802
-0.0370263 -0.196511 1.1483
-0.036684 -0.195202 1.14867
-0.0363452 -0.193915 1.1492
-0.0360077 -0.192639 1.14984
-0.0356709 -0.191362 1.15047
-0.0353381 -0.190113 1.15134
-0.0350048 -0.188862 1.15222
-0.0346688 -0.187593 1.15295
-0.0343299 -0.186312 1.1536
-0.0339923 -0.185034 1.15429
-0.0336497 -0.183727 1.15473
-0.0333069 -0.182421 1.15518
-0.032964 -0.181114 1.15563
-0.0326224 -0.179816 1.15617
-0.0322809 -0.178518 1.15672
-0.0319412 -0.177238 1.15743
-0.0316 -0.175939 1.158
-0.0312571 -0.174639 1.15855
-0.030918 -0.17336 1.15932
-0.0305809 -0.172098 1.16028
-0.0302432 -0.170832 1.16121
-0.0299069 -0.16958 1.16231
-0.0295715 -0.168337 1.16355
-0.0292335 -0.167074 1.1646
-0.0288941 -0.165804 1.16558
-0.0285573 -0.16456 1.16691
-0.028225 -0.163347 1.16861
-0.0278939 -0.162156 1.17061
-0.0275627 -0.160962 1.17264
-0.0272301 -0.159766 1.17473
-0.0268939 -0.158549 1.17663
-0.0265547 -0.157313 1.17835
-0.0262153 -0.156073 1.18009
-0.0258739 -0.154831 1.18184
-0.0255323 -0.153591 1.18369
-0.0251913 -0.152358 1.18571
-0.0248498 -0.151139 1.188
-0.0245114 -0.149949 1.1908
-0.0241713 -0.14877 1.19385
-0.0238292 -0.147577 1.19684
-0.0234844 -0.146367 1.19968
-0.0231361 -0.145133 1.20229
-0.0227825 -0.143848 1.20421
-0.0224264 -0.142547 1.20596
-0.0220696 -0.141241 1.20767
-0.0217092 -0.139908 1.20903
-0.0213484 -0.138568 1.21029
-0.0195847 -0.137632 1.21168
-0.0209869 -0.137223 1.21154
-0.0192268 -0.136672 1.22015
-0.0206243 -0.135871 1.21271
-0.0497765 -0.239644 1.13133
-0.0494256 -0.238286 1.13134
-0.0490678 -0.236902 1.1312
-0.0486943 -0.235433 1.13058
-0.048314 -0.233934 1.12978
-0.0479254 -0.232395 1.12873
-0.0475465 -0.230899 1.1279
-0.0471699 -0.229416 1.12713
-0.0468063 -0.227993 1.12669
-0.0464583 -0.226652 1.1267
-0.0461199 -0.225354 1.12697
-0.0457883 -0.224089 1.12743
-0.0454742 -0.222912 1.12843
-0.0451679 -0.221776 1.12969
-0.0448697 -0.22068 1.13122
-0.0445753 -0.219607 1.13291
-0.0442831 -0.218542 1.13469
-0.0439811 -0.217434 1.13622
-0.043693 -0.216393 1.13821
-0.0433923 -0.215293 1.13986
-0.0430885 -0.214179 1.14144
-0.0427733 -0.213006 1.14266
-0.0424526 -0.211809 1.14374
-0.0421066 -0.210481 1.14395
-0.0417586 -0.209137 1.14406
-0.0414118 -0.207805 1.14424
-0.0410652 -0.206476 1.14443
-0.0407205 -0.20515 1.14465
-0.0403829 -0.203867 1.14518
-0.0400499 -0.202603 1.14585
-0.0397124 -0.201319 1.14638
-0.0393727 -0.200023 1.14683
-0.0390322 -0.198724 1.14726
-0.0386874 -0.197404 1.14753
-0.0383419 -0.196074 1.14773
-0.0379979 -0.194756 1.14802
-0.0376576 -0.193459 1.14847
-0.0373195 -0.192173 1.14902
-0.0369816 -0.190889 1.14959
-0.0366501 -0.189641 1.15046
-0.0363184 -0.188392 1.15135
-0.0359851 -0.187134 1.15217
-0.0356508 -0.185872 1.15298
-0.0353151 -0.184605 1.15375
-0.0349731 -0.183299 1.1542
-0.0346304 -0.181992 1.15464
-0.0342877 -0.180684 1.15508
-0.0339447 -0.179377 1.15553
-0.0336025 -0.17807 1.15598
-0.0332611 -0.176771 1.15651
-0.0329179 -0.175463 1.15697
-0.0325743 -0.174153 1.15742
-0.0322334 -0.17286 1.15804
-0.0318985 -0.1716 1.159
-0.0315647 -0.170351 1.1601
-0.0312316 -0.16911 1.1613
-0.0309 -0.167877 1.16264
-0.0305667 -0.16664 1.16396
-0.0302322 -0.165393 1.1652
-0.0299001 -0.164167 1.16672
-0.029571 -0.162961 1.1685
-0.0292439 -0.161774 1.17057
-0.0289144 -0.160577 1.17258
-0.0285837 -0.159373 1.17458
-0.0282485 -0.15814 1.1763
-0.0279118 -0.156903 1.17801
-0.0275718 -0.155649 1.17957
-0.0272324 -0.154399 1.18123
-0.0268921 -0.153152 1.18298
-0.0265534 -0.151919 1.18499
-0.0262154 -0.150695 1.18722
-0.0258834 -0.14953 1.19036
-0.0255526 -0.14838 1.19387
-0.025218 -0.147214 1.19728
-0.0248779 -0.146016 1.20036
-0.024534 -0.144791 1.20314
-0.0241809 -0.143491 1.20485
-0.0238251 -0.142171 1.20631
-0.0234687 -0.140846 1.20775
-0.0231105 -0.139508 1.20902
-0.0227504 -0.138161 1.21017
-0.0223905 -0.136815 1.21141
-0.0220291 -0.135463 1.21257
-0.0202766 -0.134905 1.22141
-0.021668 -0.134127 1.21412
-0.0510619 -0.239133 1.13045
-0.0507047 -0.237749 1.13031
-0.0503465 -0.236363 1.13015
-0.0499679 -0.234881 1.12945
-0.0495867 -0.233383 1.12865
-0.0491935 -0.231833 1.12752
-0.048816 -0.230353 1.12678
-0.0484382 -0.228871 1.12599
-0.0480649 -0.227413 1.12534
-0.0477155 -0.226061 1.12527
-0.0473743 -0.224751 1.12546
-0.0470377 -0.223461 1.12576
-0.0467202 -0.222264 1.12662
-0.046422 -0.221155 1.12804
-0.0461312 -0.220086 1.12972
-0.0458478 -0.219053 1.13165
-0.0455634 -0.218016 1.1336
-0.0452726 -0.216946 1.13537
-0.0449864 -0.215905 1.13736
-0.0446885 -0.214804 1.13899
-0.0443864 -0.213689 1.14056
-0.0440787 -0.212541 1.14195
-0.043765 -0.21137 1.1432
-0.0434284 -0.21009 1.14373
-0.0430843 -0.20877 1.144
