ply
format ascii 1.0
element vertex 1510
property float x
property float y
property float z
end_header
0.00921141 -0.0191036 0.0615375
0.00966417 -0.0188604 0.0617103
0.0101152 -0.0186182 0.0618435
0.0105686 -0.0183747 0.0620107
0.0110073 -0.0181395 0.0619282
0.0114346 -0.0179107 0.0616699
0.0118546 -0.017686 0.0613098
0.0122695 -0.0174642 0.0608869
0.0126792 -0.0172453 0.060406
0.0130881 -0.0170267 0.0599334
0.013498 -0.0168076 0.0594947
0.013915 -0.0165845 0.0591715
0.0143379 -0.0163581 0.0589429
0.0147675 -0.0161278 0.0588121
0.0152129 -0.0158887 0.0588927
0.0156662 -0.0156453 0.0590705
0.0161208 -0.0154011 0.0592585
0.0165865 -0.0151507 0.0595766
0.0170465 -0.0149035 0.0598127
0.0175049 -0.0146572 0.0600223
0.0179588 -0.0144135 0.0601704
0.0184123 -0.01417 0.0603087
0.0188587 -0.0139304 0.0603616
0.0193001 -0.0136936 0.0603579
0.0197413 -0.013457 0.0603502
0.0201817 -0.0132207 0.0603348
0.0206252 -0.0129828 0.060352
0.0210668 -0.012746 0.0603479
0.0215197 -0.0125028 0.0604609
0.0219704 -0.0122609 0.0605473
0.0224212 -0.0120189 0.0606321
0.022869 -0.0117786 0.060684
0.0233163 -0.0115385 0.060731
0.0237608 -0.0113001 0.0607481
0.0242181 -0.0110545 0.0608849
0.0246772 -0.010808 0.061035
0.0251376 -0.0105607 0.061193
0.0256134 -0.0103049 0.0614856
0.0260873 -0.0100502 0.0617526
0.0265796 -0.00978542 0.0621744
0.0270816 -0.00951524 0.0626708
0.0275964 -0.00923805 0.0632622
0.0281028 -0.00896552 0.0637668
0.0286259 -0.0086838 0.0643992
0.0291531 -0.00839985 0.0650505
0.0296964 -0.00810686 0.0658175
0.0302601 -0.00780306 0.0667288
0.0308338 -0.00749356 0.0676998
0.0314059 -0.00718498 0.0686339
0.0319401 -0.00689727 0.0692508
0.0324555 -0.00661996 0.0697093
0.0329474 -0.0063556 0.0699776
0.0353079 -0.00510543 0.0609311
0.0357241 -0.00488244 0.0607411
0.0361435 -0.00465777 0.0605774
0.0365546 -0.0044376 0.0603587
0.0369583 -0.00422152 0.0600942
0.037367 -0.0040027 0.0598689
0.0377836 -0.00377949 0.0597012
-0.0121009 -0.0298975 0.0811219
-0.01163 -0.0296449 0.0810963
-0.0111601 -0.0293928 0.0811637
-0.0106924 -0.0291408 0.0814464
-0.0102232 -0.0288883 0.0816547
-0.00975229 -0.0286353 0.0817366
-0.0092811 -0.0283823 0.0818093
-0.00647265 -0.026904 0.0740213
-0.00601191 -0.0266566 0.0740872
-0.00555146 -0.0264095 0.0740748
-0.00509178 -0.0261636 0.0739423
-0.00463361 -0.0259185 0.0736996
-0.00417671 -0.0256749 0.073378
-0.0037209 -0.0254315 0.0730533
-0.0032664 -0.0251887 0.0727093
-0.00281209 -0.0249463 0.0724039
-0.00235747 -0.0247029 0.0721862
-0.00190696 -0.024463 0.071758
-0.00146112 -0.0242259 0.0711594
-0.00101308 -0.0239871 0.0707482
-0.000562783 -0.0237465 0.0704927
-0.000124349 -0.0235139 0.0697673
0.000292853 -0.0232955 0.0682806
0.000689275 -0.0230906 0.066177
0.00108167 -0.0228874 0.064152
0.00147402 -0.0226836 0.0623266
0.00188094 -0.0224697 0.0611438
0.0022867 -0.022256 0.0600331
0.00270777 -0.0220322 0.0594673
0.00312747 -0.0218091 0.0589098
0.00354921 -0.0215845 0.0584513
0.00397398 -0.0213579 0.0581061
0.00442466 -0.0211149 0.0584337
0.00487591 -0.0208716 0.058752
0.00532454 -0.0206301 0.058985
0.00577009 -0.0203906 0.0591334
0.00622708 -0.020144 0.0595207
0.00668479 -0.019897 0.0598987
0.00715449 -0.0196428 0.0604983
0.00762287 -0.0193896 0.0610352
0.00809228 -0.0191358 0.0615615
0.00855341 -0.0188872 0.0619015
0.00901615 -0.0186377 0.0622534
0.00946475 -0.0183967 0.0623336
0.00990787 -0.0181591 0.0623149
0.0103559 -0.0179184 0.0623801
0.0107896 -0.0176865 0.0622038
0.0112122 -0.017461 0.0618586
0.0116277 -0.0172397 0.0614171
0.0120423 -0.0170188 0.0609827
0.0124463 -0.0168043 0.0604057
0.0128492 -0.0165901 0.05984
0.0132553 -0.016374 0.059343
0.0136704 -0.0161527 0.0589913
0.0140936 -0.0159265 0.058767
0.0145256 -0.0156951 0.0586688
0.0149732 -0.0154545 0.0587815
0.0154285 -0.0152096 0.0589882
0.0158874 -0.0149624 0.0592335
0.0163555 -0.0147099 0.059585
0.0168185 -0.0144606 0.0598582
0.0172794 -0.0142124 0.0600986
0.0177359 -0.0139669 0.0602769
0.0181898 -0.0137228 0.0604191
0.0186365 -0.013483 0.0604727
0.0190806 -0.0132447 0.0604961
0.019522 -0.0130079 0.0604878
0.0199606 -0.0127727 0.0604489
0.020404 -0.0125348 0.060463
0.0208398 -0.0123013 0.0603953
0.0212863 -0.0120616 0.0604406
0.0217331 -0.0118217 0.0604886
0.0221837 -0.0115797 0.0605717
0.0226288 -0.0113408 0.0605984
0.0230792 -0.0110988 0.0606755
0.0235268 -0.0108585 0.0607225
0.0239843 -0.0106126 0.0608622
0.0244435 -0.0103657 0.0610139
0.0249037 -0.0101182 0.0611702
0.0253789 -0.00986219 0.0614594
0.0258525 -0.00960724 0.0617244
0.0263447 -0.00934157 0.0621491
0.0268435 -0.00907222 0.0626192
0.0273579 -0.00879411 0.0632116
0.0278632 -0.00852119 0.063711
0.0283794 -0.00824215 0.0642904
0.0289057 -0.00795741 0.0649376
0.0294479 -0.00766378 0.0657017
0.0300104 -0.00735861 0.0666109
0.0305836 -0.00704753 0.067584
0.0311551 -0.00673758 0.0685186
0.0316931 -0.00644656 0.0691702
0.0322159 -0.00616417 0.0696899
0.0327058 -0.00590036 0.0699446
0.0354944 -0.00443809 0.060739
0.0359216 -0.00420923 0.0606272
0.036346 -0.00398203 0.0604979
0.036761 -0.00376013 0.0603057
0.0371832 -0.00353417 0.0601669
-0.01236 -0.02943 0.0814696
-0.0118904 -0.0291773 0.0815791
-0.011422 -0.0289249 0.0818169
-0.0109564 -0.028672 0.0823578
-0.0104882 -0.0284184 0.0828158
-0.0100169 -0.0281641 0.0830479
-0.009546 -0.0279091 0.0834481
-0.00671886 -0.0264427 0.0744139
-0.00625775 -0.0261953 0.0744134
-0.00579702 -0.0259485 0.0743378
-0.00533733 -0.0257031 0.0741307
-0.00487936 -0.0254593 0.0737827
-0.00442287 -0.0252166 0.0733847
-0.00396751 -0.0249744 0.0729906
-0.00351377 -0.0247334 0.0725551
-0.00305991 -0.0244918 0.0722182
-0.00260567 -0.0242495 0.0719683
-0.00215677 -0.0240115 0.0714455
-0.00171256 -0.0237771 0.0707514
-0.00126646 -0.0235405 0.070253
-0.000818054 -0.0233017 0.0699311
2.17923e-05 -0.0228671 0.0670602
0.000404237 -0.0226765 0.0644185
0.000789631 -0.0224823 0.0621708
0.00117846 -0.0222842 0.0602724
0.00158373 -0.0220733 0.0591028
0.00200191 -0.0218526 0.0584482
0.00243309 -0.0216224 0.0582417
0.00286226 -0.0213935 0.0579944
0.00330142 -0.0211576 0.0580422
0.00374339 -0.0209198 0.05816
0.00419034 -0.0206787 0.058396
0.00463903 -0.0204365 0.0586569
0.00509657 -0.0201885 0.0591075
0.00555119 -0.0199426 0.0594609
0.00601761 -0.0196891 0.0600516
0.00648542 -0.0194349 0.0606339
0.00696539 -0.0191729 0.0614328
0.00743313 -0.0189192 0.0619364
0.00790006 -0.0186661 0.0623932
0.0083578 -0.0184191 0.0626501
0.00881578 -0.018172 0.0628962
0.00925923 -0.0179343 0.0628668
0.00969935 -0.0176986 0.0627797
0.0101439 -0.0174601 0.0627726
0.010573 -0.0172314 0.0625083
0.0109931 -0.0170082 0.0621081
0.0114058 -0.0167896 0.06161
0.011814 -0.0165735 0.0610649
0.0122125 -0.0163635 0.0603961
0.0126116 -0.0161528 0.0597645
0.0130156 -0.015939 0.0592318
0.0134288 -0.0157195 0.058852
0.0138541 -0.0154924 0.0586556
0.0142884 -0.0152597 0.0585895
0.0147381 -0.0150177 0.0587311
0.0151915 -0.0147734 0.0589155
0.015652 -0.0145248 0.059185
0.0161226 -0.0142702 0.0595699
0.0165879 -0.0140189 0.0598746
0.0170518 -0.0137684 0.060152
0.017513 -0.0135197 0.060386
0.0179667 -0.0132754 0.0605248
0.0184133 -0.0130356 0.0605744
0.0188574 -0.0127972 0.0605959
0.0192965 -0.0125618 0.0605596
0.0197325 -0.0123283 0.0604896
0.0201731 -0.012092 0.0604716
0.0206032 -0.0118619 0.0603432
0.0210438 -0.0116256 0.0603275
0.0214873 -0.0113876 0.060342
0.0219349 -0.0111472 0.0603966
0.0223799 -0.0109082 0.0604243
0.0228333 -0.0106644 0.0605329
0.0232869 -0.0104204 0.0606405
0.0237478 -0.0101722 0.0608137
0.0242102 -0.00992302 0.0609975
0.0246699 -0.00967558 0.0611491
0.0251445 -0.00941933 0.0614343
0.0256177 -0.00916392 0.0616989
0.0261103 -0.00889725 0.0621288
0.0266092 -0.00862701 0.0626015
0.0271231 -0.00834796 0.063195
0.0276313 -0.00807237 0.0637216
0.0281473 -0.00779225 0.0643025
0.0286731 -0.00750654 0.0649505
0.029211 -0.00721392 0.0656818
0.0297714 -0.00690821 0.0665779
0.0303392 -0.00659841 0.0675133
0.0309019 -0.00629163 0.0683855
0.0314395 -0.00599962 0.0690376
0.0319724 -0.00571035 0.0696393
0.0324625 -0.00544596 0.0698963
0.0329459 -0.00518546 0.0700972
0.0352466 -0.00400386 0.0606112
0.0356896 -0.00376619 0.0606078
0.0361287 -0.0035308 0.0605772
0.0365626 -0.00329836 0.0605122
-0.0126262 -0.0289619 0.0822118
-0.0121578 -0.0287086 0.0824724
-0.0116902 -0.0284549 0.0828587
-0.0112251 -0.0282001 0.0835455
-0.0107564 -0.0279447 0.0840935
-0.0102839 -0.0276887 0.0843776
-0.00981144 -0.0274321 0.0848233
-0.00650444 -0.0257334 0.0746733
-0.00604341 -0.0254871 0.0745373
-0.00558348 -0.0252422 0.074281
-0.00512569 -0.025 0.0738279
-0.00466936 -0.0247586 0.0733581
-0.0042143 -0.0245178 0.0729001
-0.0037606 -0.0242779 0.0724361
-0.00330658 -0.0240368 0.0720992
-0.00285186 -0.0237944 0.071876
-0.00240314 -0.0235578 0.0713208
-0.00195959 -0.0233255 0.070563
-0.00151489 -0.0230912 0.069982
-0.00106887 -0.0228551 0.0695474
-0.000636341 -0.0226304 0.0685578
0.00052215 -0.0220652 0.0610012
0.000928549 -0.0218566 0.0597365
0.0013553 -0.021631 0.059289
0.00179703 -0.0213934 0.0593657
0.00223848 -0.021156 0.0594273
0.00267832 -0.02092 0.0594339
0.0031205 -0.0206822 0.0595069
0.00356334 -0.020444 0.0595891
0.00400873 -0.0202039 0.0597328
0.00445475 -0.0199635 0.0598787
0.00490989 -0.0197166 0.0602353
0.00536577 -0.0194694 0.060583
0.00583261 -0.0192146 0.0611549
0.00630061 -0.0189593 0.0617141
0.00678056 -0.018696 0.0624903
0.00724586 -0.0184432 0.0629178
0.00770786 -0.0181928 0.063254
0.00816128 -0.0179483 0.0634048
0.00861631 -0.0177029 0.0635767
0.00905546 -0.0174682 0.0634488
0.00949245 -0.017235 0.0632878
0.00993417 -0.0169985 0.0632173
0.0103621 -0.016771 0.0629176
0.0107797 -0.0165504 0.06246
0.0111948 -0.0163313 0.0619839
0.0116037 -0.0161159 0.0614333
0.0119978 -0.0159102 0.0606787
0.0123918 -0.0157041 0.0599563
0.0127936 -0.0154928 0.0593792
0.0132011 -0.0152777 0.0589089
0.0136209 -0.0150545 0.0586307
0.0140554 -0.0148219 0.0585657
0.0145049 -0.0145796 0.0587062
0.0149561 -0.0143364 0.0588633
0.0154184 -0.0140861 0.0591584
0.0158887 -0.0138308 0.0595435
0.0163541 -0.0135788 0.0598528
0.0168181 -0.0133278 0.0601321
0.017279 -0.0130787 0.0603651
0.0177326 -0.0128344 0.0605019
0.018179 -0.0125945 0.0605505
0.0186231 -0.012356 0.0605709
0.0190619 -0.0121208 0.0605314
0.0194975 -0.0118877 0.0604554
0.0199326 -0.0116548 0.0603777
0.0203597 -0.0114269 0.0602159
0.0208001 -0.0111907 0.0601992
0.021241 -0.0109542 0.0601882
0.0216858 -0.0107153 0.0602162
0.0221333 -0.0104748 0.0602715
0.0225893 -0.010229 0.0604085
0.0230437 -0.00998439 0.0605254
0.0235078 -0.00973383 0.060732
0.0239732 -0.00948248 0.0609459
0.0244326 -0.00923484 0.0610969
0.0249069 -0.00897824 0.0613807
0.0253831 -0.00872057 0.0616737
0.025879 -0.00845103 0.0621357
0.0263782 -0.00817961 0.0626152
0.0268945 -0.00789791 0.0632328
0.0274056 -0.00761951 0.0637878
0.0279185 -0.00734019 0.0643427
0.0284414 -0.00705494 0.0649678
0.028974 -0.00676398 0.0656611
0.0295219 -0.00646405 0.06646
0.0300833 -0.00615618 0.0673502
0.0306411 -0.00585066 0.0681888
0.0311781 -0.00555763 0.0688428
0.0317201 -0.00526171 0.0695216
0.0322179 -0.00499225 0.0698404
0.0327011 -0.00473147 0.0700402
-0.0119603 -0.0279815 0.0839113
-0.0114942 -0.0277249 0.084605
-0.0110241 -0.0274678 0.0851282
-0.0105508 -0.0272104 0.0854853
-0.0100769 -0.0269521 0.0859102
-0.00721355 -0.0255176 0.075026
-0.00675161 -0.0252707 0.0749265
-0.00629024 -0.025025 0.074724
-0.00583016 -0.0247812 0.0743878
-0.00537225 -0.0245404 0.0738637
-0.00491594 -0.0243006 0.0733293
-0.00446102 -0.0240613 0.0728106
-0.00400702 -0.023822 0.072347
-0.00355279 -0.0235815 0.0720092
-0.00309796 -0.0233395 0.071786
-0.00264883 -0.0231036 0.0712322
-0.00220432 -0.022872 0.0704989
-0.00175918 -0.0226386 0.0699172
-0.00131323 -0.0224035 0.0694628
-0.000880387 -0.0221807 0.0684531
0.000321106 -0.0215932 0.0623452
0.000731315 -0.0213847 0.0611076
0.00116256 -0.0211568 0.0607308
0.00160079 -0.0209226 0.0606212
0.00204962 -0.0206796 0.0608557
0.0024945 -0.02044 0.0609495
0.00294017 -0.0201999 0.0610566
0.00338522 -0.0199603 0.0611368
0.00382962 -0.0197213 0.0611934
0.00427409 -0.0194823 0.061246
0.00472638 -0.0192373 0.0614871
0.00518188 -0.0189901 0.0617862
0.00564871 -0.0187345 0.0623254
0.0061165 -0.0184786 0.0628494
0.00659258 -0.0182169 0.0635176
0.00705329 -0.0179668 0.0638229
0.00751061 -0.0177193 0.0640419
0.00795741 -0.0174795 0.064041
0.0084056 -0.0172388 0.064065
0.00883957 -0.0170082 0.063824
0.00927557 -0.0167761 0.0636318
0.00971493 -0.0165414 0.0635089
0.0101439 -0.0163141 0.0632116
0.0105632 -0.0160932 0.0627694
0.010982 -0.0158725 0.0623391
0.0113919 -0.0156577 0.0617875
0.0117854 -0.0154539 0.0610045
0.0121778 -0.0152505 0.0602415
0.012576 -0.0150428 0.0595972
0.0129778 -0.0148325 0.0590329
0.0133918 -0.0146138 0.0586658
0.0138241 -0.0143827 0.058568
0.0142693 -0.014143 0.0586501
0.0147179 -0.0139012 0.0587731
0.0151777 -0.0136519 0.0590395
0.0156453 -0.0133977 0.0593945
0.016108 -0.0131467 0.0596755
0.0165711 -0.0128957 0.0599495
0.0170293 -0.0126479 0.0601539
0.0174825 -0.0124034 0.0602903
0.0179313 -0.0121619 0.0603695
0.0183755 -0.0119233 0.0603939
0.0188142 -0.0116882 0.0603543
0.0192492 -0.0114555 0.0602747
0.0196834 -0.0112233 0.0601877
0.0201106 -0.0109956 0.0600283
0.0205536 -0.0107577 0.0600411
0.0209951 -0.0105209 0.060037
0.0214393 -0.0102823 0.0600614
0.0218891 -0.0100402 0.0601412
0.0223449 -0.00979428 0.0602789
0.0227998 -0.00954901 0.060403
0.023267 -0.00929606 0.0606431
0.0237354 -0.00904245 0.0608864
0.0241947 -0.00879455 0.061038
0.0246689 -0.00853741 0.061323
0.0251483 -0.00827708 0.0616482
0.0256442 -0.00800668 0.0621131
0.0261433 -0.00773433 0.0625941
0.0266592 -0.00745173 0.06321
0.0271728 -0.00717064 0.063792
0.0276856 -0.00689027 0.0643494
0.0282086 -0.00660372 0.064979
0.0287377 -0.00631359 0.0656437
0.0292763 -0.0060177 0.0663719
0.0298249 -0.00571594 0.0671633
0.0303735 -0.0054143 0.0679358
0.0309097 -0.00512046 0.0685904
0.0314613 -0.0048173 0.0693505
0.0319644 -0.00454397 0.0697133
0.0324608 -0.00427471 0.0700187
-0.0122324 -0.0275049 0.0849745
-0.0117616 -0.0272474 0.0854099
-0.0112881 -0.0269898 0.0857218
-0.0108132 -0.0267318 0.0859905
-0.010337 -0.0264737 0.086221
-0.00746176 -0.0250535 0.0753298
-0.00699923 -0.0248067 0.0751994
-0.00653752 -0.0245622 0.0749077
-0.00607712 -0.0243199 0.0744912
-0.00561898 -0.0240807 0.0738955
-0.00516253 -0.0238425 0.0732995
-0.00470771 -0.0236049 0.0727204
-0.00425312 -0.0233659 0.0722838
-0.00379865 -0.0231258 0.0719464
-0.00334358 -0.0228841 0.0717269
-0.00289351 -0.0226484 0.071209
-0.00244776 -0.022417 0.0705147
-0.00200299 -0.0221854 0.0698807
-0.001555 -0.0219491 0.0695136
-0.00110752 -0.0217128 0.0691724
0.00142279 -0.0204294 0.0625674
0.00186778 -0.0201904 0.0625874
0.00231659 -0.019948 0.062723
0.00276448 -0.0197065 0.062819
0.00321037 -0.0194669 0.0628487
0.00365364 -0.0192295 0.0628037
0.00409655 -0.0189924 0.0627528
0.00454639 -0.0187495 0.0628796
0.00500028 -0.0185036 0.0630937
0.00546384 -0.01825 0.0635184
0.00592898 -0.0179955 0.06395
0.00639549 -0.0177403 0.0643826
0.00684905 -0.0174954 0.0645137
0.00730079 -0.017252 0.0645987
0.00774474 -0.0170146 0.0645222
0.00818862 -0.0167772 0.0644483
0.00862784 -0.0165433 0.0642906
0.00906792 -0.0163086 0.0641567
0.00950533 -0.0160759 0.0639811
0.00993387 -0.0158495 0.0636603
0.0103558 -0.0156278 0.0632443
0.0107758 -0.0154072 0.0628148
0.0111836 -0.0151952 0.0622092
0.0115768 -0.0149933 0.0614025
0.0119664 -0.0147935 0.060577
0.0123606 -0.0145901 0.0598545
0.0127549 -0.0143862 0.059167
0.0131633 -0.0141722 0.0587108
0.013591 -0.0139445 0.058546
0.0140314 -0.013708 0.0585619
0.014473 -0.0134707 0.058593
0.0149301 -0.0132227 0.0588289
0.0153927 -0.0129712 0.0591248
0.0158523 -0.0127217 0.059372
0.0163119 -0.0124724 0.0596102
0.016769 -0.0122248 0.0598083
0.0172218 -0.0119803 0.0599467
0.0176731 -0.0117368 0.0600619
0.0181201 -0.0114962 0.0601231
0.0185612 -0.0112596 0.0601147
0.0189984 -0.0110256 0.0600616
0.0194327 -0.0107935 0.0599776
0.0198624 -0.0105643 0.059847
0.0203083 -0.0103245 0.0598933
0.02075 -0.0100874 0.0598938
0.0211968 -0.00984704 0.0599464
0.0216488 -0.00960333 0.06005
0.0221044 -0.00935727 0.0601877
0.0225564 -0.00911359 0.0602846
0.0230261 -0.00885854 0.0605511
0.0234939 -0.00860478 0.0607918
0.0239536 -0.00835637 0.060948
0.0244278 -0.00809854 0.061237
0.0249132 -0.00783376 0.06162
0.025409 -0.00756243 0.0620871
0.0259078 -0.00728932 0.062569
0.0264232 -0.00700582 0.0631838
0.0269396 -0.00672183 0.0637915
0.0274522 -0.00644035 0.0643532
0.0279751 -0.00615266 0.064986
0.0285 -0.0058638 0.0656197
0.0290341 -0.00556933 0.0663127
0.0295775 -0.00526924 0.0670662
0.0301176 -0.00497141 0.0677747
0.0306536 -0.00467632 0.0684331
0.0312086 -0.00436957 0.0692258
0.0317201 -0.00409019 0.0696587
0.0322202 -0.00381804 0.0699946
-0.0125027 -0.027026 0.0858164
-0.0120264 -0.0267689 0.0859323
-0.0115497 -0.0265115 0.0860463
-0.0110732 -0.0262536 0.086217
-0.0105947 -0.0259966 0.0862277
-0.0101134 -0.0257423 0.085921
-0.00888756 -0.025728 0.0833688
-0.00962633 -0.0254974 0.0846718
-0.0091388 -0.0252621 0.0826689
-0.0077104 -0.0245902 0.0754844
-0.00724749 -0.0243443 0.0752861
-0.0067854 -0.0241006 0.0749642
-0.00632455 -0.0238589 0.0745361
-0.00586594 -0.023621 0.073908
-0.00540915 -0.0233842 0.0732765
-0.00495385 -0.0231475 0.0726923
-0.00449864 -0.0229086 0.0722823
-0.00404382 -0.022669 0.071944
-0.00358805 -0.0224267 0.0717647
-0.00313649 -0.0221903 0.0713139
-0.00268846 -0.0219577 0.0707169
-0.00224147 -0.0217251 0.0701644
-0.00179167 -0.0214878 0.0698521
0.00081533 -0.0201487 0.0652892
0.00124707 -0.0199248 0.0647038
0.00168694 -0.019692 0.0644478
0.00213626 -0.01945 0.0645123
0.00258578 -0.0192079 0.0645771
0.00303222 -0.0189688 0.0645453
0.00347362 -0.0187341 0.0643759
0.00391503 -0.0184992 0.0642195
0.00436215 -0.0182592 0.064221
0.00481309 -0.018016 0.0643152
0.00526398 -0.0177729 0.0644012
0.00571866 -0.0175266 0.0645688
0.00617307 -0.0172807 0.0647181
0.00661637 -0.0170442 0.0646167
0.00705942 -0.0168077 0.064517
0.00750651 -0.0165679 0.0645038
0.00795377 -0.016328 0.0644946
0.00839801 -0.0160904 0.0644274
0.0088447 -0.015851 0.0644086
0.00928308 -0.0156179 0.0642403
0.0097127 -0.0153915 0.0639261
0.0101353 -0.0151702 0.0635066
0.0105561 -0.0149499 0.0630791
0.0109621 -0.0147407 0.0624273
0.0113563 -0.0145397 0.0616207
0.0117466 -0.0143412 0.060788
0.0121394 -0.0141404 0.0600309
0.0125301 -0.0139406 0.0592778
0.0129345 -0.0137305 0.0587538
0.0133579 -0.0135063 0.0585241
0.0137936 -0.0132731 0.0584737
0.0142304 -0.0130391 0.0584408
0.0146825 -0.0127942 0.0586134
0.0151379 -0.012547 0.0588225
0.0155918 -0.012301 0.0590033
0.0160479 -0.0120536 0.0592047
0.0165019 -0.0118077 0.0593729
0.0169545 -0.0115629 0.0595176
0.0174102 -0.011316 0.0596934
0.0178616 -0.0110722 0.0598129
0.0183057 -0.0108334 0.059843
0.0187481 -0.0105959 0.0598525
0.0191853 -0.0103619 0.0598027
0.0196178 -0.010131 0.0597036
0.020064 -0.00989091 0.0597551
0.0205056 -0.00965387 0.0597557
0.0209524 -0.00941337 0.0598103
0.0214068 -0.00916773 0.0599413
0.0218626 -0.00892132 0.0600816
0.0223168 -0.00867588 0.060203
0.0227888 -0.00841879 0.0604943
0.0232561 -0.00816483 0.0607323
0.0237157 -0.00791607 0.0608894
0.0241899 -0.0076578 0.061179
0.0246752 -0.00739227 0.0615643
0.0251705 -0.00712024 0.0620313
0.0256689 -0.00684638 0.0625132
0.0261838 -0.00656196 0.0631278
0.0266997 -0.00627707 0.0637354
0.0272155 -0.00599248 0.0643261
0.0277381 -0.00570359 0.0649617
0.0282629 -0.00541355 0.0655994
0.0287922 -0.00512076 0.0662575
0.0293308 -0.0048223 0.0669744
0.0298661 -0.00452604 0.0676489
0.0304013 -0.0042302 0.0683049
0.0309563 -0.00392182 0.0691048
0.0314765 -0.00363593 0.0696111
0.031984 -0.00335838 0.0700045
-0.0127671 -0.0265472 0.0862208
-0.0122891 -0.02629 0.086262
-0.0118107 -0.0260328 0.0862883
-0.0113328 -0.0257752 0.086363
-0.0108525 -0.0255192 0.0862376
-0.0103656 -0.025271 0.0853657
-0.00987399 -0.0250344 0.0835631
-0.00842699 -0.0243576 0.0769409
-0.00795925 -0.0241271 0.075576
-0.00749597 -0.0238817 0.0753637
-0.00703344 -0.0236387 0.0750143
-0.00657222 -0.0233981 0.0745521
-0.00611312 -0.0231616 0.0738903
-0.00565598 -0.0229263 0.0732268
-0.00520022 -0.0226905 0.0726406
-0.00474444 -0.0224516 0.0722596
-0.00428897 -0.0222117 0.0719552
-0.00383216 -0.0219682 0.0718452
-0.00337922 -0.0217309 0.0714582
-0.00292904 -0.0214968 0.0709582
-0.00247982 -0.0212628 0.0704893
-0.00202897 -0.0210253 0.0701913
-0.0015795 -0.020789 0.0698655
-0.000895561 -0.0210156 0.0691914
-0.00112438 -0.0205447 0.0698628
-0.000449324 -0.0207807 0.0688426
-0.000667865 -0.0202987 0.0699247
-2.07823e-05 -0.0205643 0.0678046
-0.000227266 -0.0200718 0.0692931
0.000200777 -0.0198581 0.0682318
0.000629781 -0.0196415 0.0673246
0.00106121 -0.0194208 0.0666017
0.00149979 -0.0191916 0.0661938
0.00195066 -0.0189491 0.0662247
0.00240038 -0.0187078 0.0662161
0.00284689 -0.0184697 0.066112
0.00328744 -0.0182372 0.0658471
0.00372554 -0.0180068 0.0655348
0.0041605 -0.0177789 0.0651648
0.0045996 -0.0175469 0.0649249
0.00503768 -0.0173155 0.0646776
0.00548137 -0.0170788 0.0645786
0.00592587 -0.0168413 0.0645044
0.00637025 -0.016604 0.0644299
0.00681467 -0.0163665 0.0643617
0.00726321 -0.0161254 0.064382
0.00771351 -0.0158829 0.0644352
0.00815972 -0.0156438 0.0644057
0.00860686 -0.015404 0.0643949
0.00904716 -0.0151697 0.0642578
0.00948003 -0.0149413 0.0639957
0.00990487 -0.0147192 0.0636067
0.0103299 -0.0144966 0.06324
0.0107416 -0.0142843 0.0626691
0.0111372 -0.0140839 0.0618676
0.0115283 -0.0138867 0.0610307
0.01192 -0.0136883 0.0602426
0.0123097 -0.013491 0.0594572
0.0127091 -0.0132858 0.0588488
0.0131286 -0.013065 0.0585572
0.013558 -0.0128366 0.0584166
0.0139903 -0.0126061 0.0583205
0.0144355 -0.0123659 0.0584029
0.0148835 -0.0121237 0.0585192
0.015332 -0.0118812 0.0586371
0.0157827 -0.0116371 0.0587778
0.0162315 -0.0113945 0.0588897
0.0166832 -0.0111499 0.0590324
0.0171406 -0.0109013 0.0592383
0.0175944 -0.0106554 0.0593939
0.018043 -0.0104133 0.0594833
0.0184906 -0.0101719 0.059558
0.0189331 -0.00993416 0.0595718
0.019371 -0.00969972 0.0595343
0.0198246 -0.00945422 0.0596687
0.0202715 -0.0092135 0.0597265
0.0207239 -0.0089689 0.059841
0.0211788 -0.00872272 0.0599766
0.0216348 -0.00847575 0.0601199
0.0220862 -0.00823213 0.0602112
0.0225549 -0.00797661 0.0604726
0.0230191 -0.00772432 0.0606807
0.0234785 -0.0074754 0.0608369
0.0239552 -0.00721472 0.0611535
0.0244403 -0.00694861 0.0615384
0.0249354 -0.00667576 0.0620063
0.0254333 -0.00640128 0.0624871
0.0259474 -0.00611609 0.0630996
0.0264599 -0.00583231 0.0636793
0.0269719 -0.00554894 0.0642437
0.0274941 -0.00525912 0.0648783
0.0280186 -0.00496796 0.0655158
0.0285439 -0.00467653 0.0661449
0.0290777 -0.00437964 0.0668307
0.0296116 -0.00408303 0.0674985
0.0301427 -0.00378851 0.0681255
0.0306967 -0.00347914 0.0689229
0.0312245 -0.00318715 0.0694953
0.0317375 -0.00290522 0.0699346
-0.0120697 -0.0255548 0.0863509
-0.011591 -0.0252974 0.0863775
-0.0111095 -0.0250426 0.0861658
-0.010615 -0.0248036 0.0846094
-0.0101187 -0.0245763 0.0823012
-0.00914779 -0.0241295 0.0779247
-0.0086747 -0.0239017 0.0763901
-0.00820807 -0.0236653 0.0755613
-0.00774456 -0.0234201 0.07535
-0.00728169 -0.0231772 0.0750163
-0.00682001 -0.0229372 0.0745569
-0.00636028 -0.0227016 0.0738991
-0.00590252 -0.0224671 0.073239
-0.00544622 -0.0222322 0.0726497
-0.00499001 -0.0219938 0.0722697
-0.00453413 -0.0217541 0.0719746
-0.00407676 -0.0215098 0.0718995
-0.00362257 -0.0212715 0.0715786
-0.00317047 -0.0210357 0.0711708
-0.00271935 -0.0208003 0.0707753
-0.00226843 -0.020564 0.0704386
-0.00181898 -0.0203289 0.0700737
-0.00136544 -0.0200872 0.0699715
-0.000912199 -0.0198457 0.0698666
-0.000471162 -0.0196197 0.0692338
-3.36019e-05 -0.0193967 0.068533
0.000402295 -0.0191744 0.0678483
0.000837271 -0.0189518 0.0672033
0.00127596 -0.018724 0.0667547
0.001725 -0.0184839 0.0666954
0.00217118 -0.018247 0.0665478
0.00261506 -0.0180121 0.066345
0.00305314 -0.017783 0.0659889
0.00348945 -0.0175552 0.0656127
0.00392349 -0.0173291 0.0652054
0.00435935 -0.0171008 0.0648743
0.00479615 -0.0168711 0.0645903
0.00523956 -0.0166349 0.0644839
0.00568254 -0.016399 0.0643746
0.00612549 -0.016163 0.0642703
0.00656945 -0.015926 0.0641939
0.00701642 -0.0156862 0.0641847
0.00746679 -0.0154435 0.0642448
0.00791465 -0.0152029 0.0642515
0.00836505 -0.0149602 0.0643056
0.00880706 -0.0147248 0.0642
0.00924174 -0.0144954 0.0639664
0.00966998 -0.0142713 0.0636312
0.010097 -0.0140478 0.063292
0.010508 -0.0138372 0.0627014
0.0109076 -0.0136354 0.0619514
0.0113033 -0.0134363 0.061174
0.0116945 -0.01324 0.0603632
0.0120853 -0.0130435 0.0595832
0.0124853 -0.0128392 0.0589722
0.0129013 -0.0126219 0.0586217
0.0133249 -0.0123983 0.058394
0.0137528 -0.0121713 0.0582363
0.0141913 -0.011936 0.0582283
0.0146343 -0.0116974 0.0582806
0.0150775 -0.0114585 0.0583339
0.015525 -0.0112165 0.0584401
0.015971 -0.0109757 0.0585225
0.0164223 -0.0107311 0.0586665
0.0168789 -0.0104824 0.0588711
0.0173342 -0.010235 0.0590525
0.0177852 -0.00999079 0.0591756
0.0182353 -0.00974732 0.0592845
0.0186828 -0.00950584 0.0593589
0.019126 -0.00926752 0.0593833
0.0195824 -0.00901971 0.0595508
0.0200348 -0.00877484 0.0596698
0.0204926 -0.00852614 0.0598429
0.0209482 -0.00827914 0.0599865
0.0214043 -0.00803189 0.0601304
0.0218582 -0.0077862 0.0602481
0.0223241 -0.00753222 0.0604807
0.0227856 -0.00728132 0.0606643
0.0232473 -0.00703044 0.0608435
0.0237268 -0.00676724 0.0611876
0.0242089 -0.00650236 0.0615466
0.0247038 -0.00622871 0.062015
0.0252012 -0.00595363 0.0624921
0.0257115 -0.00566982 0.0630734
0.0262168 -0.00538973 0.063595
0.0267281 -0.00510577 0.0641551
0.0272462 -0.00481741 0.0647591
0.0277696 -0.00452562 0.0653944
0.0282912 -0.00423541 0.065997
0.0288209 -0.00393994 0.0666519
0.0293501 -0.0036451 0.0672868
0.0298788 -0.00335081 0.0679035
0.0304322 -0.00304019 0.0687024
0.0309723 -0.00273881 0.0693759
-0.00962965 -0.0243519 0.0800608
-0.00986924 -0.0239076 0.0783946
-0.00939214 -0.0236799 0.0768917
-0.00892202 -0.0234461 0.0759088
-0.00845667 -0.0232047 0.0754663
-0.00799306 -0.0229597 0.0752597
-0.00753 -0.022717 0.0749466
-0.00706795 -0.0224769 0.0745241
-0.00660764 -0.0222421 0.0738757
-0.00614918 -0.0220079 0.0732456
-0.00569216 -0.0217731 0.0726872
-0.00523554 -0.0215351 0.0723076
-0.00477924 -0.0212957 0.0720176
-0.00432131 -0.0210506 0.0719763
-0.00386599 -0.0208111 0.0717171
-0.00341245 -0.0205741 0.0713728
-0.00296068 -0.0203391 0.0709764
-0.00250942 -0.0201036 0.0706201
-0.00206032 -0.0198705 0.0701976
-0.00160786 -0.0196309 0.0700194
-0.00115662 -0.0193927 0.0698051
-0.00071122 -0.0191622 0.0693508
-0.000267558 -0.018933 0.0688773
0.000174572 -0.0187047 0.0683988
0.000614161 -0.0184786 0.067876
0.00105426 -0.0182508 0.0674265
0.00149893 -0.0180168 0.0671785
0.00194219 -0.017784 0.0669073
0.00238388 -0.0175525 0.0666117
0.0028205 -0.017326 0.0661907
0.00325446 -0.0171018 0.065728
0.00368774 -0.0168776 0.0652839
0.00412145 -0.0166523 0.064885
0.00455713 -0.0164244 0.0645652
0.00499935 -0.0161896 0.0644268
0.00544113 -0.0159551 0.0642863
0.00588247 -0.0157209 0.0641456
0.00632486 -0.0154855 0.0640363
0.00677139 -0.015246 0.0640208
0.00722146 -0.0150033 0.0640793
0.00767209 -0.0147602 0.0641443
0.00812415 -0.0145158 0.0642329
0.00856792 -0.014279 0.0641594
0.00900437 -0.0140485 0.0639557
0.00943489 -0.0138231 0.0636553
0.0098627 -0.0135997 0.0633232
0.0102746 -0.0133896 0.0627373
0.0106766 -0.0131875 0.0620149
0.0110749 -0.0129878 0.0612681
0.0114673 -0.0127924 0.0604627
0.0118596 -0.0125963 0.0596918
0.0122618 -0.0123915 0.0591052
0.0126782 -0.0121747 0.058751
0.0130979 -0.0119549 0.0584612
0.0135219 -0.0117313 0.0582432
0.0139558 -0.0114998 0.0581713
0.0143941 -0.0112647 0.0581613
0.0148327 -0.0110293 0.0581543
0.0152755 -0.0107907 0.0582026
0.0157185 -0.0105519 0.0582519
0.0161666 -0.0103093 0.0583621
0.016618 -0.0100642 0.058509
0.0170728 -0.00981667 0.0586901
0.0175254 -0.00957093 0.0588386
0.0179775 -0.00932556 0.0589773
0.0184274 -0.00908199 0.0590851
0.0188779 -0.00883805 0.0591956
0.019335 -0.00858931 0.0593746
0.0197905 -0.00834185 0.0595304
0.0202514 -0.00809045 0.0597395
0.0207095 -0.00784126 0.0599119
0.0211652 -0.00759397 0.0600534
0.0216217 -0.00734621 0.0601976
0.0220871 -0.00709198 0.0604285
0.0225486 -0.00684075 0.0606127
0.0230131 -0.00658747 0.0608207
0.0234958 -0.00632123 0.0611978
0.023978 -0.00605549 0.0615604
0.024473 -0.00578086 0.0620317
0.0249693 -0.00550559 0.0625004
0.0254753 -0.00522357 0.0630482
0.0259735 -0.00494744 0.0635089
0.0264804 -0.00466535 0.064034
0.0269936 -0.00437916 0.0646012
0.0275159 -0.0040869 0.0652301
0.0280338 -0.00379792 0.0658081
0.0285627 -0.00350166 0.0664625
0.0290908 -0.00320624 0.0670937
0.0296219 -0.00290905 0.0677327
0.0301743 -0.00259741 0.0685309
0.0307306 -0.00228347 0.0693405
-0.0101094 -0.0234622 0.077095
-0.00963807 -0.0232258 0.0762939
-0.00917075 -0.0229853 0.0757954
-0.00870525 -0.0227441 0.0753729
-0.00824151 -0.0224996 0.0751587
-0.0077783 -0.0222568 0.0748762
-0.00731592 -0.0220178 0.0744342
-0.00685517 -0.0217838 0.0737923
-0.00639613 -0.0215497 0.0731958
-0.00593841 -0.0213145 0.0726909
-0.00548156 -0.0210777 0.0722848
-0.00502454 -0.0208371 0.0720549
-0.00456617 -0.0205913 0.0720434
-0.00411011 -0.0203512 0.0718152
-0.00365569 -0.0201136 0.071506
-0.00320197 -0.0198762 0.0712084
-0.0027504 -0.0196417 0.0708267
-0.00230163 -0.0194109 0.0703402
-0.00184959 -0.0191729 0.070115
-0.00139925 -0.0189369 0.0698358
-0.000952016 -0.0187049 0.0694459
-0.000505366 -0.0184728 0.0690785
-5.92876e-05 -0.0182405 0.0687334
0.000382834 -0.0180127 0.0682713
0.000824532 -0.0177845 0.0678434
0.00126676 -0.0175547 0.0674778
0.00170885 -0.0173243 0.0671427
0.00214925 -0.0170953 0.0667857
0.00258557 -0.0168705 0.0663344
0.00301795 -0.0166493 0.0658075
0.00345054 -0.016427 0.0653284
0.00388334 -0.0162037 0.0648927
0.00431816 -0.0159775 0.0645425
0.00475831 -0.0157453 0.0643484
0.00519907 -0.015512 0.0641828
0.0056391 -0.0152794 0.06401
0.00607978 -0.0150459 0.0638636
0.00652589 -0.0148068 0.0638428
0.00697834 -0.0145616 0.0639556
0.00743179 -0.0143155 0.0640819
0.0078855 -0.0140693 0.0642049
0.00833249 -0.0138297 0.0641914
0.00877104 -0.0135978 0.0640208
0.00920373 -0.013371 0.0637527
0.00963251 -0.0131475 0.0634295
0.010047 -0.0129365 0.0628761
0.0104515 -0.0127339 0.0621814
0.0108539 -0.0125322 0.0614871
0.0112478 -0.0123374 0.0606891
0.011643 -0.0121406 0.0599468
0.0120462 -0.0119363 0.0593616
0.0124608 -0.0117218 0.058971
0.012875 -0.0115074 0.0585912
0.0132951 -0.0112877 0.0583106
0.0137229 -0.0110613 0.0581507
0.0141568 -0.0108299 0.0580791
0.0145909 -0.0105982 0.0580131
0.0150312 -0.0103615 0.0580303
0.0154696 -0.0101263 0.0580223
0.0159147 -0.00988568 0.0580994
0.0163629 -0.00964278 0.0582109
0.0168144 -0.00939726 0.0583595
0.0172663 -0.00915154 0.0585074
0.0177205 -0.00890421 0.0586755
0.0181726 -0.00865862 0.0588141
0.0186281 -0.00841055 0.0589851
0.0190876 -0.00815944 0.0591962
0.0195457 -0.00790959 0.0593841
0.0200091 -0.00765586 0.0596226
0.0204696 -0.00740438 0.059824
0.0209253 -0.00715681 0.0599665
0.0213867 -0.00690494 0.0601643
0.0218522 -0.00665019 0.0603971
0.0223166 -0.00639647 0.0606111
0.0227871 -0.00613828 0.0608793
0.0232733 -0.00586865 0.0612924
0.0237565 -0.0056014 0.0616651
0.024251 -0.00532623 0.0621327
0.0247433 -0.00505286 0.0625669
0.0252425 -0.00477476 0.063052
0.0257334 -0.00450298 0.0634494
0.0262329 -0.00422518 0.063912
0.0267412 -0.00394129 0.0644397
0.0272624 -0.00364849 0.0650669
0.0277764 -0.00336114 0.0656143
0.0283048 -0.00306377 0.0662719
0.0288314 -0.00276801 0.0668973
0.0293617 -0.00247007 0.0675353
0.0299172 -0.00215445 0.0683677
-0.0103454 -0.0230246 0.075558
-0.00988169 -0.0227765 0.0755203
-0.00941793 -0.0225289 0.075459
-0.00895374 -0.0222836 0.0752843
-0.00848979 -0.0220401 0.0750399
-0.00802638 -0.0217984 0.0747236
-0.00756378 -0.0215615 0.07422
-0.00710272 -0.0213278 0.0736084
-0.00664325 -0.0210933 0.0730727
-0.00618511 -0.0208579 0.0726063
-0.00572779 -0.0206208 0.0722339
-0.00527019 -0.020379 0.0720629
-0.004812 -0.020134 0.0720187
-0.00435573 -0.0198942 0.0717914
-0.00390061 -0.0196561 0.0715158
-0.0034461 -0.0194179 0.0712571
-0.00299352 -0.0191827 0.0709129
-0.00254371 -0.0189516 0.0704553
-0.00209127 -0.0187139 0.0702282
-0.00164047 -0.0184782 0.0699477
-0.00119194 -0.0182454 0.0695946
-0.000743924 -0.0180124 0.0692634
-0.000296466 -0.0177792 0.0689512
0.000146986 -0.0175511 0.0685127
0.000590085 -0.0173223 0.0681083
0.00103213 -0.0170941 0.067709
0.00147404 -0.0168651 0.0673445
0.00191395 -0.0166379 0.0669492
0.00234892 -0.016416 0.0664352
0.00277984 -0.016198 0.0658448
0.00321179 -0.0159778 0.065333
0.00364379 -0.0157564 0.0648649
0.00407903 -0.0155307 0.0645164
0.00451949 -0.0152985 0.0643257
0.00496051 -0.0150654 0.0641618
0.00540062 -0.0148331 0.0639873
0.00584011 -0.0146011 0.0638095
0.0062849 -0.0143635 0.0637596
0.00673736 -0.0141179 0.0638756
0.00719256 -0.0138698 0.064041
0.00764653 -0.0136231 0.0641706
0.00809674 -0.0133802 0.0642193
0.00853846 -0.0131457 0.0641042
0.0089749 -0.0129161 0.0638969
0.00940626 -0.012691 0.0636102
0.00982316 -0.012479 0.0630851
0.01023 -0.0122758 0.0624153
0.0106348 -0.0120737 0.061745
0.0110301 -0.0118795 0.0609501
0.0114264 -0.0116835 0.0602113
0.0118303 -0.01148 0.0596215
0.0122434 -0.0112679 0.0591959
0.0126542 -0.0110574 0.0587555
0.0130705 -0.0108416 0.0584135
0.0134942 -0.0106192 0.0581893
0.0139258 -0.0103899 0.0580833
0.0143577 -0.0101602 0.0579853
0.0147939 -0.00992686 0.0579481
0.0152278 -0.00969539 0.0578822
0.0156699 -0.00945706 0.0579232
0.0161128 -0.00921817 0.0579721
0.016561 -0.00897488 0.0580856
0.0170126 -0.00872907 0.0582342
0.0174692 -0.00847932 0.0584366
0.0179214 -0.00823331 0.0585799
0.0183813 -0.00798118 0.0588074
0.0188426 -0.00772815 0.059043
0.019303 -0.00747604 0.0592596
0.0197683 -0.00722021 0.0595229
0.0202314 -0.00696634 0.0597534
0.0206871 -0.00671832 0.0598989
0.0211491 -0.0064657 0.0601032
0.0216173 -0.00620825 0.0603668
0.0220872 -0.00594984 0.0606379
0.0225645 -0.00568588 0.0609749
0.0230572 -0.00541055 0.0614521
0.023544 -0.00513993 0.0618588
0.0240352 -0.0048663 0.0622949
0.0245235 -0.00459505 0.0626933
0.0250157 -0.00432125 0.0631148
0.0255002 -0.00405344 0.0634522
0.0259924 -0.00378 0.0638542
0.0264962 -0.00349833 0.064346
0.0270134 -0.00320712 0.064942
0.0275232 -0.00292165 0.065459
0.0280514 -0.00262307 0.066119
0.0285775 -0.00232636 0.0667453
0.0291073 -0.0020274 0.0673852
0.0296625 -0.00171029 0.0682207
-0.0105955 -0.0225608 0.0756215
-0.0101313 -0.0223133 0.0755529
-0.00966724 -0.0220661 0.0754717
-0.00920242 -0.0218224 0.0752321
-0.00873812 -0.02158 0.0749516
-0.00827442 -0.0213396 0.0746003
-0.00781145 -0.0211045 0.0740563
-0.00735007 -0.0208719 0.0734395
-0.00689033 -0.0206376 0.0729314
-0.00643178 -0.0204016 0.0725125
-0.00597405 -0.020164 0.0721815
-0.00551608 -0.0199213 0.0720488
-0.00505764 -0.0196757 0.0720267
-0.00460085 -0.0194354 0.0718254
-0.00414536 -0.0191975 0.0715541
-0.00369007 -0.0189585 0.0713302
-0.00323696 -0.0187235 0.0709927
-0.00278654 -0.018493 0.0705369
-0.0023337 -0.0182553 0.0703118
-0.00188191 -0.0180189 0.0700631
-0.00143219 -0.0177852 0.0697439
-0.000982321 -0.0175503 0.0694754
-0.000534264 -0.0173174 0.0691622
-8.94524e-05 -0.0170887 0.0687486
0.000353617 -0.0168615 0.0683139
0.000794646 -0.0166361 0.0678503
0.00123609 -0.0164089 0.0674494
0.0016746 -0.0161848 0.0669886
0.00210717 -0.0159676 0.06638
0.00253738 -0.015752 0.0657539
0.00296955 -0.0155326 0.0652392
0.00340104 -0.015313 0.0647467
0.00383864 -0.0150851 0.0644579
0.00428156 -0.0148505 0.0643268
0.00472398 -0.0146163 0.0641931
0.00516433 -0.0143841 0.064018
0.0056041 -0.0141523 0.0638408
0.00604903 -0.0139147 0.0637909
0.00649916 -0.0136713 0.0638563
0.00695464 -0.0134226 0.0640282
0.00740886 -0.0131753 0.0641644
0.00786066 -0.0129308 0.0642433
0.00830265 -0.0126962 0.0641298
0.00874259 -0.0124636 0.0639832
0.0091761 -0.0122371 0.063727
0.00959545 -0.0120241 0.0632338
0.0100062 -0.0118187 0.0626177
0.0104138 -0.0116156 0.0619776
0.0108119 -0.0114207 0.061212
0.0112093 -0.0112254 0.0604743
0.0116156 -0.0110212 0.0599074
0.0120257 -0.010813 0.0594234
0.0124348 -0.010605 0.0589469
0.0128494 -0.0103916 0.0585705
0.0132694 -0.0101732 0.0582858
0.013697 -0.00994768 0.0581196
0.0141306 -0.00971674 0.0580424
0.014569 -0.00948158 0.0580324
0.0149993 -0.0092534 0.0579159
0.0154389 -0.00901713 0.0579238
0.0158785 -0.00878096 0.05793
0.0163219 -0.00854154 0.0579839
0.0167691 -0.00829898 0.0580814
0.017228 -0.0080468 0.0583156
0.0176804 -0.0078002 0.0584648
0.0181424 -0.00754592 0.0587188
0.0186008 -0.00729468 0.0589242
0.0190582 -0.00704451 0.05911
0.0195206 -0.00679043 0.0593451
0.0199859 -0.00653422 0.0596034
0.020442 -0.00628555 0.0597558
0.0209066 -0.00603027 0.0599918
0.0213805 -0.00576782 0.0603162
0.0218593 -0.00550179 0.0606803
0.0223457 -0.00523002 0.0611094
0.0228425 -0.00495044 0.0616289
0.0233324 -0.00467667 0.0620652
0.0238226 -0.00440294 0.0624917
0.0243075 -0.0041336 0.0628566
0.0247902 -0.00386625 0.063188
0.0252709 -0.00360056 0.0634943
0.0257594 -0.00332919 0.0638628
0.0262563 -0.00305173 0.0642957
0.0267692 -0.00276244 0.0648585
0.0272783 -0.00247642 0.065373
0.0278063 -0.00217664 0.066035
0.028339 -0.00187358 0.0667233
0.0288832 -0.00156262 0.0674863
-0.0108508 -0.0220875 0.0761332
-0.0103843 -0.0218426 0.0759207
-0.00991795 -0.0215996 0.0756439
-0.00945213 -0.0213577 0.0753314
-0.00898673 -0.0211185 0.074926
-0.00852256 -0.0208796 0.0745363
-0.00805901 -0.0206471 0.0739168
-0.00759726 -0.0204159 0.0732878
-0.00713723 -0.0201812 0.07282
-0.00667833 -0.0199446 0.0724502
-0.00622018 -0.0197061 0.072165
-0.00576176 -0.019462 0.0720876
-0.00530337 -0.0192172 0.0720354
-0.00484659 -0.0189781 0.0718023
-0.00439084 -0.0187406 0.0715301
-0.00393499 -0.018501 0.0713371
-0.00348074 -0.0182644 0.0710606
-0.00302931 -0.0180331 0.0706406
-0.00257551 -0.0177944 0.0704503
-0.0021227 -0.017557 0.0702328
-0.00167193 -0.0173228 0.0699385
-0.001222 -0.017089 0.0696449
-0.000772723 -0.0168552 0.0693605
-0.000327093 -0.0166268 0.0689527
0.000116561 -0.0164002 0.068513
0.000556881 -0.0161775 0.0679939
0.000997861 -0.0159524 0.067552
0.00143499 -0.0157317 0.0670233
0.00186692 -0.015517 0.0663744
0.00229577 -0.0153049 0.0656882
0.00272823 -0.0150864 0.0651709
0.00316023 -0.0148673 0.0646831
0.00359823 -0.0146397 0.0643987
0.00404138 -0.0144051 0.0642716
0.00448514 -0.0141695 0.0641687
0.00492705 -0.0139359 0.064028
0.00536709 -0.0137043 0.063852
0.00581331 -0.0134653 0.0638282
0.00626332 -0.0132221 0.0638882
0.00671855 -0.0129731 0.0640558
0.00717134 -0.0127272 0.0641622
0.00762317 -0.0124824 0.0642417
0.00806536 -0.012248 0.0641286
0.00850567 -0.0120153 0.063986
0.00893964 -0.011789 0.0637328
0.00936285 -0.0115732 0.0633006
0.00977946 -0.0113634 0.0627744
0.0101917 -0.0111573 0.0622002
0.0105945 -0.0109596 0.0614976
0.0109948 -0.0107635 0.0607875
0.0114036 -0.0105584 0.0602439
0.0118125 -0.0103525 0.0597281
0.0122189 -0.0101484 0.0591959
0.0126303 -0.00993898 0.0587609
0.0130484 -0.00972296 0.0584412
0.0134739 -0.0094998 0.0582396
0.0139081 -0.00926852 0.058167
0.0143494 -0.00903093 0.0581918
0.0147843 -0.00879902 0.0581308
0.0152263 -0.00856073 0.0581652
0.015666 -0.00832461 0.0581668
0.0161094 -0.00808513 0.0582163
0.0165568 -0.00784236 0.0583119
0.0170141 -0.00759115 0.0585242
0.0174618 -0.00734833 0.0586141
0.0179187 -0.00709788 0.0588075
0.0183696 -0.00685258 0.0589255
0.0188192 -0.00660849 0.059025
0.0192763 -0.00635836 0.0592028
0.019741 -0.00610198 0.0594591
0.0201971 -0.00585298 0.0596134
0.020667 -0.00559275 0.0599093
0.0211493 -0.00532276 0.0603245
0.0216399 -0.00504636 0.0608118
0.0221335 -0.00476803 0.0613137
0.0226339 -0.00448456 0.0618691
0.0231233 -0.0042103 0.0623001
0.0236101 -0.00393846 0.062693
0.0240886 -0.00367355 0.0629943
0.0245648 -0.00341058 0.0632662
0.0250456 -0.00314426 0.0635724
0.0255304 -0.00287506 0.0639071
0.0260237 -0.00259941 0.0643105
0.0265322 -0.00231235 0.0648375
0.0270409 -0.00202561 0.0653499
0.0275683 -0.00172483 0.0660124
0.0281017 -0.00141985 0.0667096
-0.0111061 -0.0216139 0.0765776
-0.0106371 -0.0213727 0.0762035
-0.0101688 -0.0211329 0.0757941
-0.00970192 -0.0208931 0.0754057
-0.00923558 -0.0206562 0.0749312
-0.0087706 -0.0204202 0.0744494
-0.00830649 -0.0201896 0.0737953
-0.00784443 -0.0199579 0.0732158
-0.00738407 -0.0197229 0.0727851
-0.00692478 -0.0194856 0.0724572
-0.00646611 -0.0192453 0.0722419
-0.0060073 -0.0190003 0.0721934
-0.00554903 -0.0187577 0.0720729
-0.0050924 -0.0185208 0.0717769
-0.00463663 -0.0182846 0.0714775
-0.00418067 -0.0180453 0.0712812
-0.00372585 -0.0178081 0.0710346
-0.00327361 -0.0175762 0.0706475
-0.00281953 -0.0173377 0.0704596
-0.00236594 -0.0170993 0.0702743
-0.0019148 -0.0168654 0.0699803
-0.00146449 -0.016632 0.0696858
-0.0010142 -0.0163973 0.0694333
-0.00056662 -0.0161667 0.0690897
-0.00012217 -0.0159403 0.0686574
0.000319526 -0.0157171 0.0681645
0.000760205 -0.015494 0.0676876
0.00119614 -0.0152769 0.0670915
0.00162685 -0.0150659 0.0663778
0.00205607 -0.0148551 0.0656837
0.00248917 -0.0146371 0.0651712
0.00292181 -0.0144185 0.0646874
0.00336012 -0.0141911 0.0644041
0.00380342 -0.0139567 0.064276
0.00424742 -0.0137211 0.0641751
0.00468981 -0.0134873 0.0640414
0.00513037 -0.0132556 0.0638723
0.00557655 -0.0130167 0.0638446
0.00602605 -0.0127739 0.0638927
0.0064794 -0.0125269 0.0640202
0.00693023 -0.0122828 0.0640865
0.00738195 -0.012038 0.064166
0.00782418 -0.0118037 0.0640525
0.00826473 -0.0115711 0.0639126
0.00870029 -0.0113436 0.0636866
0.00912723 -0.0111249 0.0633157
0.00955012 -0.0109098 0.0628918
0.00996734 -0.0107 0.0623912
0.0103751 -0.010499 0.0617563
0.0107779 -0.0103022 0.0610711
0.0111875 -0.0100977 0.0605263
0.011594 -0.00989566 0.0599567
0.012001 -0.00969225 0.0594225
0.0124108 -0.00948548 0.0589532
0.0128274 -0.0092718 0.0586018
0.0132534 -0.00904876 0.0584002
0.0136921 -0.00881356 0.0583849
0.0141346 -0.00857485 0.0584222
0.0145733 -0.00833976 0.0584052
0.0150202 -0.00809711 0.0584981
0.0154623 -0.00785898 0.0585238
0.0159044 -0.00762079 0.0585492
0.0163521 -0.00737763 0.0586434
0.016807 -0.00712835 0.0588203
0.0172497 -0.00688996 0.0588443
0.0177012 -0.00664381 0.0589716
0.018149 -0.006401 0.0590518
0.018596 -0.00615909 0.0591182
0.0190525 -0.005909 0.0592901
0.0195144 -0.00565453 0.0595151
0.0199701 -0.00540562 0.0596638
0.0204429 -0.00514235 0.0599921
0.0209287 -0.00486851 0.0604456
0.0214261 -0.00458552 0.0610042
0.021926 -0.00430088 0.0615717
0.0224269 -0.00401599 0.0621313
0.0229161 -0.00374112 0.0625586
0.0233994 -0.00347143 0.0629154
0.0238718 -0.0032108 0.0631575
0.024345 -0.00294974 0.0634015
0.0248255 -0.00268308 0.0637031
0.025307 -0.00241588 0.0640082
0.0257969 -0.00214216 0.0643805
0.0262985 -0.00185956 0.0648456
0.0268028 -0.00157513 0.0653245
0.0273226 -0.00127884 0.0659261
0.027846 -0.000980282 0.0665408
-0.0118366 -0.0213755 0.0776199
-0.0113626 -0.0211383 0.0770488
-0.010891 -0.0209006 0.0765341
-0.0104204 -0.0206647 0.0759778
-0.00995189 -0.0204281 0.075482
-0.00948434 -0.0201943 0.0749115
-0.00901846 -0.0199615 0.0743396
-0.00855403 -0.0197311 0.0737132
-0.00809169 -0.0194985 0.0731954
-0.00763097 -0.019262 0.072834
-0.00717127 -0.0190245 0.0725217
-0.00671207 -0.0187818 0.072393
-0.00625298 -0.018537 0.0723332
-0.00579452 -0.0182956 0.0721743
-0.00533783 -0.0180613 0.0718161
-0.00488177 -0.0178256 0.0715091
-0.0044261 -0.0175886 0.0712542
-0.00397104 -0.0173518 0.0710044
-0.00351845 -0.0171204 0.07062
-0.00306408 -0.0168818 0.0704394
-0.00261031 -0.0166438 0.0702531
-0.00215794 -0.016408 0.0700145
-0.00170729 -0.016175 0.0697197
-0.00125649 -0.0159402 0.0694765
-0.000807184 -0.0157074 0.0691942
-0.000361252 -0.0154799 0.0687998
8.11507e-05 -0.0152573 0.068308
0.000521768 -0.0150359 0.0678033
0.000957355 -0.0148213 0.0671675
0.00138699 -0.014614 0.0663921
0.00181689 -0.0144042 0.0656981
0.00225062 -0.0141867 0.0651893
0.00268371 -0.0139687 0.0647063
0.00312229 -0.0137419 0.0644197
0.0035665 -0.0135066 0.0643118
0.00401067 -0.0132711 0.0642096
0.00445347 -0.0130372 0.0640806
0.00489566 -0.0128039 0.0639446
0.00534219 -0.0125648 0.0639199
0.00578777 -0.0123268 0.0638756
0.00623788 -0.0120833 0.0639329
0.00668697 -0.0118412 0.0639638
0.00713694 -0.0115981 0.0640112
0.00757798 -0.0113653 0.0638749
0.00801951 -0.0111318 0.0637555
0.00845658 -0.0109031 0.0635577
0.00888692 -0.0106813 0.0632467
0.00931431 -0.0104624 0.0628977
0.00973637 -0.0102486 0.0624737
0.0101487 -0.0100444 0.0619044
0.0105555 -0.00984512 0.0612722
0.0109659 -0.00964125 0.0607265
0.0113713 -0.00944169 0.0601279
0.011781 -0.00923698 0.0596229
0.0121931 -0.00902918 0.0591768
0.0126082 -0.00881786 0.058794
0.0130364 -0.00859321 0.0586173
0.0134803 -0.00835324 0.0586691
0.0139262 -0.00811143 0.0587464
0.0143699 -0.00787178 0.0587907
0.0148222 -0.00762408 0.0589473
0.0152682 -0.00738241 0.059016
0.0157137 -0.0071415 0.0590731
0.0161601 -0.00689964 0.0591411
0.0166102 -0.0066546 0.0592505
0.01705 -0.00641889 0.0592322
0.0174939 -0.00617966 0.0592612
0.0179344 -0.0059433 0.0592511
0.0183784 -0.00570399 0.0592798
0.0188298 -0.00545815 0.0593914
0.0192888 -0.00520578 0.0595834
0.0197442 -0.0049568 0.0597291
0.0202172 -0.00469272 0.0600596
0.020706 -0.00441537 0.0605467
0.0212095 -0.00412606 0.0611707
0.0217099 -0.00383984 0.0617447
0.0222104 -0.00355413 0.0623015
0.0226988 -0.00327909 0.0627208
0.0231788 -0.00301145 0.0630451
0.0236483 -0.0027528 0.0632577
0.0241216 -0.0024912 0.0635021
0.0246049 -0.00222161 0.0638313
0.0250867 -0.00195354 0.0641387
0.0255736 -0.0016816 0.0644818
0.0260677 -0.00140396 0.064885
0.0265673 -0.00112234 0.0653232
0.0270729 -0.000836267 0.0658007
0.0275849 -0.00054544 0.0663235
-0.0125646 -0.0211463 0.0782038
-0.0120936 -0.0209005 0.0779817
-0.0116181 -0.0206646 0.0773776
-0.0111448 -0.0204287 0.076808
-0.0106723 -0.0201959 0.0761606
-0.0102021 -0.0199627 0.0755596
-0.00973341 -0.0197315 0.0749213
-0.00926695 -0.0194995 0.0743465
-0.00880195 -0.0192699 0.0737218
-0.00833913 -0.0190377 0.0732141
-0.00787806 -0.0188013 0.0728647
-0.00741797 -0.0185633 0.0725826
-0.0069585 -0.0183206 0.0724543
-0.00649927 -0.018077 0.07236
-0.0060405 -0.017835 0.072224
-0.0055834 -0.0176012 0.0718595
-0.00512718 -0.0173671 0.0715195
-0.00467152 -0.0171318 0.0712286
-0.00421631 -0.0168954 0.0709754
-0.00376335 -0.0166645 0.0705911
-0.00330875 -0.016426 0.0704145
-0.00285477 -0.0161882 0.0702296
-0.00240167 -0.0159515 0.0700212
-0.00195073 -0.0157189 0.0697247
-0.00149964 -0.0154844 0.0694819
-0.00104927 -0.0152504 0.0692364
-0.000602112 -0.0150218 0.0688768
-0.000158984 -0.0147994 0.0683927
0.000282199 -0.0145788 0.0678858
0.000717678 -0.0143664 0.06722
0.00114869 -0.0141593 0.0664642
0.00157934 -0.0139502 0.0657731
0.00201384 -0.0137331 0.0652696
0.0024486 -0.0135141 0.0648198
0.00288745 -0.0132878 0.064528
0.00332964 -0.0130559 0.0643533
0.0037737 -0.012821 0.0642428
0.00421671 -0.0125872 0.0641128
0.00465941 -0.0123536 0.0639831
0.00510622 -0.0121143 0.0639627
0.00555068 -0.0118779 0.063888
0.00599678 -0.0116394 0.0638536
0.00644412 -0.0113993 0.0638484
0.00689257 -0.0111579 0.0638657
0.00733242 -0.0109267 0.0637063
0.00777395 -0.0106934 0.0635886
0.00821368 -0.0104619 0.0634427
0.00864728 -0.0102372 0.0631894
0.00907859 -0.0100146 0.0629073
0.0095034 -0.00979881 0.0625243
0.00991967 -0.00959171 0.062013
0.0103287 -0.00939161 0.0614051
0.0107395 -0.00918873 0.0608548
0.0111441 -0.00899145 0.0602325
0.0115563 -0.00878538 0.0597567
0.0119709 -0.00857627 0.0593379
0.0123886 -0.00836323 0.0589855
0.0128197 -0.0081363 0.0588432
0.0132679 -0.00789199 0.0589526
0.0137184 -0.00764569 0.0590877
0.0141672 -0.00740114 0.0591951
0.0146224 -0.00715056 0.0593831
0.0150717 -0.00690587 0.0594862
0.0155184 -0.00666387 0.0595505
0.0159635 -0.00642343 0.0595924
0.0164092 -0.00618255 0.0596389
0.0168467 -0.00594935 0.0595832
0.0172836 -0.00571664 0.0595223
0.0177196 -0.00548472 0.059452
0.0181614 -0.00524745 0.0594512
0.0186103 -0.00500368 0.0595321
0.0190669 -0.0047532 0.059695
0.0195249 -0.00450165 0.0598677
0.0200003 -0.00423475 0.0602245
0.0204921 -0.00395383 0.060744
0.0209952 -0.00366344 0.0613669
0.0214952 -0.00337655 0.0619361
0.0219895 -0.00309508 0.0624307
0.0224746 -0.00282206 0.0628175
