ply
format ascii 1.0
element vertex 1535
property float x
property float y
property float z
end_header
-0.0222243 -0.0389763 0.226401
-0.0218445 -0.0392166 0.225978
-0.0214631 -0.0394532 0.225524
-0.0210811 -0.0396868 0.225046
-0.0207071 -0.0399269 0.224651
-0.0203368 -0.0401691 0.224289
-0.0199659 -0.0404088 0.223909
-0.0195975 -0.0406493 0.223545
-0.0192315 -0.0408908 0.2232
-0.0188635 -0.0411279 0.222816
-0.0185006 -0.0413694 0.222488
-0.0181445 -0.0416182 0.22224
-0.0177928 -0.0418715 0.222042
-0.0174434 -0.0421269 0.221871
-0.0170931 -0.04238 0.22168
-0.0167465 -0.0426372 0.221534
-0.0164019 -0.0428966 0.22141
-0.0160613 -0.0431615 0.221343
-0.0157229 -0.0434297 0.22131
-0.0153834 -0.0436955 0.221254
-0.0150404 -0.0439549 0.22114
-0.0147091 -0.0442342 0.221211
-0.0143705 -0.0445003 0.221161
-0.0140312 -0.0447649 0.2211
-0.0136926 -0.0450301 0.221043
-0.0133499 -0.0452866 0.220914
-0.0129968 -0.04552 0.220585
-0.0126513 -0.0457672 0.220379
-0.0123095 -0.0460213 0.22024
-0.0119714 -0.0462824 0.220161
-0.0116383 -0.0465551 0.220181
-0.0113085 -0.0468357 0.220268
-0.0109833 -0.047129 0.220461
-0.0106574 -0.0474218 0.220644
-0.0103387 -0.0477361 0.221002
-0.0100192 -0.0480517 0.221363
-0.00969282 -0.0483499 0.221581
-0.0093613 -0.048634 0.221681
-0.00903166 -0.048925 0.221835
-0.0086965 -0.0491988 0.221852
-0.00836189 -0.0494744 0.221883
-0.00802971 -0.0497591 0.221983
-0.00769847 -0.0500489 0.222124
-0.00736402 -0.0503267 0.222169
-0.00703094 -0.0506112 0.222265
-0.00669935 -0.0509029 0.222413
-0.00636818 -0.0511989 0.222591
-0.00603682 -0.0514958 0.222774
-0.00570687 -0.0518031 0.22303
-0.00537655 -0.0521114 0.223288
-0.0227169 -0.0381625 0.227305
-0.022354 -0.0384236 0.227098
-0.021981 -0.0386735 0.226765
-0.0215965 -0.0389102 0.22629
-0.0212106 -0.0391429 0.225779
-0.0208216 -0.0393699 0.225217
-0.0204386 -0.0396005 0.22471
-0.0200581 -0.0398314 0.224216
-0.0196829 -0.040066 0.223777
-0.0193089 -0.0402996 0.223333
-0.0189412 -0.0405387 0.22296
-0.0185736 -0.0407757 0.222573
-0.0182133 -0.0410201 0.222271
-0.0178579 -0.0412693 0.222026
-0.0175082 -0.0415249 0.221851
-0.0171612 -0.0417834 0.221709
-0.0168131 -0.0420392 0.221543
-0.0164685 -0.0422992 0.221425
-0.0161258 -0.0425613 0.221327
-0.0157871 -0.0428292 0.221288
-0.0154494 -0.0430984 0.221261
-0.0151118 -0.0433674 0.221237
-0.0147676 -0.0436247 0.221102
-0.0144329 -0.0438981 0.221119
-0.0140908 -0.0441576 0.221006
-0.0137469 -0.0444129 0.220861
-0.013404 -0.0446687 0.220721
-0.0130617 -0.0449249 0.22059
-0.0127109 -0.0451618 0.220289
-0.0123674 -0.0454125 0.220115
-0.0120287 -0.0456725 0.220025
-0.011692 -0.0459362 0.21997
-0.0113591 -0.0462086 0.219989
-0.0110306 -0.0464921 0.220103
-0.0107057 -0.0467858 0.220301
-0.0103812 -0.0470823 0.220518
-0.0100625 -0.0473971 0.220884
-0.00974383 -0.0477152 0.221271
-0.00941726 -0.0480131 0.221487
-0.00908681 -0.0483002 0.221613
-0.00875712 -0.0485913 0.221769
-0.00842196 -0.048865 0.221786
-0.00808611 -0.0491366 0.221787
-0.00775371 -0.0494203 0.22188
-0.00742165 -0.0497066 0.221993
-0.00708635 -0.0499809 0.222014
-0.00675333 -0.0502648 0.222106
-0.00642081 -0.0505524 0.222225
-0.0060888 -0.0508441 0.222375
-0.00575755 -0.0511409 0.222558
-0.0054275 -0.0514475 0.222814
-0.00509773 -0.0517585 0.223095
-0.02247 -0.037854 0.227631
-0.0221084 -0.0381173 0.227441
-0.0217316 -0.0383645 0.227067
-0.0213471 -0.0386021 0.22659
-0.0209587 -0.0388332 0.226051
-0.0205652 -0.039056 0.225431
-0.0201735 -0.0392779 0.224814
-0.0197825 -0.0394973 0.224185
-0.0193997 -0.0397231 0.223638
-0.0190201 -0.0399498 0.223117
-0.0186514 -0.040187 0.222721
-0.0182865 -0.040427 0.222361
-0.0179286 -0.0406741 0.222087
-0.0175753 -0.0409258 0.221865
-0.0172277 -0.041184 0.221716
-0.0168828 -0.0414451 0.221598
-0.0165355 -0.0417018 0.22144
-0.0161931 -0.041965 0.221351
-0.0158538 -0.0422325 0.221305
-0.0155168 -0.0425032 0.221294
-0.0151809 -0.0427755 0.221298
-0.0148436 -0.0430453 0.221276
-0.0145007 -0.043305 0.221163
-0.0141616 -0.0435708 0.221107
-0.0138145 -0.0438211 0.220907
-0.013466 -0.0440671 0.220675
-0.0131199 -0.0443162 0.220475
-0.0127757 -0.0445674 0.220296
-0.012427 -0.0448076 0.220023
-0.0120856 -0.0450619 0.219883
-0.0117487 -0.045325 0.219821
-0.0114136 -0.0455918 0.219791
-0.0110806 -0.0458636 0.219809
-0.0107523 -0.0461472 0.219924
-0.0104273 -0.0464405 0.220123
-0.010104 -0.04674 0.220367
-0.00978425 -0.0470517 0.220711
-0.00946538 -0.0473693 0.221099
-0.00913849 -0.0476661 0.22131
-0.00880785 -0.0479525 0.221433
-0.00847732 -0.0482404 0.221566
-0.00814333 -0.0485171 0.221606
-0.00780757 -0.0487883 0.221605
-0.00747519 -0.0490714 0.221696
-0.0071423 -0.0493542 0.221785
-0.006808 -0.0496316 0.22183
-0.00647512 -0.0499155 0.221923
-0.00614261 -0.0502027 0.222042
-0.00581132 -0.0504972 0.222214
-0.00548054 -0.0507962 0.222416
-0.00515037 -0.0511028 0.222675
-0.00482048 -0.051414 0.222961
-0.0225882 -0.0372834 0.228188
-0.0222211 -0.0375434 0.227945
-0.0218604 -0.0378084 0.227769
-0.0214809 -0.038054 0.227364
-0.0210987 -0.0382949 0.226914
-0.0207085 -0.038525 0.22635
-0.0203105 -0.0387441 0.225674
-0.0199103 -0.0389574 0.224946
-0.0195089 -0.0391655 0.224178
-0.0191178 -0.0393816 0.223516
-0.0187347 -0.0396039 0.22294
-0.0183671 -0.0398423 0.222552
-0.0180051 -0.0400857 0.222225
-0.0176499 -0.040336 0.221982
-0.0172984 -0.0405899 0.221781
-0.0169513 -0.0408486 0.221633
-0.0166065 -0.0411098 0.221518
-0.0162612 -0.0413694 0.221388
-0.0159225 -0.0416382 0.221352
-0.0155853 -0.041909 0.221339
-0.0152485 -0.0421802 0.22133
-0.014912 -0.042452 0.221328
-0.0145743 -0.0427213 0.221301
-0.0142316 -0.0429815 0.221188
-0.0138896 -0.0432422 0.221084
-0.013541 -0.0434897 0.220856
-0.0131895 -0.0437296 0.220561
-0.0128408 -0.043973 0.220308
-0.0124955 -0.0442214 0.220102
-0.0121489 -0.0444654 0.219862
-0.0118094 -0.0447232 0.219752
-0.011474 -0.0449896 0.219719
-0.0111401 -0.0452589 0.219712
-0.0108072 -0.0455308 0.219729
-0.0104775 -0.045811 0.21982
-0.0101514 -0.0461012 0.219992
-0.0098285 -0.0464019 0.220252
-0.00950625 -0.0467067 0.220541
-0.00918516 -0.0470177 0.220877
-0.00885804 -0.0473133 0.221082
-0.00852763 -0.0475994 0.221204
-0.00819534 -0.0478811 0.22129
-0.00786159 -0.0481576 0.221332
-0.00752715 -0.0484318 0.221354
-0.0071947 -0.0487145 0.221446
-0.00686305 -0.0490009 0.221564
-0.00653052 -0.049285 0.221664
-0.00619851 -0.0495725 0.221788
-0.00586618 -0.0498599 0.221909
-0.00553472 -0.0501539 0.22208
-0.00520308 -0.0504492 0.222258
-0.00487306 -0.0507559 0.222517
-0.00454453 -0.0510766 0.222879
-0.0223317 -0.0369648 0.228422
-0.0219651 -0.0372261 0.228185
-0.0216045 -0.0374919 0.228012
-0.0212233 -0.0377365 0.227587
-0.0208415 -0.0379785 0.22714
-0.0204516 -0.0382098 0.226577
-0.0200522 -0.0384281 0.225878
-0.0196478 -0.0386375 0.225092
-0.0192399 -0.0388388 0.224231
-0.0188422 -0.0390476 0.223477
-0.0184553 -0.0392653 0.222841
-0.0180867 -0.0395023 0.222432
-0.017726 -0.0397471 0.222117
-0.0173749 -0.0400027 0.221928
-0.0170275 -0.040262 0.221781
-0.0166802 -0.0405207 0.221632
-0.0163356 -0.0407822 0.221515
-0.0159918 -0.0410443 0.221408
-0.015653 -0.0413132 0.221374
-0.0153161 -0.0415846 0.221365
-0.0149777 -0.0418536 0.221333
-0.0146395 -0.0421224 0.2213
-0.0142996 -0.0423881 0.221237
-0.0139542 -0.0426434 0.221075
-0.0136071 -0.0428945 0.220878
-0.0132594 -0.0431429 0.220657
-0.0129079 -0.0433821 0.220354
-0.0125586 -0.0436234 0.22008
-0.0122148 -0.0438742 0.219897
-0.0118724 -0.0441266 0.219731
-0.0115345 -0.0443875 0.219648
-0.0112005 -0.0446569 0.219641
-0.0108677 -0.0449288 0.219658
-0.0105348 -0.0452006 0.219675
-0.010204 -0.0454779 0.21974
-0.00987554 -0.0457618 0.219859
-0.00954996 -0.0460551 0.220058
-0.00922432 -0.0463499 0.220268
-0.0089001 -0.0466507 0.220522
-0.0085713 -0.0469396 0.220675
-0.00824007 -0.0472218 0.220771
-0.00790848 -0.0475033 0.220857
-0.00757588 -0.0477824 0.220925
-0.00724345 -0.0480625 0.221
-0.00691335 -0.0483522 0.221148
-0.00658337 -0.0486448 0.221319
-0.00625185 -0.0489324 0.221447
-0.00592138 -0.0492262 0.221623
-0.00558917 -0.0495143 0.221752
-0.00525777 -0.0498082 0.221925
-0.0049267 -0.0501063 0.222125
-0.00459693 -0.0504157 0.22241
-0.00426929 -0.0507432 0.222826
-0.0220667 -0.0366383 0.228564
-0.0217006 -0.0369006 0.228333
-0.0213417 -0.0371686 0.228181
-0.0209612 -0.0374145 0.22776
-0.0205816 -0.0376593 0.227339
-0.0201921 -0.0378918 0.226781
-0.0197933 -0.0381115 0.226081
-0.0193854 -0.0383177 0.225242
-0.0189716 -0.0385129 0.224297
-0.0185699 -0.0387173 0.22348
-0.0181793 -0.0389308 0.222787
-0.0178092 -0.039166 0.222351
-0.0174477 -0.0394096 0.222018
-0.0171001 -0.0396697 0.221876
-0.0167547 -0.0399318 0.221758
-0.0164078 -0.040191 0.221612
-0.0160632 -0.0404527 0.221497
-0.0157222 -0.0407189 0.22143
-0.0153819 -0.0409856 0.22137
-0.0150434 -0.0412547 0.221336
-0.0147035 -0.0415212 0.221278
-0.0143633 -0.0417868 0.221213
-0.0140189 -0.0420445 0.221069
-0.0136733 -0.042299 0.2209
-0.013323 -0.0425434 0.220634
-0.0129755 -0.0427915 0.220412
-0.0126251 -0.0430319 0.220118
-0.0122789 -0.0432787 0.219892
-0.0119359 -0.0435306 0.219718
-0.0115976 -0.0437911 0.219628
-0.0112611 -0.044055 0.21957
-0.0109283 -0.0443269 0.219587
-0.0105954 -0.0445988 0.219604
-0.0102626 -0.0448707 0.219621
-0.00993054 -0.045145 0.219661
-0.00959983 -0.0454228 0.219728
-0.00927094 -0.0457065 0.219847
-0.00894207 -0.0459912 0.219972
-0.00861491 -0.0462821 0.220147
-0.00828453 -0.0465643 0.220248
-0.00795267 -0.0468427 0.220316
-0.00762233 -0.0471267 0.220428
-0.00729111 -0.0474087 0.220522
-0.00696076 -0.047695 0.22065
-0.00663247 -0.0479908 0.220852
-0.00630493 -0.0482929 0.221104
-0.00597501 -0.0485869 0.221286
-0.0056458 -0.0488872 0.221515
-0.0053142 -0.0491781 0.221668
-0.00498265 -0.0494718 0.22184
-0.00465144 -0.0497694 0.222039
-0.00432191 -0.0500813 0.222345
-0.0039946 -0.0504128 0.222794
-0.0217961 -0.0363068 0.228646
-0.0214303 -0.0365696 0.228417
-0.0210716 -0.0368382 0.228266
-0.0206914 -0.0370849 0.227847
-0.020312 -0.0373303 0.227426
-0.019923 -0.0375637 0.226866
-0.0195228 -0.0377824 0.226143
-0.0191138 -0.0379878 0.22528
-0.0187009 -0.0381843 0.224335
-0.0182981 -0.0383877 0.223494
-0.0179064 -0.0386 0.222775
-0.0175361 -0.0388351 0.222331
-0.0171756 -0.0390801 0.22201
-0.0168285 -0.0393409 0.22187
-0.0164851 -0.0396058 0.221781
-0.0161403 -0.0398682 0.221667
-0.0157975 -0.0401326 0.221576
-0.0154546 -0.0403965 0.221483
-0.0151122 -0.0406602 0.221391
-0.0147719 -0.0409267 0.221328
-0.0144302 -0.0411904 0.221242
-0.0140874 -0.0414516 0.221128
-0.0137402 -0.0417042 0.220933
-0.0133931 -0.0419556 0.220731
-0.0130413 -0.0421968 0.220431
-0.0126928 -0.0424422 0.220181
-0.0123444 -0.0426857 0.219915
-0.0120015 -0.0429385 0.219746
-0.0116608 -0.0431945 0.219609
-0.0113239 -0.0434581 0.219548
-0.0109887 -0.0437249 0.219516
-0.0106559 -0.0439968 0.219533
-0.010323 -0.0442687 0.21955
-0.00999015 -0.0445406 0.219567
-0.00965729 -0.0448124 0.219584
-0.00932543 -0.045087 0.219624
-0.00899446 -0.0453646 0.21969
-0.00866352 -0.0456427 0.219761
-0.00833342 -0.0459238 0.219855
-0.00800207 -0.046202 0.219924
-0.0076698 -0.0464772 0.219967
-0.00733978 -0.046761 0.22008
-0.00701038 -0.0470486 0.220226
-0.00668275 -0.0473443 0.220434
-0.00635588 -0.0476464 0.220693
-0.0060299 -0.0479551 0.221
-0.00570108 -0.0482548 0.22123
-0.00537177 -0.0485549 0.221459
-0.00503988 -0.0488454 0.22161
-0.00470831 -0.0491391 0.221784
-0.00437687 -0.0494363 0.221981
-0.00404695 -0.0497477 0.222287
-0.00371913 -0.0500789 0.222739
-0.0215232 -0.035973 0.2287
-0.0211587 -0.0362374 0.228486
-0.0207981 -0.0365044 0.228315
-0.0204203 -0.0367539 0.22792
-0.0200392 -0.0369981 0.227473
-0.0196503 -0.0372319 0.226908
-0.0192504 -0.0374512 0.226182
-0.0188422 -0.0376578 0.225319
-0.0184323 -0.0378581 0.224404
-0.0180328 -0.0380657 0.223597
-0.01764 -0.0382771 0.222857
-0.0172683 -0.0385107 0.222387
-0.0169056 -0.0387532 0.222032
-0.0165565 -0.0390116 0.221863
-0.0162132 -0.0392767 0.221774
-0.0158707 -0.0395425 0.221694
-0.0155298 -0.0398098 0.221631
-0.0151869 -0.0400739 0.221539
-0.0148412 -0.0403331 0.221395
-0.014499 -0.0405965 0.2213
-0.0141558 -0.0408578 0.221185
-0.0138092 -0.0411124 0.221003
-0.0134596 -0.0413604 0.220759
-0.0131098 -0.0416065 0.220502
-0.0127568 -0.0418445 0.220167
-0.0124075 -0.0420874 0.219892
-0.012062 -0.0423357 0.219673
-0.0117223 -0.0425945 0.21956
-0.0113856 -0.0428586 0.2195
-0.0110503 -0.0431254 0.219469
-0.0107165 -0.043395 0.219462
-0.0103836 -0.0436668 0.219479
-0.0100508 -0.0439387 0.219496
-0.00971685 -0.044208 0.21949
-0.00938301 -0.0444771 0.219481
-0.00904931 -0.0447462 0.219473
-0.00871633 -0.0450176 0.219488
-0.00838374 -0.0452898 0.219507
-0.00805195 -0.0455646 0.219549
-0.00772071 -0.0458419 0.219614
-0.00738934 -0.0461193 0.219679
-0.00706043 -0.0464061 0.21982
-0.00673303 -0.0467 0.22002
-0.00640751 -0.0470043 0.220304
-0.00608196 -0.0473125 0.220617
-0.00575715 -0.0476274 0.220977
-0.00542884 -0.0479303 0.221235
-0.00509903 -0.0482299 0.221463
-0.0047675 -0.048523 0.221635
-0.0044351 -0.0488133 0.221782
-0.00410289 -0.0491073 0.221956
-0.00377266 -0.0494183 0.222261
-0.00344475 -0.0497515 0.222732
-0.0212428 -0.0356325 0.22867
-0.0208808 -0.0358994 0.228486
-0.0205183 -0.0361648 0.228286
-0.0201408 -0.0364146 0.227892
-0.019758 -0.0366572 0.227416
-0.0193693 -0.0368914 0.226846
-0.0189696 -0.037111 0.226114
-0.0185642 -0.0373207 0.225276
-0.0181612 -0.0375289 0.224441
-0.0177683 -0.0377445 0.223718
-0.017377 -0.0379582 0.22299
-0.0170037 -0.0381903 0.222492
-0.016639 -0.0384307 0.222106
-0.016288 -0.0386868 0.221906
-0.0159432 -0.0389503 0.221797
-0.0156027 -0.0392189 0.221744
-0.0152617 -0.0394866 0.221686
-0.0149189 -0.0397511 0.221594
-0.014569 -0.0400038 0.221377
-0.0142234 -0.0402621 0.221226
-0.0138789 -0.0405211 0.221085
-0.013531 -0.0407733 0.220875
-0.0131792 -0.041017 0.220586
-0.0128295 -0.0412627 0.220322
-0.0124756 -0.0414983 0.21996
-0.0121266 -0.0417409 0.21968
-0.0117832 -0.0419927 0.219492
-0.0114463 -0.0422567 0.219432
-0.011111 -0.0425236 0.219399
-0.0107781 -0.0427954 0.219415
-0.0104441 -0.0430648 0.219408
-0.0101112 -0.0433367 0.219425
-0.00977836 -0.0436086 0.219442
-0.00944357 -0.0438753 0.219411
-0.00910863 -0.0441413 0.219375
-0.00877387 -0.0444072 0.219337
-0.00843922 -0.044673 0.219302
-0.00810494 -0.0449393 0.219271
-0.0077724 -0.0452109 0.219287
-0.00744142 -0.045488 0.219352
-0.00711056 -0.0457658 0.219421
-0.00678405 -0.0460609 0.219638
-0.00645884 -0.0463638 0.219918
-0.00613462 -0.0466742 0.220257
-0.00581034 -0.0469887 0.220624
-0.00548565 -0.0473059 0.221006
-0.00515698 -0.0476089 0.221267
-0.00482684 -0.0479081 0.221494
-0.00449565 -0.0482042 0.22169
-0.00416295 -0.0484945 0.221838
-0.00383075 -0.0487912 0.222035
-0.00350025 -0.0491023 0.222341
-0.00317082 -0.0494282 0.222758
-0.00311718 -0.0500979 0.223297
-0.00284151 -0.0497662 0.223264
-0.0213194 -0.0350198 0.228763
-0.0209636 -0.035293 0.228656
-0.020603 -0.0355613 0.228484
-0.0202385 -0.035825 0.228259
-0.0198616 -0.0360756 0.227867
-0.0194789 -0.0363186 0.227388
-0.0190904 -0.0365531 0.226815
-0.0186916 -0.0367739 0.226081
-0.0182893 -0.0369872 0.225274
-0.017891 -0.0372008 0.224495
-0.0175028 -0.0374222 0.223827
-0.0171156 -0.0376412 0.223149
-0.0167424 -0.037874 0.222653
-0.0163777 -0.0381149 0.222263
-0.0160247 -0.038369 0.222034
-0.0156768 -0.0386286 0.221875
-0.0153343 -0.0388949 0.221796
-0.0149918 -0.0391607 0.221713
-0.0146475 -0.039423 0.221595
-0.0142946 -0.0396713 0.221326
-0.0139474 -0.039927 0.221145
-0.0136014 -0.0401832 0.220972
-0.0132524 -0.0404333 0.220739
-0.0128998 -0.0406752 0.220425
-0.0125515 -0.0409229 0.22018
-0.0121992 -0.0411611 0.219843
-0.0118524 -0.0414075 0.219596
-0.0115107 -0.0416626 0.21944
-0.0111753 -0.0419295 0.219406
-0.0108389 -0.042194 0.21935
-0.0105057 -0.0424653 0.21936
-0.0101706 -0.042732 0.219328
-0.00983787 -0.043004 0.219346
-0.00950504 -0.043276 0.219365
-0.00917036 -0.0435427 0.219331
-0.00883431 -0.0438055 0.219266
-0.00849841 -0.0440677 0.219196
-0.00816297 -0.0443304 0.219131
-0.00782798 -0.0445938 0.219074
-0.00749565 -0.0448653 0.219091
-0.00716565 -0.0451451 0.219182
-0.0068365 -0.0454287 0.219303
-0.00651162 -0.0457303 0.219579
-0.00618777 -0.0460396 0.219917
-0.00586444 -0.0463558 0.220308
-0.00554032 -0.0466729 0.2207
-0.00521514 -0.0469897 0.221082
-0.00488595 -0.0472925 0.221343
-0.00455559 -0.0475918 0.22157
-0.00422399 -0.047888 0.22177
-0.00389105 -0.0481786 0.221919
-0.00355821 -0.0484729 0.222097
-0.00322666 -0.0487802 0.222376
-0.00289559 -0.049096 0.222716
-0.00256457 -0.049423 0.223141
-0.0210382 -0.0346785 0.228725
-0.0206826 -0.034952 0.228619
-0.0203245 -0.0352225 0.228478
-0.0199588 -0.0354854 0.228234
-0.0195825 -0.0357367 0.227846
-0.0192003 -0.0359804 0.227365
-0.0188142 -0.0362175 0.226815
-0.0184181 -0.0364414 0.22611
-0.0180189 -0.0366584 0.225337
-0.0176252 -0.0368777 0.224612
-0.0172393 -0.0371022 0.223972
-0.0168543 -0.0373244 0.22332
-0.0164798 -0.0375561 0.222798
-0.0161166 -0.0377994 0.222428
-0.0157618 -0.0380517 0.222173
-0.015412 -0.0383094 0.221986
-0.0150675 -0.0385733 0.221878
-0.0147228 -0.0388362 0.22176
-0.0143754 -0.0390941 0.221588
-0.0140222 -0.039342 0.221311
-0.013674 -0.039596 0.221106
-0.0133265 -0.0398498 0.220906
-0.0129764 -0.0400977 0.220644
-0.0126225 -0.0403371 0.220302
-0.0122725 -0.0405812 0.220016
-0.0119221 -0.0408223 0.219706
-0.0115774 -0.0410724 0.219493
-0.0112372 -0.0413303 0.219367
-0.0109033 -0.0416003 0.219363
-0.0105678 -0.0418667 0.219323
-0.0102345 -0.0421376 0.219329
-0.00989816 -0.0424016 0.219271
-0.00956556 -0.0426739 0.219289
-0.0092328 -0.042946 0.219309
-0.00889706 -0.04321 0.219252
-0.00856117 -0.0434727 0.219183
-0.00822519 -0.0437344 0.219108
-0.00788984 -0.043997 0.219042
-0.00755411 -0.0442579 0.218962
-0.00722242 -0.0445315 0.219
-0.00689254 -0.0448114 0.219091
-0.00656406 -0.0450979 0.219241
-0.00623987 -0.0454031 0.219551
-0.00591721 -0.0457183 0.219943
-0.00559432 -0.0460378 0.220365
-0.00527021 -0.046357 0.220777
-0.00494376 -0.0466703 0.221133
-0.00461355 -0.0469696 0.221367
-0.0042829 -0.0472687 0.221593
-0.00395105 -0.0475653 0.221797
-0.00361802 -0.0478564 0.221951
-0.00328493 -0.0481506 0.222129
-0.002953 -0.0484572 0.222404
-0.00262048 -0.0487659 0.222692
-0.00228851 -0.0490858 0.223062
-0.0211189 -0.0340683 0.228865
-0.0207557 -0.0343361 0.22867
-0.0204001 -0.0346096 0.228563
-0.0200443 -0.0348823 0.228449
-0.019679 -0.0351456 0.228207
-0.0193031 -0.0353975 0.227821
-0.0189232 -0.0356436 0.227366
-0.0185395 -0.0358835 0.226843
-0.0181465 -0.036111 0.22617
-0.0177519 -0.0363334 0.225452
-0.0173611 -0.0365563 0.224759
-0.016977 -0.0367835 0.22414
-0.0165938 -0.0370085 0.223509
-0.0162179 -0.0372392 0.222962
-0.0158534 -0.0374814 0.222573
-0.0154986 -0.0377342 0.222314
-0.0151454 -0.0379876 0.222074
-0.0147976 -0.0382472 0.221909
-0.0144494 -0.0385053 0.221734
-0.0141004 -0.0387608 0.221531
-0.0137461 -0.0390068 0.221229
-0.0133968 -0.0392589 0.221001
-0.013047 -0.0395086 0.220753
-0.0126969 -0.039756 0.220487
-0.0123423 -0.0399935 0.220118
-0.0119928 -0.0402379 0.219833
-0.0116444 -0.0404822 0.219551
-0.0113034 -0.0407392 0.219411
-0.0109662 -0.0410029 0.219339
-0.0106344 -0.0412778 0.219385
-0.0102999 -0.0415467 0.21937
-0.00996723 -0.0418198 0.219397
-0.00962987 -0.0420814 0.219312
-0.00929707 -0.0423536 0.219331
-0.00896334 -0.0426234 0.219327
-0.00862579 -0.0428827 0.219224
-0.0082891 -0.0431431 0.219131
-0.0079533 -0.043405 0.219056
-0.00761726 -0.0436656 0.218971
-0.00728182 -0.0439269 0.218894
-0.00695094 -0.0442032 0.218956
-0.00662146 -0.0444852 0.219068
-0.00629435 -0.0447772 0.219266
-0.0059712 -0.0450879 0.219628
-0.00564867 -0.0454061 0.22005
-0.00532574 -0.0457279 0.220495
-0.00500031 -0.0460436 0.22088
-0.00467265 -0.0463535 0.22121
-0.00434167 -0.0466494 0.221413
-0.00401047 -0.0469482 0.22164
-0.00367839 -0.0472446 0.221842
-0.00334504 -0.0475358 0.221999
-0.00301127 -0.0478268 0.222151
-0.00267838 -0.0481295 0.222397
-0.00234527 -0.0484341 0.222653
-0.00201246 -0.04875 0.222997
-0.0204749 -0.033995 0.22864
-0.0201212 -0.0342703 0.228555
-0.019769 -0.0345465 0.228486
-0.0194069 -0.034813 0.228284
-0.0190332 -0.0350674 0.227923
-0.0186573 -0.0353179 0.227517
-0.0182724 -0.0355573 0.226973
-0.0178783 -0.0357841 0.226279
-0.0174845 -0.0360079 0.225563
-0.0170938 -0.0362315 0.224867
-0.0167085 -0.0364576 0.224221
-0.0163289 -0.0366874 0.223638
-0.0159551 -0.036921 0.223118
-0.0155911 -0.0371644 0.222731
-0.0152359 -0.0374173 0.222471
-0.0148796 -0.0376671 0.222177
-0.0145283 -0.0379222 0.221957
-0.014176 -0.0381743 0.221707
-0.0138253 -0.0384274 0.221475
-0.0134715 -0.038674 0.221174
-0.0131214 -0.0389248 0.220927
-0.0127695 -0.0391708 0.220635
-0.0124218 -0.039422 0.220406
-0.0120686 -0.0396616 0.220058
-0.0117195 -0.0399065 0.219774
-0.0113751 -0.0401583 0.219568
-0.0110388 -0.0404249 0.219524
-0.0107025 -0.0406912 0.21948
-0.0103717 -0.0409691 0.219555
-0.0100383 -0.0412413 0.219568
-0.00970449 -0.0415126 0.219577
-0.00936603 -0.0417724 0.219468
-0.00903174 -0.0420418 0.219458
-0.00869594 -0.0423067 0.219403
-0.00835644 -0.0425609 0.219249
-0.00801955 -0.0428211 0.219153
-0.00768387 -0.0430836 0.219082
-0.00734817 -0.0433453 0.219004
-0.00701354 -0.0436097 0.218955
-0.00668341 -0.043889 0.219042
-0.00635354 -0.0441707 0.219151
-0.00602611 -0.0444629 0.219353
-0.00570286 -0.0447756 0.219736
-0.00537985 -0.0450938 0.22016
-0.00505621 -0.0454151 0.220604
-0.00472968 -0.0457276 0.220963
-0.00440128 -0.0460364 0.221286
-0.00406933 -0.046329 0.221464
-0.00373794 -0.0466278 0.221689
-0.00340506 -0.0469211 0.221867
-0.00307172 -0.0472146 0.222045
-0.00273762 -0.047505 0.222192
-0.00240421 -0.0478047 0.222413
-0.00207024 -0.0481056 0.222643
-0.00173768 -0.0484271 0.223033
-0.0198421 -0.0339308 0.228545
-0.0194895 -0.0342068 0.228469
-0.0191298 -0.0344757 0.228299
-0.0187599 -0.034734 0.227982
-0.0183862 -0.034987 0.227604
-0.0180018 -0.0352273 0.227061
-0.0176115 -0.0354587 0.226412
-0.0172176 -0.0356828 0.22569
-0.0168271 -0.0359072 0.224988
-0.0164407 -0.0361326 0.224318
-0.0160631 -0.0363651 0.223761
-0.01569 -0.0366002 0.223247
-0.0153276 -0.036846 0.222883
-0.0149725 -0.0370996 0.222624
-0.014616 -0.0373496 0.222325
-0.0142617 -0.0376009 0.222054
-0.0139078 -0.037851 0.221775
-0.0135545 -0.0381004 0.221494
-0.013201 -0.0383477 0.221195
-0.0128511 -0.0385988 0.22095
-0.0125006 -0.0388473 0.220679
-0.0121543 -0.0391011 0.220475
-0.0118049 -0.039348 0.220197
-0.0114574 -0.0395963 0.219946
-0.0111154 -0.0398536 0.219795
-0.0107801 -0.0401233 0.21978
-0.0104449 -0.0403927 0.219761
-0.0101138 -0.0406713 0.219841
-0.00978112 -0.0409467 0.219887
-0.00944711 -0.0412189 0.219898
-0.00910744 -0.041477 0.219766
-0.00877139 -0.0417435 0.219724
-0.00843302 -0.0420028 0.21961
-0.00809075 -0.0422498 0.219378
-0.00775187 -0.0425047 0.219229
-0.00741602 -0.0427671 0.219154
-0.00707939 -0.0430265 0.219055
-0.006745 -0.0432919 0.219011
-0.00641518 -0.0435737 0.219123
-0.00608464 -0.0438534 0.219212
-0.00575662 -0.0441448 0.219409
-0.00543243 -0.044455 0.219771
-0.00510879 -0.0447726 0.220195
-0.0047848 -0.0450937 0.220639
-0.00445806 -0.0454081 0.221019
-0.00412943 -0.0457168 0.221341
-0.00379712 -0.0460093 0.221519
-0.00346517 -0.0463077 0.221745
-0.00313254 -0.0466038 0.221946
-0.00279919 -0.0469001 0.222147
-0.0024647 -0.0471907 0.222298
-0.00213123 -0.0474932 0.222542
-0.0017972 -0.0477972 0.222796
-0.00146387 -0.0481188 0.22319
-0.0195634 -0.0335916 0.22854
-0.0192108 -0.0338678 0.228465
-0.0188536 -0.0341391 0.228325
-0.0184867 -0.0344006 0.228048
-0.0181133 -0.0346543 0.22767
-0.0177295 -0.0348956 0.227128
-0.0173429 -0.0351313 0.226528
-0.0169491 -0.0353561 0.225796
-0.0165588 -0.0355811 0.225092
-0.0161728 -0.0358074 0.224421
-0.0157958 -0.0360411 0.223864
-0.0154216 -0.0362751 0.223329
-0.0150596 -0.0365218 0.222968
-0.0147049 -0.0367762 0.222711
-0.0143483 -0.0370264 0.22241
-0.0139927 -0.0372762 0.222112
-0.0136385 -0.0375263 0.221829
-0.0132854 -0.0377761 0.221545
-0.012933 -0.0380254 0.221267
-0.0125847 -0.0382795 0.221048
-0.012237 -0.038533 0.220829
-0.0118934 -0.0387921 0.220678
-0.0115478 -0.0390466 0.22048
-0.0112021 -0.0392993 0.220268
-0.0108625 -0.0395625 0.220174
-0.010528 -0.0398354 0.220188
-0.010192 -0.0401051 0.220171
-0.00985929 -0.0403818 0.220223
-0.00952689 -0.0406597 0.220291
-0.00919141 -0.0409302 0.220279
-0.0088501 -0.0411861 0.220122
-0.00851339 -0.0414524 0.22007
-0.0081735 -0.0417091 0.219926
-0.00782821 -0.0419487 0.219614
-0.00748802 -0.0422006 0.21943
-0.00715157 -0.0424625 0.219347
-0.00681337 -0.0427172 0.219198
-0.00647801 -0.0429803 0.219131
-0.00614868 -0.0432647 0.219264
-0.0058171 -0.043542 0.219331
-0.00548743 -0.0438283 0.219481
-0.00516218 -0.0441353 0.219816
-0.00483789 -0.0444519 0.220233
-0.00451221 -0.0447676 0.220634
-0.00418523 -0.0450821 0.221018
-0.00385656 -0.0453934 0.221368
-0.00352496 -0.0456916 0.221596
-0.00319278 -0.0459905 0.221827
-0.00286084 -0.0462953 0.222104
-0.00252794 -0.0465981 0.222359
-0.00219392 -0.0468982 0.22259
-0.00186018 -0.0472051 0.22287
-0.00152621 -0.0475184 0.223201
-0.00119212 -0.0478432 0.223621
-0.00115322 -0.0487686 0.226224
-0.000857102 -0.0481681 0.224035
-0.0189301 -0.0335269 0.228434
-0.0185742 -0.0337996 0.228311
-0.0182086 -0.0340625 0.22805
-0.0178386 -0.0343198 0.227713
-0.017458 -0.0345646 0.227213
-0.017074 -0.0348035 0.226642
-0.0166811 -0.0350297 0.225915
-0.0162914 -0.0352559 0.225211
-0.0159053 -0.0354827 0.224534
-0.0155288 -0.0357173 0.223978
-0.0151562 -0.0359538 0.223462
-0.0147946 -0.0362015 0.223105
-0.0144398 -0.0364563 0.222846
-0.0140834 -0.0367072 0.222549
-0.0137277 -0.0369574 0.222249
-0.0133724 -0.0372063 0.221942
-0.0130189 -0.0374561 0.221653
-0.0126668 -0.0377061 0.221374
-0.0123185 -0.0379605 0.221155
-0.0119724 -0.0382173 0.220969
-0.0116316 -0.038482 0.220877
-0.01129 -0.0387445 0.220766
-0.0109468 -0.0390029 0.220609
-0.0106083 -0.0392696 0.220547
-0.0102741 -0.0395448 0.220584
-0.00993845 -0.0398169 0.220583
-0.00960473 -0.0400933 0.22063
-0.00927266 -0.0403737 0.220718
-0.00893635 -0.0406444 0.220705
-0.00859466 -0.0409009 0.220544
-0.00825655 -0.0411654 0.220468
-0.00791432 -0.0414175 0.22027
-0.00756718 -0.0416528 0.219908
-0.00722569 -0.0419023 0.219694
-0.00688728 -0.042159 0.219557
-0.00654733 -0.0424088 0.219352
-0.00621148 -0.0426713 0.219277
-0.005881 -0.042953 0.219387
-0.00554854 -0.0432278 0.219428
-0.00521861 -0.0435138 0.219574
-0.00489184 -0.0438168 0.219877
-0.0045665 -0.0441304 0.220269
-0.00423971 -0.0444426 0.220643
-0.00391241 -0.0447576 0.221033
-0.00358341 -0.0450692 0.221389
-0.0032525 -0.0453735 0.221672
-0.00292037 -0.0456755 0.221931
-0.00258909 -0.0459895 0.22229
-0.00225636 -0.0462993 0.222607
-0.00192294 -0.0466101 0.222927
-0.00158876 -0.046921 0.223241
-0.0012547 -0.0472438 0.22365
-0.000919925 -0.0475724 0.224101
-0.000583934 -0.0479004 0.22454
-0.0186531 -0.0331893 0.228456
-0.0182974 -0.0334624 0.228334
-0.0179307 -0.0337246 0.228054
-0.0175616 -0.0339829 0.227728
-0.0171837 -0.0342308 0.227259
-0.0168047 -0.0344752 0.226758
-0.0164191 -0.0347099 0.226133
-0.0160334 -0.0349413 0.225484
-0.0156479 -0.0351697 0.224809
-0.015271 -0.0354047 0.224246
-0.0148982 -0.0356417 0.223724
-0.0145349 -0.035888 0.223338
-0.0141784 -0.0361414 0.223054
-0.0138223 -0.0363933 0.222758
-0.0134653 -0.0366423 0.222436
-0.0131098 -0.0368916 0.222127
-0.0127563 -0.0371419 0.221837
-0.0124044 -0.0373928 0.221559
-0.0120562 -0.0376481 0.221345
-0.0117137 -0.0379118 0.221235
-0.0113753 -0.0381817 0.221199
-0.011037 -0.0384518 0.221167
-0.0106958 -0.0387156 0.221063
-0.0103575 -0.0389845 0.221023
-0.0100204 -0.0392555 0.221003
-0.0096828 -0.0395252 0.220973
-0.00934652 -0.0397974 0.220969
-0.00901287 -0.0400758 0.221033
-0.00867624 -0.0403472 0.221022
-0.00833594 -0.0406087 0.220907
-0.00799751 -0.0408741 0.220835
-0.00765523 -0.0411275 0.220641
-0.00730855 -0.0413659 0.220302
-0.00696687 -0.0416162 0.220089
-0.00662664 -0.0418689 0.219903
-0.00628539 -0.0421161 0.21967
-0.0059477 -0.0423734 0.219539
-0.00561462 -0.0426472 0.219569
-0.00528 -0.0429143 0.219535
-0.00494842 -0.043195 0.219632
-0.00461973 -0.0434899 0.219858
-0.00429319 -0.0437994 0.220217
-0.00396539 -0.044108 0.220562
-0.00363824 -0.0444252 0.220978
-0.00330898 -0.0447369 0.221337
-0.00297857 -0.0450467 0.221674
-0.002647 -0.0453546 0.221986
-0.00231629 -0.0456777 0.222428
-0.00198412 -0.0459971 0.222828
-0.00165151 -0.0463236 0.223284
-0.00131706 -0.0466441 0.223682
-0.000982718 -0.0469769 0.224175
-0.000646942 -0.0473085 0.22465
-0.000309775 -0.0476393 0.225113
-0.000261115 -0.0485505 0.2276
2.86398e-05 -0.0479678 0.225547
-0.01764 -0.0333745 0.227878
-0.0172717 -0.0336335 0.227555
-0.0168999 -0.0338873 0.227169
-0.0165287 -0.0341399 0.226774
-0.0161518 -0.0343843 0.226276
-0.0157718 -0.0346226 0.225708
-0.0153913 -0.0348574 0.225111
-0.0150162 -0.0350956 0.224573
-0.0146435 -0.0353337 0.224051
-0.0142795 -0.0355802 0.223656
-0.0139228 -0.0358342 0.22337
-0.013566 -0.0360863 0.223069
-0.0132091 -0.0363364 0.222748
-0.0128549 -0.0365885 0.222464
-0.0125014 -0.0368399 0.222176
-0.0121491 -0.0370912 0.221897
-0.0118006 -0.0373473 0.221683
-0.0114601 -0.0376155 0.22162
-0.0111224 -0.0378882 0.221611
-0.010786 -0.0381634 0.22163
-0.0104463 -0.0384319 0.221575
-0.0101062 -0.0386993 0.221508
-0.009766 -0.0389656 0.221432
-0.00942546 -0.0392306 0.221342
-0.00908671 -0.0394988 0.221289
-0.0087502 -0.0397718 0.221289
-0.00841419 -0.040046 0.221305
-0.00807379 -0.0403085 0.221196
-0.00773588 -0.0405768 0.221148
-0.00739427 -0.0408336 0.220984
-0.00704907 -0.0410778 0.220696
-0.0067073 -0.0413297 0.220491
-0.00636676 -0.0415833 0.220308
-0.0060245 -0.0418287 0.220047
-0.00568498 -0.0420811 0.21986
-0.00534999 -0.0423495 0.219836
-0.00501306 -0.0426089 0.219724
-0.00467999 -0.0428842 0.219766
-0.00434897 -0.0431706 0.219915
-0.00402088 -0.0434742 0.220222
-0.00369214 -0.0437792 0.220536
-0.00336486 -0.0440982 0.220973
-0.00303526 -0.0444098 0.221335
-0.00270561 -0.0447276 0.221745
-0.00237454 -0.0450437 0.222134
-0.00204419 -0.0453756 0.222656
-0.00171182 -0.0457017 0.223117
-0.00137945 -0.0460401 0.223677
-0.0010451 -0.0463727 0.224178
-0.000709754 -0.0467122 0.224731
-0.000372582 -0.047042 0.225191
-3.43549e-05 -0.0473761 0.22568
0.000305146 -0.047701 0.226083
-0.0166177 -0.0335454 0.227101
-0.0162505 -0.0338022 0.22676
-0.0158818 -0.0340556 0.226384
-0.0155073 -0.0343007 0.225899
-0.0151313 -0.0345413 0.225368
-0.0147599 -0.0347847 0.224889
-0.0143901 -0.0350274 0.224415
-0.0140257 -0.0352745 0.224017
-0.0136685 -0.0355289 0.223725
-0.0133117 -0.035782 0.223423
-0.0129558 -0.0360346 0.223127
-0.0126025 -0.0362895 0.222866
-0.0122501 -0.0365437 0.222604
-0.0118986 -0.036798 0.222352
-0.0115509 -0.0370566 0.222159
-0.0112097 -0.0373254 0.222093
-0.0108711 -0.0375983 0.22208
-0.0105331 -0.0378721 0.222079
-0.010192 -0.0381396 0.222002
-0.00984822 -0.0384011 0.22186
-0.00950516 -0.0386628 0.221725
-0.00916108 -0.038921 0.221551
-0.00882084 -0.0391867 0.221467
-0.00848223 -0.0394556 0.221421
-0.00814605 -0.0397303 0.221439
-0.00780647 -0.0399956 0.221356
-0.00746916 -0.0402666 0.221338
-0.00712762 -0.0405244 0.221179
-0.00678479 -0.0407767 0.220967
-0.00644438 -0.0410343 0.220813
-0.00610374 -0.0412892 0.220637
-0.00576198 -0.0415377 0.2204
-0.00542191 -0.0417901 0.220208
-0.00508531 -0.0420537 0.220129
-0.0047472 -0.0423101 0.219983
-0.00441301 -0.0425825 0.219995
-0.00408055 -0.0428636 0.220091
-0.00375125 -0.043164 0.220369
-0.0034215 -0.0434661 0.220658
-0.00309276 -0.0437796 0.221046
-0.0027624 -0.0440884 0.221384
-0.0024323 -0.0444083 0.221819
-0.00210126 -0.0447277 0.222239
-0.00177036 -0.0450625 0.222792
-0.00143815 -0.0453969 0.22333
-0.00110553 -0.0457436 0.223967
-0.000770494 -0.0460828 0.22453
-0.000434468 -0.0464263 0.225117
-9.63139e-05 -0.0467564 0.22558
0.000242904 -0.0470901 0.226066
0.000583695 -0.0474087 0.226418
-0.016332 -0.0332001 0.226978
-0.0159685 -0.0334607 0.226692
-0.0156062 -0.0337209 0.226407
-0.0152389 -0.0339742 0.226033
-0.0148698 -0.0342234 0.225612
-0.0145036 -0.0344738 0.22522
-0.0141402 -0.0347254 0.224855
-0.01378 -0.0349793 0.224535
-0.013424 -0.0352368 0.224271
-0.0130665 -0.0354907 0.223969
-0.01271 -0.0357441 0.223668
-0.0123552 -0.0359983 0.223385
-0.012 -0.0362499 0.223077
-0.011647 -0.0365031 0.222798
-0.0112974 -0.0367602 0.222578
-0.0109545 -0.0370273 0.222484
-0.0106141 -0.0372986 0.222446
-0.0102746 -0.0375709 0.222419
-0.00993286 -0.0378386 0.22234
-0.0095856 -0.0380941 0.222123
-0.00924026 -0.0383519 0.221934
-0.00889362 -0.038605 0.221698
-0.00855207 -0.0388684 0.221583
-0.00821126 -0.0391324 0.221479
-0.0078757 -0.0394092 0.221521
-0.00753672 -0.0396767 0.221457
-0.00719941 -0.0399483 0.221442
-0.00685853 -0.0402087 0.221308
-0.00651802 -0.0404687 0.221172
-0.00617901 -0.040732 0.221072
-0.00583827 -0.0409879 0.220902
-0.00549755 -0.0412417 0.220712
-0.00515788 -0.0414972 0.220544
-0.00481961 -0.0417563 0.220417
-0.00448091 -0.0420111 0.220248
-0.00414607 -0.0422831 0.220253
-0.00381218 -0.0425591 0.220297
-0.00348136 -0.0428543 0.220526
-0.00315071 -0.0431537 0.220788
-0.00282046 -0.0434614 0.221127
-0.00248918 -0.0437675 0.221442
-0.00215863 -0.0440869 0.221875
-0.00182753 -0.0444115 0.222348
-0.00149631 -0.0447494 0.222933
-0.0011639 -0.0450921 0.223551
-0.000830644 -0.0454444 0.224241
-0.000495127 -0.0457895 0.224858
-0.000157932 -0.0461334 0.225452
0.000181043 -0.0464638 0.225918
0.000521416 -0.0467932 0.22637
0.000863107 -0.0471084 0.226691
-0.016042 -0.0328505 0.226788
-0.015683 -0.0331154 0.226563
-0.0153282 -0.0333837 0.226396
-0.0149684 -0.0336454 0.226136
-0.0146076 -0.0339047 0.225854
-0.0142523 -0.0341688 0.225646
-0.0138947 -0.034429 0.225391
-0.0135393 -0.0346905 0.225161
-0.0131843 -0.0349513 0.22493
-0.0128263 -0.0352064 0.224628
-0.0124665 -0.0354571 0.224274
-0.0121107 -0.0357116 0.223982
-0.0117523 -0.0359602 0.223621
-0.0113976 -0.0362123 0.223317
-0.0110464 -0.0364682 0.223068
-0.0107013 -0.0367335 0.222944
-0.0103582 -0.0370014 0.222857
-0.0100158 -0.0372698 0.222774
-0.00967235 -0.0375354 0.222664
-0.00932266 -0.0377869 0.22239
-0.00897493 -0.0380406 0.222149
-0.00862526 -0.0382876 0.221834
-0.00828157 -0.0385464 0.221664
-0.00793804 -0.0388038 0.22148
-0.00760222 -0.0390802 0.221517
-0.0072639 -0.0393497 0.221475
-0.00692747 -0.0396241 0.221488
-0.00658818 -0.0398896 0.221405
-0.00624967 -0.0401567 0.221341
-0.00591119 -0.0404228 0.221268
-0.00557119 -0.0406823 0.221129
-0.00523153 -0.0409415 0.22099
-0.00489229 -0.0412003 0.220849
-0.00455338 -0.0414584 0.220705
-0.00421428 -0.0417135 0.220537
-0.00387866 -0.0419836 0.220518
-0.00354387 -0.0422575 0.220538
-0.00321175 -0.0425479 0.220718
-0.00288 -0.0428442 0.220954
-0.00254873 -0.0431486 0.221262
-0.00221658 -0.0434515 0.221547
-0.00188505 -0.0437678 0.221955
-0.00155348 -0.0440947 0.222453
-0.00122175 -0.0444353 0.223068
-0.000888772 -0.0447812 0.223719
-0.000554672 -0.0451361 0.22444
-0.000218582 -0.0454869 0.22511
0.000119692 -0.0458274 0.225678
0.000459734 -0.0461541 0.226116
0.000800865 -0.0464796 0.226535
0.00114245 -0.0470907 0.229402
-0.0154004 -0.0327733 0.226481
-0.0150492 -0.0330452 0.226367
-0.0146954 -0.0333138 0.226209
-0.0143425 -0.0335824 0.226055
-0.0139964 -0.0338583 0.226013
-0.0136487 -0.034132 0.225939
-0.013299 -0.0344025 0.225826
-0.0129467 -0.0346689 0.225655
-0.0125878 -0.0349249 0.22535
-0.0122239 -0.0351718 0.224929
-0.0118634 -0.0354212 0.224551
-0.0115006 -0.0356644 0.224105
-0.0111429 -0.0359133 0.223746
-0.0107899 -0.0361677 0.223467
-0.0104422 -0.0364296 0.223291
-0.0100963 -0.0366937 0.223148
-0.00975122 -0.0369579 0.22301
-0.00940607 -0.0372212 0.222867
-0.00905523 -0.0374709 0.222562
-0.00870745 -0.0377251 0.222319
-0.0083562 -0.0379688 0.221957
-0.00801138 -0.0382254 0.221756
-0.00766603 -0.0384785 0.221519
-0.0073291 -0.0387523 0.221526
-0.0069902 -0.0390204 0.221467
-0.00665459 -0.0392974 0.221508
-0.00631685 -0.039568 0.221478
-0.00597893 -0.0398377 0.221442
-0.00564048 -0.0401047 0.221376
-0.00530108 -0.040367 0.221262
-0.00496207 -0.0406292 0.22115
-0.00462325 -0.0408909 0.221036
-0.00428521 -0.0411545 0.220944
-0.00394715 -0.0414157 0.220829
-0.00361121 -0.0416865 0.220814
-0.00327583 -0.0419605 0.220833
-0.0029422 -0.0422455 0.220959
-0.00260951 -0.0425389 0.221163
-0.0022768 -0.0428377 0.221419
-0.00194371 -0.0431372 0.221675
-0.00161132 -0.0434504 0.222055
-0.0012793 -0.0437793 0.222576
-0.000946652 -0.0441176 0.223173
-0.000612758 -0.0444634 0.223831
-0.000277784 -0.0448179 0.224554
5.92044e-05 -0.0451704 0.225246
0.000398409 -0.0455075 0.225788
0.000734336 -0.0461292 0.22884
-0.0144202 -0.0329797 0.226244
-0.014074 -0.0332564 0.226207
-0.013734 -0.0335401 0.226279
-0.0133934 -0.0338234 0.226341
-0.0130508 -0.0341045 0.226369
-0.0127009 -0.0343756 0.226256
-0.0123426 -0.0346343 0.22597
-0.0119763 -0.0348795 0.225508
-0.0116109 -0.0351232 0.225039
-0.0112427 -0.0353595 0.224484
-0.0108823 -0.0356051 0.224067
-0.0105276 -0.0358576 0.223755
-0.0101783 -0.0361178 0.223551
-0.00983007 -0.0363782 0.223354
-0.00948246 -0.0366385 0.223161
-0.00913518 -0.0368978 0.222961
-0.00878265 -0.0371441 0.222606
-0.00843316 -0.0373946 0.222316
-0.00808146 -0.037637 0.221932
-0.00773591 -0.0378916 0.221704
-0.00739053 -0.0381445 0.221462
-0.00705301 -0.0384164 0.221443
-0.00671509 -0.038687 0.221413
-0.00638038 -0.0389669 0.221487
-0.00604355 -0.0392406 0.221491
-0.00570632 -0.0395128 0.221479
-0.00536826 -0.0397819 0.221436
-0.00502892 -0.0400445 0.221321
-0.004691 -0.0403117 0.221259
-0.00435378 -0.0405811 0.221223
-0.00401609 -0.040848 0.221163
-0.00367869 -0.0411145 0.221099
-0.00334277 -0.0413878 0.221105
-0.00300697 -0.0416621 0.221122
-0.00267237 -0.0419447 0.221223
-0.00233871 -0.0422353 0.221399
-0.00200494 -0.0425289 0.221601
-0.0016709 -0.0428252 0.221827
-0.00133733 -0.043133 0.222158
-0.00100439 -0.0434588 0.222654
-0.000670899 -0.0437962 0.223249
-0.000336157 -0.0441411 0.223905
-1.06779e-07 -0.044492 0.224601
0.000337602 -0.0448433 0.225287
0.000677554 -0.0451797 0.225829
-0.0138079 -0.032933 0.226411
-0.0134719 -0.0332222 0.226559
-0.013134 -0.0335098 0.226683
-0.0127941 -0.0337954 0.226772
-0.0124461 -0.0340704 0.226707
-0.0120886 -0.0343316 0.226444
-0.0117208 -0.034576 0.225953
-0.011351 -0.0348144 0.225397
-0.0109801 -0.0350474 0.224779
-0.010616 -0.0352876 0.22428
-0.010258 -0.0355352 0.223892
-0.0099077 -0.035794 0.22366
-0.00955823 -0.0360526 0.223435
-0.00920964 -0.0363111 0.223214
-0.00886131 -0.0365685 0.222986
-0.00850887 -0.0368151 0.22263
-0.00815891 -0.0370644 0.222316
-0.0078068 -0.0373055 0.221911
-0.007459 -0.0375542 0.221607
-0.00711374 -0.0378067 0.221356
-0.00677541 -0.0380762 0.221312
-0.00643844 -0.0383493 0.221311
-0.00610528 -0.0386341 0.221443
-0.00577048 -0.0389144 0.221522
-0.00543388 -0.0391892 0.221537
-0.00509638 -0.0394606 0.221515
-0.00475735 -0.0397252 0.22142
-0.00441982 -0.039995 0.221383
-0.00408365 -0.04027 0.221403
-0.00374693 -0.0405427 0.221399
-0.00341013 -0.0408147 0.221388
-0.00307377 -0.0410885 0.221396
-0.0027375 -0.0413629 0.221411
-0.00240189 -0.0416428 0.221482
-0.00206729 -0.0419309 0.221633
-0.00173268 -0.0422221 0.221811
-0.00139781 -0.0425162 0.222015
-0.00106348 -0.0428209 0.222318
-0.000729553 -0.0431434 0.222785
-0.000395066 -0.0434772 0.22335
-5.94051e-05 -0.0438185 0.223977
0.000277761 -0.0441651 0.224642
0.000616275 -0.0445156 0.225327
0.000956825 -0.0448517 0.225871
-0.0128728 -0.033194 0.227009
-0.0125323 -0.0334798 0.227094
-0.0121837 -0.0337551 0.227027
-0.0118288 -0.0340209 0.226818
-0.011462 -0.034268 0.226356
-0.0110937 -0.0345098 0.225827
-0.0107248 -0.0347472 0.225254
-0.0103592 -0.0349865 0.224723
-0.00999865 -0.035231 0.22428
-0.00964489 -0.0354847 0.22397
-0.00929215 -0.0357382 0.223669
-0.00893964 -0.0359897 0.223348
-0.00859021 -0.0362452 0.22309
-0.00823864 -0.036494 0.222755
-0.00788976 -0.036746 0.222467
-0.00753932 -0.0369917 0.22211
-0.00719002 -0.0372371 0.221757
-0.00684372 -0.0374873 0.221473
-0.00650354 -0.0377523 0.221372
-0.00616576 -0.0380234 0.221345
-0.00583141 -0.0383048 0.221436
-0.00549776 -0.0385896 0.221568
-0.00516161 -0.0388666 0.221608
-0.00482381 -0.0391378 0.221583
-0.0044854 -0.0394052 0.221515
-0.00414885 -0.03968 0.22153
-0.00381341 -0.0399604 0.221606
-0.00347742 -0.040239 0.221662
-0.00314116 -0.0405164 0.221704
-0.00280468 -0.0407928 0.221735
-0.00246782 -0.0410674 0.221749
-0.0021316 -0.0413457 0.221797
-0.001796 -0.0416318 0.221927
-0.0014607 -0.0419228 0.222102
-0.00112516 -0.0422146 0.222281
-0.000789831 -0.0425168 0.222559
-0.000454716 -0.0428361 0.223
-0.000118985 -0.0431637 0.223511
0.000217745 -0.0434963 0.224058
0.000555707 -0.0438368 0.22467
0.000895295 -0.0441834 0.225328
0.00123641 -0.0445168 0.225852
-0.0126117 -0.0328782 0.227348
-0.0122699 -0.0331635 0.227422
-0.0119203 -0.0334384 0.227338
-0.0115674 -0.0337082 0.227184
-0.0112028 -0.0339594 0.226762
-0.0108359 -0.0342047 0.226269
-0.0104693 -0.0344473 0.225752
-0.0101017 -0.0346846 0.225174
-0.00973861 -0.034926 0.224674
-0.00938192 -0.0351757 0.224298
-0.00902589 -0.0354238 0.223913
-0.00867022 -0.0356698 0.223512
-0.00832172 -0.0359278 0.223277
-0.00797194 -0.0361812 0.222992
-0.00762394 -0.0364361 0.222733
-0.00727598 -0.0366889 0.222454
-0.0069257 -0.036933 0.222075
-0.00657831 -0.0371812 0.221756
-0.00623531 -0.0374395 0.221569
-0.00589593 -0.0377064 0.221487
-0.00555975 -0.0379834 0.221527
-0.00522602 -0.0382687 0.221663
-0.00488957 -0.0385459 0.221705
-0.00455195 -0.0388178 0.221683
-0.00421324 -0.0390855 0.221616
-0.00387664 -0.039361 0.221637
-0.00354143 -0.0396443 0.221746
-0.00320605 -0.0399278 0.221853
-0.00287027 -0.0402105 0.22195
-0.00253389 -0.0404902 0.222012
-0.00219666 -0.0407653 0.222026
-0.00186012 -0.0410458 0.222096
-0.00152416 -0.041332 0.222222
-0.00118793 -0.0416211 0.222378
-0.000851642 -0.0419129 0.222556
-0.000515591 -0.0422149 0.222833
-0.000179527 -0.0425288 0.22322
0.000157281 -0.0428484 0.223655
0.000495098 -0.043177 0.224171
0.000833956 -0.0435141 0.224754
0.00117437 -0.0438576 0.225391
0.00151617 -0.0441904 0.225913
-0.0120017 -0.0328397 0.227646
-0.0116518 -0.0331149 0.227564
-0.0113016 -0.0333893 0.227467
-0.0109429 -0.0336502 0.227176
-0.01058 -0.0339029 0.226774
-0.010216 -0.0341512 0.226324
-0.00985034 -0.0343936 0.2258
-0.00948686 -0.0346362 0.225293
-0.00912687 -0.0348819 0.224848
-0.008767 -0.0351244 0.224371
-0.00840779 -0.0353647 0.223879
-0.00805732 -0.0356197 0.223595
-0.00770746 -0.0358741 0.223313
-0.00735986 -0.036131 0.223068
-0.00701359 -0.0363894 0.222852
-0.006664 -0.0366367 0.2225
-0.00631542 -0.0368835 0.222155
-0.00596961 -0.0371349 0.221874
-0.00562803 -0.0373969 0.221728
-0.00528963 -0.0376675 0.221686
-0.00495414 -0.0379484 0.221771
-0.00461758 -0.038226 0.221814
-0.00428036 -0.0385006 0.22182
-0.00394202 -0.0387708 0.221781
-0.00360545 -0.0390487 0.221827
-0.00327035 -0.0393342 0.221957
-0.00293468 -0.0396184 0.222068
-0.00259852 -0.0399016 0.222169
-0.00226207 -0.0401841 0.222259
-0.0019245 -0.0404598 0.222276
-0.00158778 -0.0407429 0.22237
-0.00125114 -0.0410291 0.222495
-0.000914512 -0.0413183 0.222649
-0.000577592 -0.04161 0.222825
-0.000240968 -0.0419146 0.223129
9.60781e-05 -0.0422238 0.223469
0.000433843 -0.0425426 0.223899
0.000772552 -0.0428677 0.224383
0.00111242 -0.0431987 0.224913
0.0014537 -0.0435365 0.2255
0.00179614 -0.043866 0.225995
-0.0117913 -0.0325914 0.229085
-0.0114155 -0.0328356 0.228487
-0.011051 -0.0330922 0.228101
-0.0106869 -0.0333473 0.227707
-0.0103251 -0.0336032 0.227333
-0.0099634 -0.0338569 0.226942
-0.00959966 -0.0341045 0.226478
-0.00923668 -0.0343501 0.225994
-0.00887403 -0.034593 0.225488
-0.00851043 -0.0348303 0.22492
-0.00814796 -0.0350655 0.224343
-0.00779503 -0.035317 0.223998
-0.00744437 -0.0355708 0.223696
-0.00709649 -0.0358289 0.223457
-0.0067509 -0.0360906 0.223274
-0.00640203 -0.0363413 0.222954
-0.0060526 -0.0365873 0.222585
-0.00570495 -0.0368352 0.22225
-0.00536147 -0.0370927 0.22204
-0.00502034 -0.037356 0.221908
-0.0046834 -0.0376329 0.221939
-0.00434646 -0.0379105 0.221981
-0.00400884 -0.0381852 0.221988
-0.00367082 -0.0384581 0.221974
-0.00333395 -0.038736 0.222018
-0.00299837 -0.0390213 0.222143
-0.0026625 -0.0393073 0.222275
-0.00232633 -0.039593 0.2224
-0.00198972 -0.0398784 0.22252
-0.001652 -0.0401568 0.222563
-0.00131487 -0.0404403 0.222658
-0.00097748 -0.0407243 0.222757
-0.000640144 -0.0410136 0.222911
-0.000302674 -0.0413035 0.223067
3.46349e-05 -0.0416082 0.223371
0.000372591 -0.0419148 0.223687
0.0007111 -0.0422306 0.224089
0.00105069 -0.0425524 0.224544
0.00139122 -0.0428803 0.225047
0.00173323 -0.0432097 0.225557
0.00207622 -0.0435329 0.225997
-0.0111823 -0.0325606 0.229521
-0.0108035 -0.0328 0.228841
-0.0104345 -0.0330499 0.228343
-0.0100708 -0.0333047 0.227936
-0.00970878 -0.0335599 0.227549
-0.00934698 -0.0338127 0.22714
-0.00898437 -0.0340612 0.226681
-0.00861991 -0.0343029 0.226136
-0.00825311 -0.0345358 0.225486
-0.00788835 -0.034768 0.224847
-0.00753373 -0.0350175 0.224461
-0.00718242 -0.0352716 0.22415
-0.00683353 -0.0355288 0.223888
-0.00648881 -0.0357946 0.223748
-0.00614094 -0.03605 0.223476
-0.00578996 -0.0362937 0.223064
-0.00544045 -0.0365374 0.222663
-0.0050951 -0.0367908 0.222393
-0.0047512 -0.037046 0.222154
-0.00441181 -0.0373159 0.222098
-0.00407481 -0.0375938 0.222139
-0.00373704 -0.0378693 0.222152
-0.00339873 -0.0381426 0.222141
-0.00306161 -0.0384206 0.222181
-0.00272534 -0.0387053 0.222302
-0.00238917 -0.0389911 0.222429
-0.00205249 -0.0392769 0.222556
-0.00171585 -0.0395648 0.222703
-0.00137806 -0.0398459 0.222773
-0.00104044 -0.0401298 0.22287
-0.000702634 -0.0404137 0.222967
-0.000364996 -0.0407033 0.22312
-2.7012e-05 -0.0409955 0.2233
0.000310804 -0.0413029 0.223632
0.000649544 -0.0416098 0.223953
0.000988908 -0.0419254 0.224356
0.00132927 -0.0422442 0.224781
0.00167063 -0.0425665 0.225233
0.00201308 -0.0428874 0.225661
0.00235654 -0.0432042 0.226044
-0.0113363 -0.032051 0.23142
-0.0109358 -0.0322679 0.230313
-0.0105499 -0.0324994 0.229476
-0.0101753 -0.0327426 0.22885
-0.00980783 -0.0329932 0.228361
-0.00944349 -0.0332459 0.227921
-0.00908333 -0.0335028 0.227559
-0.00872174 -0.0337544 0.227128
-0.00835733 -0.0339975 0.226587
-0.0079908 -0.0342322 0.225946
-0.00762683 -0.0344673 0.225323
-0.00726993 -0.0347135 0.224879
-0.00691723 -0.0349658 0.224532
-0.00656575 -0.0352179 0.224189
-0.006219 -0.0354797 0.223989
-0.00587202 -0.0357387 0.223757
-0.00552054 -0.0359816 0.223323
-0.00516952 -0.0362212 0.222859
-0.00482353 -0.0364729 0.222558
-0.00447887 -0.0367258 0.22228
-0.00413714 -0.0369874 0.222121
-0.00379958 -0.0372636 0.22214
-0.00346221 -0.0375414 0.22218
-0.00312443 -0.0378173 0.222198
-0.002787 -0.0380952 0.222238
-0.0024506 -0.0383799 0.222357
-0.00211406 -0.0386656 0.222484
-0.00177734 -0.0389521 0.222617
-0.00144031 -0.0392402 0.222767
-0.00110271 -0.0395238 0.222863
-0.00076489 -0.0398094 0.22298
-0.000426956 -0.040096 0.223104
-8.8883e-05 -0.0403856 0.223258
0.000249394 -0.0406802 0.223464
0.000587817 -0.0409901 0.223824
0.000927102 -0.0412948 0.224122
0.00126719 -0.0416103 0.224526
0.00160825 -0.0419287 0.22495
0.00195043 -0.0422478 0.225374
0.0022933 -0.042563 0.22575
0.00263716 -0.0428758 0.226096
-0.013275 -0.030818 0.234911
-0.0133353 -0.0301724 0.234757
-0.012976 -0.0304572 0.234687
-0.0129119 -0.0310987 0.234769
-0.0126124 -0.0307369 0.234522
-0.0125402 -0.0313686 0.234441
-0.0122408 -0.0310064 0.234183
-0.0121463 -0.0316102 0.23364
-0.0118612 -0.0312646 0.233662
-0.0117394 -0.0318312 0.232521
-0.0114688 -0.0315039 0.232832
-0.0110727 -0.0317337 0.23187
-0.0106725 -0.0319524 0.230759
-0.0102847 -0.0321822 0.229868
-0.00990686 -0.0324219 0.229167
-0.0095372 -0.03267 0.22862
-0.00917097 -0.0329202 0.228127
-0.00881236 -0.0331804 0.227804
-0.00845258 -0.0334361 0.227422
-0.00808925 -0.0336822 0.226911
-0.00772494 -0.0339222 0.226326
-0.00736252 -0.0341618 0.225756
-0.00700392 -0.0344055 0.22526
-0.00664961 -0.0346553 0.224862
-0.00629633 -0.0349039 0.22446
-0.00594725 -0.0351604 0.224178
-0.00559998 -0.0354191 0.223934
-0.00524864 -0.0356627 0.223498
-0.00489725 -0.0359013 0.223009
-0.00455058 -0.0361512 0.22268
