ply
format ascii 1.0
element vertex 1660
property float x
property float y
property float z
end_header
-0.0318112 0.15909 0.532088
-0.0310651 0.158011 0.532114
-0.0303207 0.15694 0.532167
-0.0295908 0.155935 0.53251
-0.0288644 0.154945 0.532918
-0.0281279 0.153909 0.533123
-0.0273885 0.152854 0.533241
-0.0266406 0.151762 0.533185
-0.0258963 0.150683 0.533184
-0.0251443 0.14956 0.532979
-0.0243913 0.148429 0.532727
-0.0236442 0.147327 0.5326
-0.0228976 0.146224 0.532467
-0.0221533 0.145125 0.532347
-0.0214289 0.144136 0.532742
-0.0207153 0.143204 0.53341
-0.0199934 0.142233 0.53389
-0.0192751 0.141282 0.534475
-0.0185545 0.140317 0.534993
-0.0178271 0.139312 0.535319
-0.0171026 0.138329 0.535752
-0.0163934 0.137438 0.536644
-0.0156857 0.136565 0.537634
-0.0149859 0.135749 0.53892
-0.0142801 0.134904 0.540074
-0.0135767 0.134085 0.541371
-0.0128696 0.133246 0.542582
-0.0121645 0.132434 0.543941
-0.011456 0.131607 0.545239
-0.0107499 0.130809 0.546703
-0.0100413 0.13001 0.548178
-0.009333 0.129222 0.549729
-0.0454457 0.181841 0.536858
-0.0446773 0.180721 0.53682
-0.0438997 0.17956 0.536621
-0.0430823 0.178247 0.535815
-0.042289 0.177019 0.535333
-0.0414969 0.175797 0.534862
-0.0407197 0.174626 0.534588
-0.039955 0.173501 0.534494
-0.039186 0.172358 0.53432
-0.0384066 0.171168 0.53395
-0.0376351 0.170008 0.533694
-0.0368505 0.168789 0.533188
-0.0360649 0.167563 0.532642
-0.0352953 0.1664 0.532347
-0.0345255 0.165235 0.532037
-0.0337514 0.164043 0.531609
-0.0329949 0.162928 0.531492
-0.0322407 0.161817 0.531394
-0.0314906 0.160722 0.531354
-0.0307469 0.159656 0.531437
-0.0300018 0.15858 0.531472
-0.029261 0.157524 0.531591
-0.028532 0.156519 0.531934
-0.0278023 0.155515 0.532281
-0.0270671 0.15448 0.532488
-0.0263266 0.153423 0.532596
-0.0255742 0.152298 0.532394
-0.0248268 0.1512 0.532303
-0.024076 0.150079 0.532106
-0.0233268 0.148966 0.531935
-0.0225821 0.147869 0.531834
-0.0218424 0.146798 0.53185
-0.0211038 0.145728 0.531864
-0.0203795 0.144741 0.532266
-0.0196676 0.143822 0.532998
-0.0189538 0.142896 0.533697
-0.0182353 0.141945 0.534281
-0.0175124 0.140968 0.534742
-0.0167888 0.139988 0.53519
-0.0160643 0.139005 0.535626
-0.0153516 0.138104 0.536465
-0.0146432 0.137231 0.537457
-0.013941 0.136413 0.538731
-0.0132316 0.135552 0.539797
-0.0125233 0.134702 0.540937
-0.0118124 0.133849 0.542067
-0.0111037 0.133021 0.54334
-0.0103928 0.132181 0.544567
-0.00968383 0.131371 0.54596
-0.00897388 0.130572 0.547428
-0.00826396 0.129786 0.54898
-0.044366 0.182429 0.536272
-0.0435959 0.181297 0.536188
-0.042811 0.180108 0.535878
-0.0419997 0.178808 0.535126
-0.0412083 0.177583 0.534657
-0.0404233 0.176381 0.534271
-0.039648 0.175214 0.534014
-0.0388837 0.174087 0.533913
-0.0381099 0.172922 0.53365
-0.0373225 0.171693 0.533122
-0.0365432 0.170496 0.532715
-0.0357602 0.169276 0.532207
-0.0349765 0.168051 0.531662
-0.0342095 0.166893 0.531391
-0.0334457 0.165746 0.531156
-0.0326763 0.164571 0.530796
-0.0319206 0.163451 0.530663
-0.03117 0.162357 0.530629
-0.0304247 0.161279 0.530667
-0.0296836 0.160221 0.530781
-0.0289389 0.159146 0.530822
-0.0282019 0.158106 0.531008
-0.0274726 0.1571 0.531348
-0.0267443 0.156099 0.531705
-0.0260085 0.155066 0.531921
-0.0252662 0.153994 0.531959
-0.0245079 0.152835 0.531606
-0.0237556 0.151704 0.531369
-0.0230061 0.150582 0.531167
-0.0222615 0.149489 0.531085
-0.021524 0.148425 0.531137
-0.0207906 0.147385 0.531297
-0.0200596 0.14636 0.531523
-0.019336 0.145376 0.531938
-0.0186263 0.144475 0.53275
-0.0179171 0.14358 0.533601
-0.0171979 0.142631 0.534195
-0.0164728 0.141641 0.534595
-0.0157507 0.140674 0.535109
-0.0150261 0.139693 0.535552
-0.0143084 0.138763 0.536253
-0.0135984 0.137889 0.537233
-0.0128947 0.137065 0.538476
-0.0121813 0.136185 0.539449
-0.0114679 0.135306 0.540436
-0.0107557 0.134452 0.541558
-0.0100443 0.13361 0.542753
-0.00932879 0.132744 0.543836
-0.00861625 0.131918 0.545137
-0.00790589 0.131119 0.5466
-0.00719326 0.13032 0.548073
-0.0432949 0.183048 0.535803
-0.0425204 0.181896 0.535648
-0.0417276 0.18067 0.535193
-0.0409173 0.179368 0.534436
-0.0401275 0.178143 0.533969
-0.0393451 0.176948 0.533609
-0.0385714 0.175781 0.533357
-0.0378032 0.174636 0.53318
-0.0370256 0.173448 0.532827
-0.036235 0.172199 0.53222
-0.0354528 0.170983 0.531737
-0.0346709 0.169763 0.531225
-0.0338928 0.168554 0.530749
-0.0331275 0.167396 0.530479
-0.0323656 0.166254 0.530262
-0.031602 0.165097 0.529977
-0.0308432 0.163961 0.529776
-0.0300939 0.162865 0.529736
-0.0293495 0.16179 0.529782
-0.0286097 0.160733 0.529903
-0.0278663 0.15966 0.529947
-0.0271362 0.158651 0.530269
-0.0264098 0.157662 0.530676
-0.0256821 0.156665 0.531051
-0.0249506 0.155648 0.531338
-0.0242089 0.154574 0.531373
-0.0234507 0.153411 0.530999
-0.022699 0.152281 0.530764
-0.0219531 0.151174 0.530631
-0.0212101 0.150081 0.530557
-0.0204751 0.149034 0.530682
-0.0197451 0.14801 0.530918
-0.0190176 0.147004 0.531235
-0.0182946 0.146024 0.53167
-0.0175874 0.145142 0.532574
-0.0168808 0.144278 0.533563
-0.0161626 0.143333 0.534182
-0.0154367 0.142345 0.534592
-0.0147181 0.141406 0.535245
-0.0139924 0.140421 0.535675
-0.0132701 0.139462 0.536233
-0.0125562 0.13857 0.537125
-0.0118481 0.137728 0.538275
-0.011129 0.136804 0.539028
-0.010411 0.135896 0.539864
-0.00969601 0.135028 0.540908
-0.00898187 0.134171 0.542023
-0.00826416 0.13329 0.543026
-0.00754947 0.132449 0.544245
-0.00683676 0.131649 0.545688
-0.00625867 0.132258 0.554581
-0.0430554 0.185042 0.536342
-0.042266 0.183834 0.535981
-0.0414673 0.182584 0.535448
-0.0406638 0.181307 0.534803
-0.0398501 0.179987 0.533977
-0.0390572 0.178744 0.533445
-0.038273 0.177534 0.533027
-0.0374952 0.176347 0.532694
-0.0367189 0.175161 0.532359
-0.0359332 0.173933 0.531845
-0.0351405 0.172666 0.531167
-0.0343566 0.171435 0.530621
-0.0335761 0.170214 0.530104
-0.0328035 0.169021 0.529694
-0.0320427 0.167881 0.529495
-0.0312803 0.166726 0.529225
-0.030518 0.16557 0.528945
-0.0297611 0.164436 0.528749
-0.0290127 0.16334 0.528707
-0.0282692 0.162266 0.528754
-0.0275297 0.16121 0.528873
-0.0267872 0.160136 0.528912
-0.0260638 0.159157 0.529361
-0.0253388 0.158173 0.529788
-0.0246124 0.15718 0.53018
-0.0238811 0.156165 0.530471
-0.0231393 0.155088 0.530489
-0.022377 0.153892 0.529968
-0.0216236 0.152742 0.529648
-0.0208789 0.151638 0.52952
-0.0201371 0.150546 0.529447
-0.0194058 0.149516 0.529651
-0.0186821 0.148527 0.53004
-0.0179605 0.147557 0.530519
-0.0172383 0.14658 0.530971
-0.0165368 0.145744 0.532085
-0.015835 0.14491 0.533217
-0.0151184 0.143984 0.533924
-0.0143947 0.143012 0.534413
-0.0136795 0.142103 0.535206
-0.012953 0.141115 0.535627
-0.0122278 0.14014 0.536107
-0.0115108 0.139232 0.53692
-0.0107983 0.138361 0.537924
-0.0100745 0.137406 0.538522
-0.00935393 0.136483 0.539279
-0.00863698 0.1356 0.540245
-0.00791903 0.134716 0.541215
-0.00720002 0.133833 0.5422
-0.00648279 0.132977 0.543334
-0.00576526 0.132134 0.544546
-0.0420427 0.185907 0.536806
-0.0412504 0.184682 0.536386
-0.040439 0.183377 0.535652
-0.0396215 0.182036 0.534768
-0.0388034 0.180692 0.533854
-0.0380026 0.179409 0.533171
-0.0372101 0.178158 0.532598
-0.0364199 0.176912 0.532034
-0.0356345 0.175681 0.531521
-0.0348459 0.174431 0.530921
-0.0340504 0.173145 0.530166
-0.0332658 0.171903 0.529573
-0.0324874 0.170684 0.529065
-0.0317199 0.169506 0.528717
-0.0309606 0.168366 0.528516
-0.0301987 0.167212 0.528248
-0.0294417 0.166076 0.528049
-0.02869 0.164958 0.527923
-0.0279457 0.163878 0.527947
-0.0272059 0.162819 0.528057
-0.026464 0.161747 0.528109
-0.0257189 0.160656 0.528073
-0.0249983 0.159693 0.52859
-0.0242683 0.15868 0.528889
-0.0235368 0.15766 0.529154
-0.0228066 0.156645 0.529442
-0.0220645 0.155563 0.529435
-0.0213009 0.154351 0.528845
-0.0205494 0.153202 0.528526
-0.019806 0.152099 0.528403
-0.0190676 0.151023 0.528397
-0.0183403 0.15001 0.528676
-0.0176192 0.14904 0.529148
-0.016906 0.148118 0.52985
-0.0161881 0.147175 0.530451
-0.0154905 0.14637 0.53171
-0.0147915 0.145566 0.53298
-0.0140786 0.144672 0.533838
-0.0133545 0.143705 0.534348
-0.0126385 0.142797 0.535151
-0.0119097 0.141794 0.535496
-0.0111826 0.140801 0.535894
-0.0104612 0.139864 0.536564
-0.00974408 0.138964 0.537424
-0.00901801 0.137993 0.537937
-0.00829519 0.137053 0.538609
-0.00757579 0.136153 0.539485
-0.00685617 0.135256 0.540384
-0.0061353 0.134359 0.541288
-0.00541741 0.133502 0.542412
-0.00469771 0.132646 0.543546
-0.0418193 0.187992 0.537644
-0.0410326 0.186791 0.537336
-0.0402365 0.185551 0.536867
-0.0394145 0.184195 0.535946
-0.0385896 0.182819 0.534933
-0.0377635 0.181427 0.533849
-0.0369539 0.180103 0.533006
-0.036152 0.178805 0.532256
-0.0353492 0.177498 0.531453
-0.0345517 0.176204 0.530695
-0.0337589 0.174928 0.529994
-0.0329625 0.173626 0.529175
-0.0321763 0.172368 0.528521
-0.0314043 0.171169 0.528096
-0.0306413 0.170009 0.527819
-0.0298832 0.16887 0.527618
-0.0291233 0.167718 0.527358
-0.0283707 0.166599 0.527229
-0.0276228 0.165495 0.527162
-0.026883 0.164434 0.527263
-0.0261471 0.163396 0.527461
-0.0254095 0.162343 0.527593
-0.0246648 0.161251 0.527555
-0.0239437 0.160286 0.528059
-0.023208 0.159237 0.528207
-0.0224707 0.158183 0.528322
-0.021735 0.157132 0.528453
-0.0209911 0.156033 0.528369
-0.020226 0.154805 0.527702
-0.0194768 0.153659 0.527396
-0.0187347 0.152558 0.527281
-0.0180004 0.151498 0.527343
-0.0172759 0.150502 0.527696
-0.0165579 0.149549 0.528244
-0.0158489 0.148662 0.529101
-0.0151385 0.147769 0.529932
-0.0144421 0.146983 0.531274
-0.0137439 0.146198 0.532627
-0.0130321 0.14532 0.53356
-0.0123103 0.144369 0.534149
-0.011592 0.14345 0.534895
-0.0108631 0.142446 0.53524
-0.0101352 0.141451 0.535626
-0.00941215 0.140496 0.536213
-0.00869024 0.139566 0.536922
-0.00796268 0.138578 0.537349
-0.00723735 0.137621 0.537927
-0.00651506 0.136692 0.538657
-0.0057931 0.135781 0.539477
-0.00507094 0.13487 0.54031
-0.00435095 0.134001 0.541359
-0.00363042 0.133131 0.542417
-0.0408332 0.188995 0.538604
-0.0400464 0.187795 0.538307
-0.0392391 0.186501 0.537647
-0.0384082 0.185102 0.536575
-0.0375748 0.183681 0.5354
-0.0367354 0.182224 0.534072
-0.035908 0.180813 0.532905
-0.0350863 0.179416 0.531774
-0.0342752 0.178064 0.5308
-0.0334672 0.176711 0.529811
-0.0326718 0.175414 0.529027
-0.0318768 0.17411 0.528203
-0.0310967 0.172871 0.527624
-0.0303268 0.171674 0.527207
-0.029568 0.170531 0.526997
-0.0288153 0.169412 0.526879
-0.0280603 0.168277 0.526694
-0.027312 0.167177 0.526643
-0.0265679 0.166093 0.526656
-0.025832 0.16505 0.526835
-0.0250981 0.164017 0.527053
-0.0243639 0.162986 0.527278
-0.0236172 0.161879 0.527178
-0.0228892 0.160876 0.527522
-0.0221468 0.159786 0.52749
-0.0214004 0.158675 0.52736
-0.0206565 0.157569 0.527247
-0.0199134 0.15647 0.527159
-0.0191541 0.155259 0.526573
-0.0184091 0.154135 0.526359
-0.0176738 0.153067 0.526389
-0.016942 0.152023 0.526522
-0.0162183 0.151026 0.526869
-0.0155025 0.150092 0.527497
-0.0147937 0.14921 0.52837
-0.014086 0.148338 0.529298
-0.0133889 0.147559 0.530664
-0.0126915 0.14679 0.532091
-0.0119789 0.145913 0.53302
-0.0112592 0.144977 0.533682
-0.0105405 0.14406 0.534436
-0.00981154 0.143056 0.53478
-0.00908103 0.142043 0.535077
-0.00835745 0.141084 0.535645
-0.00763422 0.140138 0.536271
-0.00690472 0.139136 0.536628
-0.00617966 0.138177 0.537194
-0.00545524 0.137232 0.53784
-0.00473147 0.136305 0.538575
-0.00400928 0.135396 0.53941
-0.00328863 0.134527 0.540457
-0.00256869 0.133672 0.541582
-0.0398259 0.189922 0.539272
-0.0390422 0.188733 0.539026
-0.0382276 0.187405 0.538247
-0.0373978 0.186003 0.537172
-0.0365603 0.184556 0.535913
-0.0357123 0.183054 0.53442
-0.0348689 0.181558 0.532934
-0.0340266 0.180059 0.531415
-0.0332016 0.178625 0.53013
-0.0323829 0.177215 0.528916
-0.031586 0.175901 0.528066
-0.0307975 0.174616 0.527319
-0.0300227 0.173396 0.52682
-0.0292574 0.172217 0.526473
-0.0285034 0.171091 0.526336
-0.0277552 0.16999 0.52629
-0.027002 0.16886 0.526126
-0.0262587 0.167781 0.526163
-0.0255217 0.166733 0.526324
-0.0247887 0.16571 0.526588
-0.0240583 0.164698 0.526893
-0.0233255 0.163667 0.527126
-0.0225811 0.162575 0.52709
-0.0218447 0.161522 0.527222
-0.0210926 0.160372 0.526935
-0.0203376 0.159202 0.526553
-0.0195877 0.158056 0.526263
-0.0188418 0.156925 0.526037
-0.0180871 0.155733 0.525533
-0.0173464 0.154632 0.525416
-0.0166147 0.153582 0.525528
-0.0158865 0.152555 0.525736
-0.0151621 0.151558 0.526079
-0.0144471 0.150624 0.526709
-0.0137375 0.149744 0.527584
-0.0130317 0.148891 0.528592
-0.012332 0.148099 0.529893
-0.0116336 0.147333 0.531323
-0.01092 0.146453 0.532235
-0.0101994 0.145517 0.532891
-0.00947901 0.144586 0.533575
-0.00875249 0.143596 0.533988
-0.00802233 0.142582 0.534277
-0.00729857 0.141624 0.53484
-0.00657345 0.140664 0.535395
-0.00584599 0.139677 0.535822
-0.00512114 0.138718 0.536392
-0.00439652 0.137774 0.537036
-0.00367393 0.136861 0.537836
-0.0029523 0.135964 0.538727
-0.00223078 0.135098 0.539783
-0.00150998 0.134246 0.540921
-0.0396076 0.192075 0.540302
-0.0388129 0.190841 0.539904
-0.0380312 0.189661 0.539697
-0.037212 0.188307 0.538831
-0.0363878 0.186923 0.537833
-0.0355475 0.185455 0.536505
-0.034692 0.183907 0.534851
-0.0338325 0.182325 0.533046
-0.032971 0.180719 0.531123
-0.0321303 0.179198 0.529506
-0.0313058 0.177746 0.528135
-0.0305123 0.176437 0.527307
-0.0297299 0.175177 0.526658
-0.028961 0.173979 0.526248
-0.0281999 0.172815 0.525962
-0.0274475 0.17169 0.52583
-0.0266992 0.170589 0.525789
-0.0259503 0.16948 0.525708
-0.0252147 0.168438 0.525899
-0.0244816 0.167413 0.526155
-0.0237493 0.166391 0.526427
-0.0230179 0.165374 0.526715
-0.022284 0.16434 0.526932
-0.0215405 0.163246 0.526897
-0.0207983 0.16216 0.526889
-0.0200439 0.160991 0.526522
-0.0192841 0.159777 0.525957
-0.0185293 0.158595 0.525513
-0.0177818 0.157445 0.525204
-0.0170318 0.156276 0.524799
-0.0162952 0.155194 0.524769
-0.0155665 0.154164 0.524966
-0.0148405 0.153152 0.52524
-0.0141165 0.152155 0.525583
-0.0133981 0.151206 0.526141
-0.0126865 0.150309 0.526937
-0.0119807 0.149467 0.527991
-0.0112759 0.148641 0.52913
-0.010573 0.147843 0.530408
-0.00985852 0.14696 0.531303
-0.00913859 0.146024 0.531954
-0.00841456 0.145065 0.5325
-0.00768842 0.144078 0.532918
-0.00696108 0.143079 0.533278
-0.00623664 0.142122 0.533843
-0.00551401 0.14118 0.534482
-0.00478944 0.140227 0.53507
-0.00406575 0.139288 0.535729
-0.00334151 0.138346 0.53638
-0.00261818 0.137432 0.537177
-0.00189446 0.136522 0.537995
-0.00117325 0.135657 0.539054
-0.000453663 0.13485 0.540414
-0.0385779 0.192935 0.5407
-0.0377847 0.191705 0.540322
-0.0370035 0.190526 0.540126
-0.0361814 0.189155 0.539202
-0.0353588 0.18777 0.538213
-0.0345201 0.186301 0.536889
-0.0336632 0.184732 0.535169
-0.0327967 0.183104 0.533196
-0.0319243 0.181425 0.531005
-0.0310719 0.179834 0.529124
-0.0302408 0.178336 0.52758
-0.0294463 0.17701 0.52669
-0.0286674 0.175757 0.526076
-0.0279069 0.1746 0.525826
-0.027154 0.173473 0.525695
-0.0264013 0.172347 0.525558
-0.0256542 0.171245 0.525515
-0.0249085 0.170151 0.525498
-0.0241723 0.16911 0.525696
-0.02344 0.168087 0.525965
-0.0227047 0.167049 0.526169
-0.0219701 0.166009 0.526366
-0.021232 0.16495 0.526479
-0.0204837 0.163823 0.526304
-0.0197322 0.162673 0.526023
-0.0189801 0.161508 0.525675
-0.0182208 0.160289 0.525088
-0.0174656 0.159092 0.524581
-0.0167212 0.157959 0.524342
-0.0159795 0.156839 0.524153
-0.0152463 0.155774 0.524202
-0.0145202 0.154762 0.524476
-0.0137962 0.153765 0.524818
-0.0130723 0.152768 0.52516
-0.0123518 0.151803 0.525643
-0.0116361 0.150871 0.526283
-0.0109248 0.149991 0.52716
-0.0102133 0.149116 0.528066
-0.00950444 0.148268 0.529105
-0.00878698 0.147354 0.529847
-0.00806515 0.146404 0.530421
-0.00734304 0.145445 0.530967
-0.00661859 0.144477 0.53146
-0.00589456 0.143511 0.531972
-0.00517474 0.14259 0.532701
-0.00445439 0.141682 0.533499
-0.00373157 0.140746 0.534169
-0.00301027 0.139839 0.534981
-0.00228578 0.138902 0.535654
-0.00156233 0.137991 0.536456
-0.00083931 0.137094 0.537341
-0.000117646 0.136245 0.538472
0.000601512 0.135471 0.539992
-0.0375299 0.193726 0.540835
-0.0367383 0.192499 0.540472
-0.0359608 0.191335 0.540337
-0.0351412 0.189965 0.539427
-0.0343233 0.188598 0.538515
-0.0334866 0.187129 0.537203
-0.0326325 0.185558 0.535484
-0.0317609 0.183886 0.533361
-0.0308782 0.182141 0.530926
-0.0300197 0.1805 0.528862
-0.0291829 0.178958 0.527153
-0.0283862 0.177611 0.526189
-0.0276064 0.176344 0.525521
-0.026853 0.175221 0.525407
-0.0261042 0.174115 0.52536
-0.0253527 0.172991 0.525234
-0.0246057 0.171889 0.525194
-0.0238654 0.170824 0.525296
-0.0231269 0.169764 0.525418
-0.0223916 0.168724 0.525615
-0.0216538 0.167666 0.525741
-0.0209152 0.166605 0.525848
-0.0201691 0.165489 0.525726
-0.0194206 0.164356 0.525527
-0.018664 0.163158 0.525049
-0.0179123 0.161993 0.524696
-0.0171562 0.160779 0.524133
-0.0164074 0.159616 0.523771
-0.0156649 0.158489 0.523557
-0.0149312 0.157418 0.523585
-0.0142007 0.156372 0.523712
-0.0134767 0.155375 0.524054
-0.0127527 0.154378 0.524396
-0.0120288 0.153381 0.524738
-0.0113059 0.1524 0.525148
-0.0105859 0.151435 0.525636
-0.00986862 0.150504 0.526278
-0.00915137 0.149576 0.526938
-0.00843711 0.148679 0.527743
-0.00771697 0.147733 0.528332
-0.00699404 0.146767 0.528825
-0.00627394 0.145827 0.529445
-0.00555213 0.144876 0.530015
-0.00483164 0.143944 0.530683
-0.0041144 0.143058 0.531571
-0.00339761 0.1422 0.532603
-0.00267712 0.141299 0.533431
-0.00195724 0.140424 0.534398
-0.00123354 0.139502 0.535141
-0.000509458 0.138591 0.535943
0.000214071 0.137694 0.536823
0.000936045 0.136858 0.538016
0.00165561 0.136104 0.539633
-0.0364706 0.19447 0.540794
-0.0356798 0.193243 0.540438
-0.0349034 0.192079 0.540308
-0.034085 0.190709 0.539402
-0.0332684 0.18934 0.53849
-0.0324338 0.187869 0.537176
-0.031578 0.186277 0.53539
-0.0307061 0.184584 0.533196
-0.0298273 0.182837 0.530765
-0.0289681 0.181176 0.528633
-0.0281307 0.179611 0.526849
-0.0273347 0.178257 0.525861
-0.0265571 0.176999 0.52523
-0.0258055 0.175876 0.525122
-0.0250607 0.174791 0.525159
-0.0243134 0.173689 0.525124
-0.02357 0.172604 0.525156
-0.0228265 0.171519 0.525181
-0.0220835 0.170437 0.525212
-0.0213453 0.169374 0.525324
-0.0206039 0.168297 0.525369
-0.0198611 0.1672 0.525334
-0.0191102 0.166048 0.525062
-0.0183595 0.164892 0.524769
-0.0176008 0.163671 0.524192
-0.0168479 0.162486 0.523759
-0.016096 0.161292 0.523277
-0.0153536 0.160167 0.52308
-0.0146158 0.159064 0.522972
-0.0138846 0.158015 0.523088
-0.0131564 0.156985 0.52329
-0.0124325 0.155988 0.523632
-0.0117085 0.154991 0.523974
-0.0109845 0.153995 0.524316
-0.0102606 0.152998 0.524658
-0.00953841 0.152016 0.525068
-0.00881752 0.151051 0.525556
-0.00809664 0.150088 0.526054
-0.00737727 0.149141 0.526624
-0.00665545 0.148176 0.52712
-0.00593226 0.147195 0.527538
-0.00521268 0.146257 0.528163
-0.00449346 0.14534 0.528882
-0.0037772 0.14446 0.529787
-0.00306134 0.143609 0.530838
-0.00234668 0.142786 0.532032
-0.00162723 0.141914 0.533002
-0.000906911 0.14104 0.533968
-0.000182215 0.140118 0.534708
0.000542014 0.139207 0.535511
0.00126632 0.13831 0.536387
0.00198984 0.137476 0.537581
0.00271147 0.136724 0.539204
-0.0354066 0.195193 0.540675
-0.0346188 0.193977 0.540362
-0.0338382 0.192797 0.540174
-0.0330258 0.191443 0.539339
-0.0322071 0.190053 0.538351
-0.0313738 0.188575 0.537024
-0.0305198 0.186979 0.53523
-0.0296512 0.185284 0.533037
-0.0287798 0.183557 0.530694
-0.0279287 0.181918 0.52866
-0.0270906 0.180336 0.526817
-0.0262928 0.178961 0.525756
-0.0255118 0.177676 0.525025
-0.0247566 0.17653 0.524832
-0.0240122 0.175445 0.524871
-0.0232695 0.174367 0.524934
-0.0225297 0.173303 0.52505
-0.0217864 0.172218 0.525078
-0.0210379 0.171097 0.524957
-0.0202958 0.170012 0.524976
-0.0195524 0.168913 0.524936
-0.0188028 0.167768 0.524704
-0.0180481 0.166581 0.52429
-0.0172932 0.165387 0.523837
-0.0165332 0.16414 0.523159
-0.0157796 0.162939 0.522651
-0.0150331 0.161777 0.522308
-0.0142973 0.16069 0.522272
-0.0135666 0.159641 0.522392
-0.0128384 0.158611 0.522593
-0.0121129 0.157598 0.522868
-0.011389 0.156601 0.52321
-0.010665 0.155604 0.523552
-0.00993902 0.154593 0.523827
-0.00921348 0.153579 0.524096
-0.00848841 0.152566 0.524363
-0.00776398 0.151569 0.524701
-0.00704071 0.150573 0.525048
-0.00631867 0.149593 0.525465
-0.00559697 0.148627 0.525948
-0.00487508 0.147661 0.526431
-0.00415714 0.146742 0.527137
-0.00344127 0.145859 0.528016
-0.00272744 0.145027 0.529142
-0.0020128 0.144211 0.530351
-0.00129917 0.143421 0.5317
-0.000579926 0.142567 0.53275
0.000142178 0.141693 0.533716
0.000866591 0.140783 0.534516
0.00159227 0.139857 0.535241
0.0023182 0.138946 0.536048
0.00304275 0.138111 0.537239
0.00376568 0.137372 0.538918
-0.0343275 0.19585 0.540312
-0.0335449 0.194657 0.540086
-0.0327616 0.193452 0.539813
-0.0319501 0.192099 0.538981
-0.0311289 0.190686 0.537914
-0.0302975 0.189202 0.53657
-0.0294454 0.187599 0.534759
-0.0285837 0.185922 0.532641
-0.027727 0.184253 0.53053
-0.0268899 0.182675 0.528739
-0.0260561 0.181099 0.526932
-0.0252565 0.179702 0.525792
-0.0244726 0.178391 0.52497
-0.0237143 0.177222 0.524689
-0.0229671 0.176122 0.52467
-0.0222283 0.175063 0.524813
-0.0214884 0.174002 0.524942
-0.0207453 0.172916 0.524971
-0.0199899 0.171741 0.524637
-0.0192421 0.170615 0.524494
-0.0184965 0.169498 0.524379
-0.0177452 0.168333 0.524066
-0.0169868 0.167114 0.523522
-0.0162328 0.165915 0.523049
-0.0154721 0.164649 0.52229
-0.0147197 0.163443 0.52177
-0.0139778 0.162304 0.521518
-0.0132469 0.161253 0.521634
-0.0125187 0.160223 0.521834
-0.0117948 0.159224 0.522171
-0.0110687 0.158212 0.522445
-0.0103447 0.157215 0.522788
-0.00962077 0.156218 0.52313
-0.00889379 0.155189 0.523332
-0.00816636 0.154158 0.523521
-0.00743967 0.153126 0.523704
-0.00671297 0.152095 0.523893
-0.00598707 0.151068 0.524094
-0.0052638 0.150072 0.524436
-0.00454276 0.149107 0.524918
-0.00382199 0.148144 0.525414
-0.00310722 0.147274 0.52634
-0.00239374 0.146443 0.527452
-0.00168095 0.145646 0.528739
-0.000967514 0.144864 0.530106
-0.0002529 0.144089 0.531522
0.000467709 0.143237 0.532582
0.00119073 0.142362 0.53354
0.0019151 0.141467 0.534411
0.00264184 0.140541 0.53514
0.00336873 0.139645 0.536015
0.00409412 0.13881 0.537209
0.00481979 0.138039 0.538729
0.00448995 0.136684 0.540877
0.00554768 0.137318 0.540513
-0.0340214 0.197653 0.539998
-0.0332505 0.196519 0.539994
-0.0324712 0.195335 0.539804
-0.0316844 0.194111 0.539461
-0.030875 0.192758 0.538635
-0.0300552 0.19134 0.537558
-0.0292249 0.189853 0.536206
-0.0283764 0.188247 0.534391
-0.0275223 0.18659 0.532363
-0.0266755 0.184962 0.530414
-0.0258487 0.183424 0.528785
-0.025024 0.181883 0.527124
-0.024225 0.180485 0.525986
-0.0234421 0.17917 0.525155
-0.0226805 0.177978 0.524791
-0.0219283 0.176839 0.524628
-0.0211858 0.175761 0.524695
-0.0204434 0.174681 0.524752
-0.019698 0.173575 0.524705
-0.0189374 0.172362 0.524222
-0.0181873 0.171214 0.523992
-0.0174394 0.170074 0.523786
-0.0166866 0.168891 0.523403
-0.0159282 0.167654 0.522787
-0.0151772 0.166469 0.522371
-0.0144198 0.16522 0.521686
-0.0136719 0.164037 0.52126
-0.0129333 0.162919 0.521101
-0.0122049 0.161886 0.521296
-0.0114751 0.160839 0.521425
-0.0107506 0.159838 0.521749
-0.0100229 0.158808 0.521949
-0.00929927 0.157811 0.522293
-0.0085752 0.156816 0.522641
-0.00784886 0.155785 0.522835
-0.00711973 0.154735 0.52294
-0.00639136 0.153681 0.523027
-0.00566395 0.152632 0.523131
-0.00493724 0.151588 0.523258
-0.00421441 0.150593 0.523599
-0.00349478 0.149645 0.524156
-0.00277636 0.148716 0.524804
-0.00206324 0.147885 0.525905
-0.00135082 0.14709 0.527185
-0.000637977 0.146327 0.528624
7.63646e-05 0.145561 0.530065
0.000792593 0.144787 0.531479
0.00151486 0.143934 0.532538
0.00223852 0.143059 0.533498
0.00296445 0.142167 0.534379
0.00369179 0.141242 0.535113
0.00441985 0.140333 0.535932
0.00514753 0.139483 0.537044
0.00587548 0.138667 0.53834
0.00660594 0.1379 0.539885
-0.0329404 0.198305 0.539613
-0.0321705 0.197171 0.539612
-0.0313956 0.196011 0.53951
-0.0306074 0.194771 0.539113
-0.0297997 0.19342 0.538299
-0.0289822 0.191999 0.537217
-0.0281575 0.190528 0.535934
-0.0273154 0.188942 0.534201
-0.0264684 0.18731 0.532273
-0.0256321 0.18572 0.530482
-0.0248104 0.1842 0.528931
-0.0239908 0.182677 0.527346
-0.0231908 0.181257 0.526137
-0.0224111 0.179956 0.525366
-0.0216467 0.178743 0.524925
-0.0208918 0.177581 0.524679
-0.0201456 0.176481 0.524663
-0.0193994 0.175375 0.524619
-0.0186489 0.174229 0.524417
-0.0178885 0.173009 0.523911
-0.0171372 0.171843 0.523612
-0.0163872 0.170683 0.523326
-0.0156334 0.169479 0.522862
-0.0148733 0.168222 0.522165
-0.0141201 0.167006 0.521629
-0.0133666 0.165776 0.521022
-0.0126234 0.164616 0.520696
-0.011887 0.163519 0.520623
-0.0111612 0.162508 0.520905
-0.0104332 0.161471 0.521083
-0.00970859 0.160467 0.521394
-0.0089789 0.159419 0.521517
-0.0082557 0.158423 0.521864
-0.00753185 0.157428 0.522214
-0.00680351 0.156382 0.522341
-0.00607539 0.155328 0.522432
-0.00534699 0.154271 0.522508
-0.00461993 0.153221 0.522606
-0.00389224 0.152162 0.522666
-0.00317005 0.151181 0.523069
-0.00245074 0.150234 0.523629
-0.00173264 0.149324 0.524359
-0.00101967 0.148515 0.525559
-0.000307986 0.147755 0.526996
0.000405263 0.147012 0.528527
0.00112069 0.146259 0.530027
0.00183979 0.145469 0.531364
0.00256399 0.1446 0.532342
0.00328861 0.143725 0.533302
0.00401552 0.142835 0.534194
0.00474335 0.141913 0.534942
0.00547216 0.141004 0.535759
0.00620094 0.140152 0.536861
0.00693159 0.139306 0.538002
0.00766295 0.138506 0.539386
-0.0326411 0.200149 0.539433
-0.0318574 0.198942 0.539177
-0.0310875 0.197808 0.539176
-0.0303173 0.196669 0.539151
-0.0295302 0.195429 0.53876
-0.0287239 0.194079 0.537952
-0.0279112 0.192677 0.536944
-0.0270921 0.191226 0.535739
-0.0262572 0.189663 0.534102
-0.02542 0.18807 0.532332
-0.0245903 0.186502 0.530633
-0.0237729 0.184996 0.529145
-0.022958 0.183486 0.527621
-0.0221568 0.182045 0.526342
-0.0213755 0.180727 0.525513
-0.0206118 0.17951 0.525064
-0.0198509 0.178309 0.524667
-0.0190997 0.177164 0.524484
-0.0183477 0.176016 0.524276
-0.0175951 0.174847 0.523984
-0.0168335 0.173607 0.523405
-0.0160808 0.172425 0.52304
-0.0153274 0.171229 0.522616
-0.0145739 0.170023 0.52214
-0.0138139 0.168745 0.521365
-0.0130625 0.16753 0.52083
-0.0123133 0.166319 0.520307
-0.0115758 0.165211 0.520194
-0.0108452 0.16415 0.520276
-0.0101227 0.163174 0.520705
-0.00939617 0.162154 0.520954
-0.00867212 0.161164 0.521327
-0.00794124 0.160096 0.521371
-0.00721747 0.159101 0.52172
-0.00649219 0.15809 0.522002
-0.00576128 0.157012 0.521995
-0.00503228 0.155942 0.522017
-0.00430458 0.154885 0.522092
-0.00357658 0.153822 0.522135
-0.0028497 0.152765 0.522203
-0.00212868 0.151799 0.522676
-0.00140927 0.150866 0.523296
-0.000692807 0.149987 0.524169
1.98887e-05 0.149212 0.52552
0.000733099 0.148473 0.527047
0.00144762 0.147744 0.528641
0.00216598 0.146975 0.530064
0.00288758 0.146168 0.531322
0.00361261 0.14528 0.532214
0.00433912 0.144406 0.533174
0.00506658 0.143514 0.53406
0.00579561 0.142594 0.534816
0.00652533 0.141669 0.535556
0.00725615 0.140801 0.536576
0.00798724 0.139935 0.537621
0.00872055 0.139121 0.538927
-0.0307768 0.1996 0.538814
-0.0300108 0.198483 0.538875
-0.0292475 0.197378 0.53898
-0.0284665 0.19617 0.538704
-0.027665 0.194838 0.537969
-0.0268601 0.193473 0.537104
-0.0260403 0.192003 0.535839
-0.0252048 0.190421 0.534142
-0.0243705 0.188827 0.532379
-0.0235422 0.187255 0.530673
-0.0227243 0.185726 0.529108
-0.0219168 0.184251 0.527725
-0.0211201 0.182828 0.526522
-0.0203409 0.181509 0.5257
-0.0195767 0.18029 0.525247
-0.0188113 0.179047 0.524696
-0.0180543 0.177862 0.524357
-0.017296 0.176655 0.523929
-0.016541 0.175464 0.523553
-0.0157809 0.174226 0.522979
-0.0150277 0.173028 0.522559
-0.0142716 0.1718 0.522006
-0.0135227 0.17062 0.521639
-0.0127654 0.169357 0.520924
-0.0120152 0.168142 0.520394
-0.0112731 0.166984 0.52009
-0.0105434 0.165942 0.520257
-0.00981373 0.164901 0.520421
-0.00909245 0.163944 0.520933
-0.00836751 0.162943 0.521266
-0.00764172 0.161938 0.521584
-0.00690937 0.160854 0.521561
-0.0061831 0.159838 0.521825
-0.00545508 0.158791 0.521959
-0.00472162 0.157679 0.521803
-0.00399229 0.156606 0.521817
-0.00326497 0.155551 0.521902
-0.00253768 0.154492 0.521968
-0.00181172 0.153454 0.522119
-0.00109185 0.152503 0.522665
-0.000371477 0.151568 0.523276
0.000346183 0.150691 0.524157
0.00106052 0.14993 0.525571
0.00177536 0.149192 0.527104
0.00249226 0.148464 0.528696
0.00321267 0.147678 0.530041
0.00393641 0.146867 0.531281
0.0046632 0.145963 0.532095
0.00539012 0.145088 0.533051
0.00611899 0.144181 0.533867
0.00684905 0.143274 0.534684
0.00757959 0.142347 0.535412
0.00831082 0.141463 0.536356
0.00904383 0.140583 0.537327
0.00977827 0.139796 0.538766
-0.0289335 0.199156 0.538568
-0.0281698 0.198047 0.538656
-0.0273932 0.196863 0.538472
-0.0265993 0.195564 0.537865
-0.0257993 0.194219 0.537078
-0.0249812 0.192748 0.535819
-0.0241537 0.191199 0.534253
-0.0233206 0.189598 0.532471
-0.0224944 0.188019 0.53075
-0.0216761 0.186469 0.529118
-0.0208731 0.185012 0.527808
-0.0200788 0.183591 0.526624
-0.0193028 0.182289 0.525872
-0.0185392 0.181069 0.525421
-0.0177742 0.17982 0.524855
-0.0170127 0.178595 0.524368
-0.0162524 0.177366 0.523857
-0.0154934 0.176139 0.523342
-0.0147349 0.174899 0.52277
-0.0139821 0.173702 0.522356
-0.0132291 0.172489 0.521868
-0.0124827 0.171326 0.521572
-0.0117326 0.170111 0.521061
-0.010985 0.168918 0.520626
-0.0102467 0.167798 0.520483
-0.00951844 0.166776 0.520735
-0.00879058 0.165751 0.520974
-0.00806831 0.164796 0.5215
-0.0073438 0.163816 0.521927
-0.00661764 0.162812 0.522253
-0.00588374 0.16171 0.522164
-0.00515452 0.160671 0.522335
-0.00442284 0.159583 0.522298
-0.00368645 0.158416 0.521915
-0.00295466 0.157306 0.521773
-0.00222725 0.156248 0.521848
-0.00149852 0.155174 0.521851
-0.000773341 0.154138 0.522017
-5.27996e-05 0.153205 0.522637
0.0006683 0.152256 0.52319
0.00138765 0.151377 0.524059
0.00210377 0.150602 0.525409
0.0028208 0.149864 0.526941
0.00353886 0.149136 0.528533
0.0042613 0.148365 0.529938
0.00498562 0.147553 0.531176
0.00571358 0.14665 0.53199
0.00644248 0.145775 0.532948
0.00717159 0.144883 0.533832
0.00790266 0.14399 0.534718
0.00863455 0.143064 0.535454
0.0093669 0.142194 0.536467
0.010101 0.141328 0.537509
0.0108382 0.140545 0.538962
-0.0278567 0.199834 0.538278
-0.0270932 0.198725 0.538369
-0.0263214 0.197564 0.538269
-0.0255334 0.196296 0.537777
-0.0247346 0.194951 0.536995
-0.0239188 0.193478 0.535738
-0.0230988 0.191966 0.534313
-0.0222678 0.190354 0.532506
-0.0214431 0.188771 0.530777
-0.0206268 0.187217 0.529141
-0.0198263 0.185758 0.527835
-0.0190309 0.18432 0.526591
-0.0182564 0.183018 0.525846
-0.0174944 0.181798 0.525402
-0.0167294 0.180546 0.524829
-0.0159667 0.1793 0.524267
-0.0152063 0.178067 0.523745
-0.0144487 0.176836 0.52322
-0.0136921 0.175612 0.522712
-0.0129425 0.174432 0.522374
-0.0121944 0.173255 0.522035
-0.0114528 0.172129 0.521892
-0.0107082 0.170971 0.521615
-0.00996407 0.169803 0.521294
-0.00922937 0.168722 0.521317
-0.00850197 0.167719 0.521653
-0.00777189 0.166694 0.521897
-0.0070474 0.165717 0.522344
-0.00632264 0.164751 0.522834
-0.00559403 0.16373 0.523096
-0.00485729 0.162608 0.522933
-0.0041273 0.16156 0.523077
-0.00339348 0.16045 0.522951
-0.00265367 0.159226 0.522336
-0.00192046 0.158092 0.522095
-0.001192 0.157027 0.522148
-0.000462083 0.155919 0.522004
0.000264528 0.154866 0.522102
0.000984511 0.153946 0.522785
0.00170743 0.152982 0.523273
0.00242914 0.152072 0.524005
0.00314703 0.15128 0.525275
0.00386587 0.150539 0.526787
0.00458721 0.149784 0.528254
0.00531075 0.149016 0.529671
0.00603699 0.148223 0.530989
0.00676522 0.147351 0.53195
0.00749498 0.146479 0.532922
0.00822568 0.145634 0.534028
0.00895771 0.144774 0.535073
0.00969165 0.143897 0.536044
0.0104262 0.143048 0.537162
0.0111632 0.142228 0.538429
0.0119036 0.141459 0.53996
0.0116102 0.14133 0.548167
0.0126455 0.140683 0.54147
-0.0260129 0.199382 0.538003
-0.0252438 0.198234 0.537953
-0.0244585 0.196978 0.537506
-0.0236664 0.195663 0.536843
-0.022857 0.194223 0.535706
-0.0220428 0.19273 0.534365
-0.0212147 0.19112 0.532575
-0.0203925 0.189534 0.530847
-0.0195775 0.187975 0.529195
-0.0187791 0.186514 0.527893
-0.0179878 0.185088 0.526704
-0.0172144 0.183788 0.525972
-0.0164529 0.182564 0.525522
-0.0156886 0.181314 0.524961
-0.0149263 0.180065 0.524393
-0.014165 0.178812 0.523802
-0.0134071 0.177576 0.523263
-0.0126516 0.17635 0.522754
-0.0119024 0.17517 0.522417
-0.0111569 0.174015 0.522174
-0.0104198 0.172931 0.522203
-0.00968107 0.171834 0.522175
-0.00894082 0.170705 0.522017
-0.00820758 0.169645 0.522134
-0.00747984 0.168656 0.522534
-0.00675064 0.16764 0.522826
-0.00602364 0.166658 0.52326
-0.005299 0.165705 0.52381
-0.00456845 0.16468 0.524067
-0.00383163 0.163553 0.523893
-0.00309961 0.162487 0.523968
-0.0023628 0.161337 0.523687
-0.00162122 0.160078 0.522927
-0.000886521 0.158922 0.5226
-0.000155998 0.157819 0.522492
0.000575399 0.156672 0.522191
0.00130274 0.155613 0.522265
0.00202484 0.154677 0.522877
0.00274871 0.153695 0.523292
0.00347078 0.152782 0.524011
0.00419189 0.15197 0.525189
0.00491266 0.151212 0.526626
0.00563612 0.150441 0.528013
0.00636123 0.149677 0.529449
0.00708897 0.148889 0.530784
0.00781796 0.148052 0.531908
0.008549 0.147198 0.532962
0.00928164 0.146404 0.534306
0.010016 0.145581 0.535531
0.010752 0.144759 0.536765
0.0114892 0.143929 0.537981
0.0122296 0.143156 0.539479
0.0129731 0.142405 0.541098
0.0137188 0.141643 0.542684
-0.0249386 0.200081 0.537788
-0.0241703 0.198934 0.537741
-0.0233839 0.197661 0.537242
-0.0225937 0.196355 0.536609
-0.0217899 0.194937 0.535564
-0.0209851 0.193498 0.534424
-0.0201706 0.191965 0.532927
-0.0193564 0.190419 0.53136
-0.018544 0.188858 0.529715
-0.0177456 0.187389 0.528394
-0.0169551 0.185956 0.527187
-0.0161797 0.184632 0.526375
-0.0154156 0.183388 0.525854
-0.0146528 0.182137 0.525297
-0.013889 0.180868 0.524663
-0.0131278 0.179613 0.524068
-0.0123705 0.178374 0.523526
-0.0116162 0.177146 0.52302
-0.0108673 0.175969 0.522699
-0.0101272 0.174869 0.522676
-0.00939306 0.173823 0.522866
-0.00865898 0.172783 0.523071
-0.0079217 0.171689 0.523066
-0.00718769 0.170643 0.523245
-0.00645598 0.169612 0.523484
-0.00572347 0.168573 0.523691
-0.00499297 0.167553 0.523976
-0.00426559 0.166581 0.524456
-0.00353433 0.165557 0.524721
-0.00279906 0.164461 0.524683
-0.00206639 0.163395 0.524768
-0.00132995 0.162246 0.5245
-0.00058892 0.161 0.52381
0.000145662 0.159842 0.523484
0.00087799 0.158704 0.523237
0.00161105 0.157535 0.52285
0.00234004 0.156437 0.522763
0.00306496 0.155448 0.523144
0.0037907 0.154415 0.523337
0.00451503 0.15347 0.523915
0.0052376 0.152608 0.52487
0.00596048 0.15183 0.526211
0.00668584 0.151041 0.527512
0.00741211 0.150294 0.529022
0.00814106 0.149509 0.530367
0.00887153 0.148706 0.531645
0.00960357 0.147886 0.532854
0.0103388 0.147144 0.534444
0.0110754 0.146373 0.535911
0.0118152 0.145635 0.537545
0.012557 0.144857 0.539007
0.0133017 0.144133 0.54075
0.014049 0.143395 0.542441
0.0147991 0.142647 0.544097
0.014529 0.142441 0.551966
0.0155507 0.141878 0.54567
-0.0222882 0.198201 0.536459
-0.0215004 0.196896 0.535837
-0.0207074 0.195544 0.53503
-0.0199164 0.194187 0.534196
-0.0191168 0.192753 0.533067
-0.018313 0.191268 0.531731
-0.0175092 0.189765 0.530313
-0.0167153 0.188313 0.529065
-0.0159256 0.186876 0.52786
-0.0151502 0.185542 0.52702
-0.0143861 0.184294 0.526493
-0.0136224 0.183038 0.525923
-0.0128595 0.181768 0.525295
-0.0121007 0.180529 0.524774
-0.0113439 0.179289 0.524237
-0.0105891 0.178059 0.523729
-0.00984028 0.176878 0.523406
-0.00910251 0.175811 0.523521
-0.0083692 0.174785 0.523792
-0.00763763 0.173778 0.524145
-0.00690151 0.172718 0.524282
-0.00616487 0.171651 0.524385
-0.00542864 0.170576 0.524458
-0.00469207 0.169493 0.524494
-0.00395814 0.168437 0.524636
-0.003227 0.167419 0.524933
-0.00249618 0.166412 0.525275
-0.00176064 0.165318 0.525255
-0.00102838 0.164267 0.525412
-0.000292466 0.163137 0.52523
0.00044663 0.161923 0.524689
0.00118126 0.160768 0.524386
0.00191405 0.15963 0.524148
0.00264775 0.158441 0.523685
0.0033782 0.157303 0.523434
0.00410526 0.156276 0.523657
0.00483308 0.155191 0.523625
0.00555835 0.154208 0.524041
0.00628369 0.153295 0.52477
0.00700857 0.152484 0.525958
0.00773525 0.151676 0.527172
0.0084634 0.150944 0.528741
0.00919375 0.15016 0.530093
0.00992583 0.149405 0.531587
0.0106604 0.148633 0.53302
0.0113987 0.147943 0.534845
0.0121389 0.14721 0.536491
0.0128827 0.146535 0.538426
0.0136288 0.145819 0.540192
0.0143792 0.145133 0.542111
0.0151298 0.144384 0.543758
0.0158838 0.14365 0.545489
0.0166371 0.142861 0.546971
-0.0196274 0.196167 0.534557
-0.0188434 0.194853 0.533882
-0.0180576 0.193514 0.533103
-0.0172637 0.192092 0.532008
-0.016468 0.190638 0.530782
-0.0156808 0.189228 0.529702
-0.0148964 0.187827 0.528638
-0.0141207 0.186488 0.527789
-0.0133564 0.185233 0.527247
-0.0125934 0.183973 0.526676
-0.0118321 0.18272 0.526118
-0.011075 0.181496 0.525665
-0.01032 0.180273 0.525204
-0.00956638 0.17906 0.524775
-0.00881851 0.177893 0.524514
-0.00808009 0.176821 0.524621
-0.00734484 0.17579 0.524882
-0.00661019 0.174767 0.525175
-0.00587246 0.173688 0.525249
-0.00513105 0.172564 0.525136
-0.00439098 0.171446 0.525042
-0.0036506 0.170301 0.524834
-0.00291476 0.169221 0.524885
-0.00218081 0.16817 0.525048
-0.00144945 0.167164 0.525398
-0.000714956 0.166087 0.525454
1.73746e-05 0.165056 0.525695
0.00075298 0.163928 0.525529
0.00148937 0.162765 0.525208
0.00222265 0.161643 0.525057
0.0029557 0.160507 0.52484
0.00368858 0.159332 0.524444
0.00441985 0.158189 0.52418
0.00514794 0.157124 0.524247
0.00587678 0.156014 0.524116
0.00660333 0.15501 0.524442
0.00732973 0.154062 0.525019
0.00805669 0.153232 0.526124
0.00878502 0.152407 0.527261
0.00951509 0.151644 0.528689
0.0102464 0.150845 0.52997
0.0109817 0.150107 0.531538
0.0117178 0.149355 0.533061
0.0124596 0.148684 0.534974
0.0132033 0.148001 0.536847
0.0139518 0.147373 0.539007
0.014703 0.146697 0.540953
0.0154569 0.14603 0.542971
0.0162105 0.145283 0.544627
0.0169673 0.144546 0.546352
0.0177223 0.143726 0.547684
-0.0185424 0.196748 0.533929
-0.0177647 0.195476 0.53341
-0.0169895 0.194208 0.532894
-0.0162072 0.192872 0.532119
-0.0154231 0.191502 0.531209
-0.014644 0.190159 0.530384
-0.0138699 0.188839 0.529634
-0.0131009 0.187557 0.529011
-0.0123386 0.18632 0.528549
-0.0115747 0.185057 0.527978
-0.0108126 0.183798 0.527411
-0.0100539 0.182554 0.526892
-0.00929522 0.181293 0.526302
-0.00854011 0.180057 0.525793
-0.0077896 0.178868 0.525456
-0.00704852 0.177774 0.525484
-0.0063105 0.176722 0.525671
-0.00557405 0.175677 0.525891
-0.00483489 0.174596 0.525958
-0.00408931 0.173415 0.525627
-0.00334708 0.172256 0.525378
-0.00260394 0.171066 0.524991
-0.00186674 0.169963 0.524954
-0.00113063 0.168869 0.524949
-0.000399525 0.16788 0.525367
0.000334215 0.166816 0.525479
0.0010666 0.165787 0.525731
0.00180164 0.164675 0.525639
0.00253567 0.163562 0.525537
0.00326785 0.162476 0.525544
0.0040011 0.161343 0.525344
0.00473335 0.160198 0.525087
0.00546431 0.159069 0.524893
0.006194 0.157969 0.524818
0.00692258 0.156843 0.524621
0.00765057 0.155833 0.524931
0.00837772 0.154849 0.525353
0.00910645 0.153986 0.526314
0.00983592 0.153144 0.527375
0.0105681 0.152349 0.528659
0.0113012 0.151536 0.529873
0.0120378 0.150797 0.531435
0.0127772 0.15008 0.533112
0.0135217 0.14943 0.535118
0.0142703 0.148797 0.537222
0.0150236 0.148204 0.53954
0.0157788 0.14756 0.541643
0.0165368 0.146898 0.543683
0.0172928 0.146152 0.545346
0.0180518 0.145395 0.546972
0.0188077 0.144554 0.548213
-0.0174511 0.197274 0.533108
-0.0166811 0.196051 0.532765
-0.0159177 0.194875 0.532586
-0.0151473 0.193629 0.532144
-0.0143758 0.192366 0.531633
-0.0136129 0.191165 0.531337
-0.0128473 0.189928 0.530905
-0.0120852 0.188712 0.530542
-0.0113239 0.187498 0.530177
-0.0105593 0.186232 0.529609
-0.00979351 0.184927 0.528886
-0.00903325 0.183674 0.528344
-0.00827065 0.18237 0.527602
-0.00751326 0.181112 0.527023
-0.00676113 0.179898 0.526603
-0.00601688 0.178779 0.526544
-0.00527518 0.177688 0.526588
-0.00453505 0.176601 0.526649
-0.00379354 0.175496 0.526629
-0.00304582 0.174271 0.526132
-0.00230077 0.173073 0.525732
-0.00155502 0.171824 0.525117
-0.000815746 0.17068 0.52492
-7.7589e-05 0.169529 0.524684
0.00065385 0.168536 0.525088
0.00138713 0.167487 0.525263
0.00211859 0.166476 0.525596
0.00285206 0.165399 0.52565
0.00358469 0.164336 0.525761
0.00431686 0.163267 0.525846
0.00504937 0.162154 0.525737
0.0057813 0.161042 0.525628
0.00651214 0.15993 0.525514
0.00724213 0.158817 0.525392
0.0079716 0.157689 0.525195
0.00869996 0.156662 0.525435
0.00942825 0.155661 0.525791
0.0101577 0.154766 0.52661
0.010889 0.153905 0.527591
0.0116225 0.153091 0.528786
0.0123566 0.152258 0.529912
0.0130951 0.151503 0.5314
0.0138376 0.150803 0.533153
0.0145855 0.150174 0.535247
0.0153378 0.149562 0.537447
0.0160955 0.148989 0.539853
0.0168552 0.148378 0.542111
0.0176154 0.147701 0.544075
0.0183735 0.146938 0.545655
0.0191331 0.14616 0.547183
0.020002 0.146869 0.555885
-0.0156018 0.196662 0.532254
-0.014844 0.195529 0.532229
-0.0140825 0.194362 0.532077
-0.0133226 0.1932 0.531938
-0.0125726 0.192127 0.53212
-0.0118206 0.19103 0.532209
-0.011066 0.189902 0.532185
-0.0103087 0.188731 0.531994
-0.00954272 0.187458 0.531418
-0.00877151 0.186099 0.530504
-0.00800578 0.184776 0.529715
-0.00723782 0.183404 0.528728
-0.00647712 0.182102 0.527992
-0.00572302 0.180862 0.527484
-0.00497574 0.179702 0.527274
-0.00423064 0.178569 0.527162
-0.00348736 0.17744 0.527061
-0.00274377 0.176308 0.526945
-0.00199556 0.175059 0.526362
-0.00125106 0.173858 0.525955
-0.000504807 0.172572 0.525204
0.00023529 0.171406 0.52492
0.000974607 0.170215 0.524529
0.00170714 0.169201 0.524845
0.00244077 0.168139 0.524971
0.00317174 0.167149 0.525388
0.00390408 0.166108 0.525596
0.0046368 0.165064 0.525788
0.00536906 0.163999 0.525892
0.00610115 0.162902 0.525856
0.00683247 0.161807 0.525827
0.00756343 0.160712 0.525791
0.00829377 0.159633 0.52582
0.00902285 0.158539 0.525781
0.00975201 0.157514 0.526033
0.0104816 0.156511 0.526383
0.0112124 0.155579 0.527046
0.0119444 0.154697 0.527937
0.0126793 0.153848 0.528978
0.0134146 0.152996 0.530019
0.0141542 0.152223 0.531425
0.0148995 0.151538 0.533243
0.0156495 0.150897 0.535284
0.0164054 0.150292 0.537504
0.0171662 0.149721 0.539916
0.0179302 0.149126 0.542238
0.0186921 0.148432 0.544125
0.0195621 0.149287 0.553357
-0.0130144 0.195066 0.531904
-0.0122641 0.193996 0.532101
-0.0115217 0.193012 0.532611
-0.0107789 0.192019 0.53309
-0.0100332 0.191 0.533476
-0.00927856 0.189871 0.533451
-0.00851369 0.188609 0.53293
-0.00773989 0.187215 0.5319
-0.00696846 0.185819 0.530849
-0.00619496 0.184361 0.529548
-0.00543187 0.183012 0.528647
-0.00467597 0.181746 0.528047
-0.00392682 0.180563 0.527755
-0.00317962 0.179387 0.527484
-0.00243351 0.178216 0.527227
-0.00168857 0.177041 0.526948
-0.000939744 0.175754 0.52622
-0.000194065 0.174518 0.525677
0.000551492 0.173215 0.524862
0.00129152 0.172029 0.524501
0.00203035 0.170833 0.524094
0.00276261 0.1698 0.524337
0.00349541 0.168759 0.524547
0.004226 0.167792 0.525057
0.00495806 0.166775 0.525367
0.00569013 0.165747 0.525628
0.00642277 0.164698 0.525799
0.00715433 0.1636 0.525762
0.00788539 0.162538 0.525876
0.00861637 0.161495 0.526068
0.00934745 0.160437 0.52619
0.0100775 0.159377 0.5263
0.0108074 0.158363 0.526612
0.0115377 0.157358 0.526957
0.0122696 0.156408 0.527546
0.0130028 0.155507 0.528357
0.0137374 0.154621 0.52924
0.014474 0.15375 0.530195
0.0152145 0.152946 0.531459
0.0159614 0.152245 0.533203
0.0167143 0.151605 0.535238
0.017473 0.150998 0.537451
0.0182363 0.150412 0.539785
0.0190025 0.149814 0.54209
0.019767 0.149121 0.543974
-0.011207 0.194834 0.532412
-0.0104698 0.193909 0.53314
-0.00972948 0.192965 0.533802
-0.00898688 0.191991 0.534359
-0.00823376 0.190898 0.534477
-0.00747037 0.189651 0.534021
-0.00669545 0.188231 0.532909
-0.00591935 0.186766 0.531609
-0.00514441 0.185256 0.530128
-0.00437771 0.183843 0.52899
-0.00361914 0.182517 0.528168
-0.00286978 0.181312 0.5278
-0.00212159 0.180114 0.52745
-0.00137534 0.17892 0.527109
-0.000629813 0.177724 0.52675
0.000118334 0.176435 0.526017
0.000863193 0.17518 0.525409
0.00160789 0.173861 0.524533
0.00234849 0.172618 0.52395
0.0030862 0.171417 0.523521
0.00381902 0.170365 0.523689
0.00455122 0.169345 0.523984
0.00528161 0.16842 0.524663
0.00601276 0.167455 0.525187
0.00674475 0.166446 0.525529
0.00747683 0.165411 0.52576
0.00820866 0.164325 0.52578
0.00894016 0.163281 0.525971
0.00967127 0.162275 0.526323
0.0104027 0.161254 0.526608
0.0111338 0.160228 0.526873
0.011865 0.159215 0.527194
0.0125963 0.158206 0.527531
0.0133291 0.157236 0.528035
0.0140635 0.156318 0.528772
0.0147991 0.155416 0.529587
0.0155368 0.15453 0.530478
0.0162779 0.153707 0.531657
0.0170264 0.152988 0.533317
0.017781 0.152329 0.535266
0.0185411 0.151704 0.537392
0.0193067 0.1511 0.539634
0.0200757 0.150503 0.541936
0.0208426 0.149812 0.543826
-0.00867565 0.193899 0.534462
-0.00793173 0.192921 0.535012
-0.00717764 0.191824 0.535121
-0.00641752 0.190618 0.534825
-0.00564412 0.189218 0.533797
-0.0048712 0.187769 0.532574
-0.00409892 0.186291 0.531226
-0.00333218 0.18485 0.529996
-0.00257138 0.183479 0.529017
-0.00181883 0.182213 0.528424
-0.00106783 0.180956 0.527854
-0.00031861 0.179686 0.527226
0.000427366 0.178466 0.52678
0.00117412 0.177191 0.52611
0.0019172 0.175953 0.525575
0.00266023 0.174668 0.52484
0.00340089 0.173387 0.524115
0.00413872 0.172161 0.523591
0.00487258 0.171067 0.523594
0.00560513 0.170029 0.523814
0.00633594 0.169073 0.524374
0.00706761 0.168147 0.525053
0.00779988 0.167154 0.525465
0.00853265 0.166117 0.52569
0.00926409 0.165049 0.525788
0.00999599 0.16404 0.526129
0.0107286 0.163073 0.526647
0.0114614 0.162091 0.527105
0.0121941 0.1611 0.527526
0.0129266 0.160101 0.527912
0.0136592 0.15909 0.528247
0.0143919 0.158102 0.528686
0.0151278 0.157169 0.529359
0.0158652 0.156265 0.530168
0.016603 0.155361 0.530985
0.0173457 0.154522 0.532094
0.0180965 0.153786 0.533677
0.018852 0.153092 0.535465
0.0196113 0.152417 0.537359
0.0203767 0.151779 0.539445
0.0211483 0.151167 0.541668
0.0219161 0.150464 0.543499
-0.00761973 0.194846 0.535162
-0.00687334 0.193858 0.53568
-0.00611847 0.192746 0.535742
-0.00536005 0.191581 0.535603
-0.00459032 0.190208 0.53469
-0.00381923 0.188785 0.533575
-0.00305038 0.187346 0.532386
-0.0022826 0.185864 0.531021
-0.00152011 0.184448 0.529881
-0.000765124 0.18313 0.529099
-1.22629e-05 0.181806 0.528285
0.000739249 0.180475 0.527428
0.00148372 0.17927 0.527048
0.00222872 0.178031 0.526523
0.00297096 0.176813 0.526073
0.00371207 0.175582 0.525565
0.00445299 0.174281 0.524768
0.00519058 0.173026 0.524141
0.00592596 0.171869 0.523896
0.00665865 0.170789 0.523955
0.00739113 0.169797 0.524368
0.00812318 0.168873 0.52506
0.0088566 0.167883 0.52548
0.00958856 0.166845 0.525711
0.010321 0.165778 0.525815
0.0110531 0.164772 0.526172
0.0117873 0.163827 0.526785
0.0125215 0.16288 0.527393
0.0132561 0.161925 0.527971
0.01399 0.160946 0.528449
0.0147233 0.159935 0.528787
0.0154582 0.158961 0.529288
0.0161944 0.158023 0.529951
0.0169333 0.157105 0.530703
0.0176732 0.156201 0.531519
0.0184179 0.155359 0.532622
0.0191683 0.154588 0.534049
0.0199229 0.153845 0.535617
0.0206841 0.153151 0.537419
0.021451 0.152496 0.539423
0.0222243 0.15187 0.541581
0.0229944 0.151168 0.543406
-0.00580733 0.194714 0.536046
-0.00505143 0.193603 0.536115
-0.00429617 0.19248 0.536142
-0.00353299 0.191207 0.535608
-0.00276664 0.189851 0.534753
-0.00200029 0.188461 0.53376
-0.00123478 0.187018 0.532554
-0.000473151 0.185591 0.531394
0.000284682 0.184217 0.530412
0.00104022 0.18282 0.529335
0.00179374 0.181418 0.528217
0.00253933 0.180174 0.527695
0.00328416 0.178935 0.527181
0.00402562 0.177725 0.526773
0.00476613 0.176538 0.526447
0.00550621 0.175254 0.525728
0.00624464 0.173978 0.525027
0.00698044 0.17275 0.52451
0.00771452 0.171623 0.524384
0.00844705 0.170571 0.524561
0.00918064 0.16961 0.525105
0.00991417 0.168619 0.525527
0.0106468 0.167601 0.525842
0.0113798 0.166552 0.526024
0.0121135 0.165564 0.526455
0.0128484 0.164632 0.52713
0.0135835 0.163687 0.52775
0.0143193 0.162734 0.52834
0.015055 0.161773 0.528898
