ply
format ascii 1.0
element vertex 1668
property float x
property float y
property float z
end_header
0.11913 0.0116901 0.309933
0.118831 0.011138 0.310047
0.118577 0.0106054 0.31033
0.118296 0.010061 0.310512
0.118016 0.00951705 0.310696
0.117733 0.00897172 0.310869
0.117459 0.0084302 0.311078
0.117176 0.00788511 0.311253
0.116904 0.00734434 0.311469
0.11666 0.00681489 0.311796
0.116419 0.00628635 0.312134
0.116188 0.00576162 0.312515
0.116001 0.00525319 0.313066
0.115815 0.00474468 0.313628
0.115649 0.00424275 0.314271
0.115484 0.00374008 0.31492
0.115308 0.00323237 0.315529
0.115111 0.00271594 0.316057
0.114911 0.00219767 0.316578
0.114651 0.00165652 0.316855
0.114367 0.0011072 0.317039
0.114087 0.00055856 0.317233
0.114725 0.000327535 0.321182
0.125251 0.0202281 0.312034
0.124899 0.0196429 0.311977
0.124495 0.0190328 0.31173
0.124021 0.0183887 0.311224
0.12356 0.0177532 0.310765
0.123083 0.0171113 0.310243
0.122644 0.0164889 0.309855
0.12227 0.0158984 0.309698
0.121918 0.0153194 0.309624
0.121575 0.0147448 0.30958
0.121239 0.0141744 0.309564
0.120915 0.0136094 0.309586
0.120565 0.0130334 0.309513
0.120272 0.0124831 0.309649
0.119959 0.0119243 0.309713
0.119676 0.0113788 0.309885
0.119376 0.0108259 0.309995
0.119113 0.0102894 0.310247
0.118831 0.00974456 0.310425
0.118558 0.00920334 0.310637
0.118276 0.00865825 0.310814
0.118003 0.00811714 0.311029
0.117722 0.00757266 0.311212
0.117452 0.00703227 0.311435
0.117209 0.0065025 0.311763
0.116967 0.00597342 0.312101
0.116744 0.00545107 0.31251
0.116557 0.00494211 0.313063
0.116373 0.00443345 0.313628
0.116208 0.00393133 0.314276
0.116054 0.00343157 0.314965
0.115878 0.00292321 0.315576
0.115693 0.00240967 0.316146
0.115494 0.00189094 0.316669
0.115249 0.00135513 0.317011
0.114967 0.00080544 0.317198
0.114679 0.000254142 0.317367
0.125928 0.0199768 0.312418
0.12552 0.0193635 0.312162
0.125081 0.0187368 0.311795
0.124596 0.0180883 0.311256
0.124127 0.0174493 0.31077
0.123669 0.0168176 0.310323
0.12324 0.0162001 0.309973
0.122865 0.0156099 0.309821
0.122512 0.01503 0.309744
0.122158 0.0144505 0.309662
0.121812 0.0138748 0.309605
0.121477 0.0133051 0.309591
0.121136 0.0127329 0.309552
0.120832 0.0121779 0.309651
0.120518 0.0116184 0.309711
0.120233 0.0110719 0.309878
0.119932 0.0105184 0.309985
0.119659 0.00997734 0.310199
0.119369 0.00942902 0.310349
0.119096 0.00888762 0.310562
0.118815 0.00834252 0.310741
0.118543 0.0078016 0.31096
0.118265 0.007258 0.311154
0.118004 0.00672096 0.311412
0.117759 0.00619053 0.311737
0.117525 0.00566386 0.312102
0.117312 0.00514444 0.312548
0.117136 0.00463892 0.313143
0.116963 0.00413359 0.313753
0.116809 0.00363428 0.314438
0.116654 0.00313327 0.315125
0.11648 0.0026243 0.31574
0.116294 0.00210996 0.316309
0.116105 0.00159355 0.316869
0.11588 0.00106404 0.317291
0.115617 0.000520381 0.317558
0.115392 -1.03516e-05 0.317982
0.126518 0.0196804 0.312484
0.126093 0.0190598 0.312174
0.125642 0.0184274 0.311766
0.125155 0.0177792 0.311225
0.124696 0.0171455 0.310779
0.124258 0.0165242 0.31041
0.123839 0.0159117 0.310099
0.123463 0.0153207 0.309943
0.123107 0.0147399 0.309861
0.122751 0.014159 0.309771
0.122393 0.0135785 0.309677
0.122047 0.0130035 0.309623
0.121704 0.012431 0.309582
0.121382 0.0118677 0.309613
0.12106 0.0113048 0.309645
0.120783 0.0107616 0.309845
0.120492 0.0102119 0.309987
0.120221 0.00967162 0.310211
0.11995 0.00913054 0.310431
0.119686 0.00859255 0.310679
0.119405 0.00804718 0.310861
0.119133 0.00750577 0.31108
0.118862 0.00696468 0.311302
0.118599 0.00642649 0.311556
0.118346 0.00589165 0.311844
0.118112 0.0053643 0.31221
0.117909 0.00484831 0.312697
0.117737 0.00434339 0.313308
0.117576 0.00384121 0.31396
0.11743 0.00334378 0.314678
0.117283 0.00284459 0.315394
0.11711 0.00233443 0.31601
0.116934 0.00182269 0.31662
0.116756 0.00130892 0.317224
0.116559 0.000787972 0.317756
0.116326 0.000253493 0.318144
0.116162 -0.000257952 0.318815
0.127525 0.0200012 0.312827
0.127079 0.0193698 0.31245
0.126656 0.01875 0.312146
0.126191 0.0181121 0.311694
0.125712 0.0174685 0.311185
0.125262 0.0168401 0.310778
0.124846 0.0162289 0.310487
0.124436 0.0156215 0.310216
0.124069 0.0150347 0.310095
0.123703 0.0144489 0.309976
0.123334 0.0138628 0.309845
0.122974 0.0132815 0.309747
0.122616 0.0127013 0.309652
0.122273 0.0121283 0.309611
0.12196 0.0115689 0.309677
0.121648 0.0110102 0.309747
0.121365 0.0104638 0.309923
0.121084 0.00991839 0.310107
0.120814 0.0093774 0.310331
0.120543 0.00883626 0.310555
0.12028 0.00829821 0.310807
0.120007 0.00775568 0.31102
0.119734 0.00721326 0.311236
0.119461 0.00667097 0.311453
0.119188 0.00612833 0.311669
0.118933 0.00559258 0.311954
0.118701 0.00506489 0.312324
0.118509 0.0045525 0.312855
0.11835 0.00405085 0.31351
0.118198 0.00355142 0.314201
0.118063 0.00305615 0.314957
0.117925 0.00255883 0.315708
0.117752 0.0020479 0.316325
0.117578 0.00153508 0.316938
0.117419 0.00102693 0.317618
0.117244 0.000512067 0.318236
0.117034 -1.56496e-05 0.318719
0.116924 -0.000511332 0.3196
0.127918 0.0206082 0.313018
0.128777 0.020856 0.312827
0.128436 0.0202744 0.312821
0.128061 0.019677 0.312698
0.127618 0.0190477 0.312333
0.127192 0.0184273 0.312023
0.126726 0.0177893 0.311569
0.126255 0.017151 0.311097
0.125818 0.0165288 0.310735
0.125414 0.0159238 0.310492
0.125013 0.015321 0.310256
0.124645 0.0147336 0.310132
0.124267 0.014143 0.309976
0.123889 0.0135527 0.309813
0.123529 0.0129716 0.309716
0.123171 0.0123918 0.309625
0.122836 0.0118223 0.309613
0.122532 0.0112666 0.309714
0.12223 0.0107119 0.309823
0.121966 0.0101735 0.310072
0.121695 0.00963205 0.310295
0.121436 0.00909465 0.310559
0.121175 0.00855678 0.310819
0.120921 0.00802141 0.311105
0.120638 0.00747493 0.311287
0.120365 0.00693161 0.311502
0.120082 0.00638464 0.311682
0.11979 0.00583424 0.311827
0.119526 0.00529433 0.312078
0.119302 0.00476901 0.31248
0.119111 0.00425583 0.313012
0.118952 0.00375381 0.313671
0.118821 0.0032601 0.314437
0.118695 0.00276728 0.315229
0.118561 0.00226972 0.315992
0.118399 0.00176101 0.316648
0.118234 0.00125071 0.317302
0.118086 0.000744492 0.318021
0.117922 0.000232115 0.318684
0.117743 -0.00028711 0.319285
0.117684 -0.000767994 0.320367
0.129258 0.0205045 0.312504
0.128925 0.0199267 0.312525
0.128565 0.0193372 0.312456
0.128135 0.0187149 0.31214
0.127712 0.0180964 0.311841
0.127238 0.0174559 0.311365
0.126778 0.0168232 0.310932
0.126343 0.0162031 0.310582
0.12595 0.0156035 0.310381
0.12556 0.0150059 0.310184
0.12519 0.0144184 0.310059
0.12481 0.0138273 0.309897
0.124432 0.0132372 0.309737
0.124072 0.0126561 0.309641
0.123716 0.0120773 0.309557
0.123391 0.0115123 0.309585
0.123088 0.010957 0.309692
0.122795 0.0104062 0.309835
0.122542 0.00987148 0.310122
0.122281 0.00933339 0.310382
0.122021 0.00879579 0.310646
0.121769 0.00826093 0.310939
0.121515 0.00772503 0.311226
0.121224 0.00717469 0.311378
0.120951 0.00663107 0.311594
0.120677 0.00608693 0.311807
0.120384 0.00553601 0.311952
0.12012 0.00499537 0.312202
0.119903 0.00447247 0.312635
0.119703 0.00395519 0.313133
0.119544 0.00345138 0.313785
0.119423 0.00296012 0.314587
0.11931 0.00247063 0.315427
0.119179 0.00197296 0.316201
0.119037 0.00147017 0.316936
0.118883 0.000961799 0.317627
0.118744 0.000457739 0.318383
0.118582 -5.60402e-05 0.319047
0.118429 -0.000567478 0.319757
0.118408 -0.00103842 0.320984
0.118567 -0.000950958 0.32519
0.118375 -0.00151554 0.322174
0.130036 0.0207128 0.312033
0.129716 0.0201417 0.312102
0.129363 0.0195553 0.312056
0.128974 0.0189524 0.311884
0.128545 0.0183316 0.311573
0.128142 0.0177242 0.311349
0.127691 0.017095 0.310952
0.127262 0.0164777 0.310632
0.126857 0.0158721 0.310391
0.126465 0.0152732 0.310192
0.126064 0.0146717 0.309962
0.125692 0.0140836 0.309831
0.125302 0.0134883 0.309633
0.124932 0.0129024 0.309504
0.124583 0.0123266 0.309451
0.124248 0.0117568 0.309442
0.123934 0.0111966 0.309511
0.123641 0.0106453 0.309655
0.123349 0.0100946 0.309801
0.123105 0.00956328 0.310122
0.122854 0.00902912 0.310421
0.122605 0.00849533 0.310725
0.122362 0.00796347 0.311051
0.122127 0.0074346 0.31141
0.121836 0.00688386 0.311564
0.121573 0.00634342 0.311817
0.121299 0.0057988 0.312033
0.121006 0.00524701 0.312176
0.120732 0.00470232 0.312391
0.120505 0.00417503 0.312786
0.120295 0.0036529 0.313244
0.120127 0.00314508 0.313862
0.120005 0.00265254 0.314661
0.119895 0.0021625 0.315507
0.119776 0.00166775 0.316324
0.119646 0.00116799 0.317103
0.119501 0.000661603 0.317829
0.119364 0.000156421 0.318587
0.11921 -0.00035556 0.319286
0.119068 -0.00086508 0.320032
0.119019 -0.00134653 0.321149
0.118978 -0.00182819 0.3223
0.130892 0.0209586 0.311826
0.130548 0.0203764 0.311817
0.130223 0.0198028 0.311867
0.129855 0.0192096 0.311772
0.129446 0.0185982 0.311535
0.129025 0.017982 0.311252
0.128623 0.0173753 0.311032
0.128172 0.0167478 0.310642
0.127755 0.0161366 0.310365
0.127359 0.0155359 0.310158
0.126966 0.0149373 0.309958
0.126555 0.0143313 0.309692
0.12618 0.0137427 0.309554
0.125789 0.0131474 0.309353
0.125418 0.0125621 0.309225
0.125081 0.0119915 0.309213
0.124766 0.0114305 0.309279
0.124464 0.0108752 0.309389
0.12419 0.0103317 0.309603
0.123917 0.00978849 0.309819
0.123675 0.00925749 0.310147
0.123426 0.00872343 0.31045
0.123177 0.00818931 0.310756
0.122935 0.0076575 0.311086
0.1227 0.00712824 0.311447
0.122412 0.00657756 0.311607
0.122158 0.00604049 0.311897
0.121892 0.00549846 0.312144
0.1216 0.00494684 0.312293
0.121326 0.00440161 0.312509
0.121109 0.00387715 0.312941
0.120889 0.00335051 0.313359
0.12071 0.00283811 0.313938
0.120579 0.00234088 0.314696
0.120469 0.00184957 0.31554
0.120342 0.00135118 0.316324
0.120222 0.000853601 0.31714
0.120079 0.000346729 0.317871
0.119943 -0.000158933 0.318632
0.11979 -0.000671939 0.319329
0.119648 -0.00118214 0.320076
0.119582 -0.0016706 0.321121
0.119541 -0.00215358 0.322268
0.119819 -0.0020443 0.326927
0.119476 -0.00264608 0.32333
0.131735 0.0211984 0.311574
0.1314 0.0206201 0.311596
0.131059 0.0200393 0.311597
0.13072 0.0194592 0.3116
0.130337 0.0188597 0.311456
0.129908 0.0182394 0.31115
0.129495 0.0176279 0.310898
0.129082 0.0170175 0.310644
0.128643 0.016396 0.310295
0.128228 0.0157863 0.310025
0.127831 0.015186 0.309818
0.127427 0.014583 0.309581
0.127012 0.0139764 0.309304
0.126627 0.0133842 0.309132
0.126244 0.0127931 0.308962
0.125886 0.0122136 0.308877
0.12556 0.0116481 0.308906
0.125256 0.0110923 0.309014
0.124964 0.0105411 0.30916
0.124691 0.00999801 0.309377
0.124429 0.009459 0.309631
0.124198 0.00893205 0.309997
0.12396 0.00840215 0.31034
0.123721 0.00787156 0.310682
0.123498 0.0073465 0.311081
0.123275 0.00682121 0.311483
0.122986 0.00627059 0.311647
0.122743 0.00573689 0.311975
0.122487 0.00519792 0.312257
0.122195 0.00464594 0.31241
0.121912 0.00409708 0.312593
0.121705 0.00357527 0.31306
0.121476 0.00304479 0.313446
0.121277 0.00252468 0.313948
0.121135 0.00202286 0.314665
0.121022 0.00152961 0.315495
0.120877 0.00102393 0.316207
0.120758 0.000525548 0.317022
0.120625 2.10484e-05 0.317788
0.12049 -0.000485157 0.318551
0.120339 -0.000998241 0.319254
0.120208 -0.00150653 0.320038
0.120134 -0.00199857 0.321049
0.120084 -0.00248572 0.322156
0.120018 -0.00297956 0.32321
0.132554 0.0214262 0.311237
0.132251 0.0208631 0.311368
0.131895 0.020275 0.31132
0.131544 0.0196897 0.311287
0.131189 0.0191033 0.311241
0.13078 0.0184918 0.311006
0.130338 0.0178669 0.31066
0.129924 0.0172558 0.310406
0.129501 0.0166413 0.310115
0.129062 0.0160213 0.309771
0.128656 0.0154169 0.309535
0.12826 0.0148175 0.30933
0.127854 0.0142148 0.309089
0.127448 0.0136131 0.308845
0.127063 0.0130217 0.308674
0.126691 0.0124361 0.308544
0.126354 0.0118658 0.308535
0.12604 0.0113055 0.308605
0.125747 0.0107544 0.308751
0.125464 0.0102072 0.308931
0.125192 0.00966409 0.309149
0.124931 0.00912559 0.309408
0.124702 0.00859915 0.30978
0.124474 0.00807281 0.310158
0.124235 0.00754193 0.310499
0.124022 0.00702043 0.310935
0.12381 0.00649872 0.311374
0.123533 0.00595244 0.311581
0.12329 0.00541846 0.311911
0.123043 0.00488251 0.312227
0.122761 0.00433372 0.312415
0.122479 0.00378507 0.312605
0.122273 0.00326291 0.313074
0.122043 0.00273146 0.313456
0.121835 0.00220735 0.31392
0.121663 0.00169444 0.314523
0.121529 0.00119319 0.315271
0.121372 0.000683182 0.315937
0.121254 0.000184216 0.31675
0.121123 -0.000320327 0.317521
0.120999 -0.00082377 0.318323
0.120867 -0.00133164 0.319097
0.120737 -0.0018403 0.319882
0.120656 -0.00233574 0.320859
0.120605 -0.00282415 0.321961
0.120531 -0.00332211 0.322974
0.133083 0.021097 0.311075
0.132764 0.020526 0.311151
0.132398 0.0199338 0.311072
0.132034 0.0193427 0.310996
0.131651 0.0187437 0.310856
0.131228 0.0181273 0.310578
0.130774 0.0174976 0.310191
0.130339 0.0168782 0.309869
0.129905 0.0162598 0.309541
0.129465 0.0156404 0.309195
0.129047 0.015032 0.30892
0.128652 0.0144339 0.308719
0.128245 0.0138323 0.308477
0.127851 0.0132367 0.308275
0.127487 0.0126546 0.308176
0.127139 0.0120797 0.30813
0.126824 0.0115192 0.308199
0.12653 0.0109677 0.308342
0.126248 0.0104205 0.308522
0.125965 0.00987326 0.308702
0.125692 0.00932999 0.308919
0.125431 0.00879122 0.309177
0.125191 0.00826066 0.309511
0.124954 0.00773064 0.309856
0.124715 0.00719957 0.310195
0.124504 0.00667827 0.310634
0.124293 0.00615685 0.311078
0.124037 0.00561809 0.311359
0.123814 0.00509094 0.31176
0.123578 0.00455879 0.312116
0.123306 0.00401329 0.312341
0.123034 0.00346782 0.312566
0.122828 0.00294512 0.313035
0.122598 0.00241319 0.313416
0.122379 0.00188509 0.313843
0.122187 0.0013648 0.314368
0.122032 0.000855984 0.315036
0.121864 0.000341558 0.315655
0.121737 -0.00016084 0.316434
0.121609 -0.000665132 0.317211
0.121488 -0.00116883 0.318018
0.121375 -0.00167127 0.318862
0.121246 -0.00218042 0.319648
0.121167 -0.00267655 0.320627
0.121117 -0.00316586 0.321726
0.12106 -0.0036597 0.322804
0.133935 0.0213402 0.310844
0.133608 0.0207656 0.310898
0.133273 0.0201876 0.310923
0.132886 0.0195855 0.310772
0.132493 0.0189822 0.310604
0.132078 0.018369 0.310356
0.131641 0.0177474 0.310033
0.131186 0.0171184 0.309644
0.130739 0.0164947 0.309283
0.130293 0.0158729 0.30892
0.129852 0.0152537 0.308568
0.129422 0.0146413 0.308254
0.129017 0.0140401 0.308019
0.128613 0.0134405 0.307787
0.12824 0.0128548 0.307658
0.12789 0.0122799 0.30761
0.127565 0.0117151 0.307643
0.127262 0.0111602 0.307755
0.12698 0.0106135 0.307937
0.126707 0.0100703 0.308151
0.126434 0.0095273 0.308367
0.126172 0.00898791 0.308618
0.12592 0.0084527 0.308907
0.125679 0.00792126 0.309235
0.125429 0.00738673 0.309536
0.12518 0.00685165 0.309838
0.12496 0.00632684 0.310242
0.12474 0.00580203 0.310653
0.124495 0.00526714 0.310971
0.124283 0.00474424 0.311413
0.12407 0.00421961 0.311848
0.123818 0.00368144 0.312147
0.123557 0.00313955 0.312412
0.12336 0.00261939 0.312913
0.12313 0.00208711 0.313293
0.122902 0.0015554 0.313685
0.1227 0.00103123 0.314171
0.122544 0.000521147 0.314829
0.122374 5.62608e-06 0.315442
0.122249 -0.000497058 0.316222
0.122123 -0.0010011 0.317007
0.121995 -0.00150801 0.317782
0.121872 -0.00201417 0.318587
0.121734 -0.00252685 0.319333
0.121656 -0.00302334 0.320313
0.121618 -0.00351038 0.321452
0.121594 -0.00399628 0.322648
0.121879 -0.00391121 0.327264
0.121529 -0.00449578 0.323694
0.134437 0.0209979 0.310591
0.1341 0.0204185 0.310611
0.133736 0.0198274 0.31054
0.133324 0.0192153 0.310312
0.132908 0.018602 0.310066
0.13248 0.0179842 0.309776
0.132032 0.0173583 0.309416
0.131585 0.0167345 0.309058
0.131129 0.0161081 0.308667
0.130673 0.0154827 0.308271
0.130217 0.0148591 0.307874
0.129777 0.0142431 0.307523
0.129359 0.0136384 0.307249
0.128967 0.0130447 0.307056
0.128617 0.0124697 0.307006
0.128289 0.0119044 0.307034
0.127988 0.0113498 0.307147
0.127697 0.0107997 0.307298
0.127425 0.0102574 0.307515
0.127152 0.0097148 0.307731
0.126881 0.00917254 0.307951
0.12661 0.00863023 0.308173
0.126349 0.00809144 0.308426
0.126097 0.00755605 0.308715
0.125836 0.00701699 0.308972
0.125575 0.00647791 0.309231
0.125352 0.00595275 0.309627
0.125133 0.00542805 0.310035
0.124907 0.00490045 0.310421
0.124718 0.00438529 0.310941
0.124529 0.00386895 0.31146
0.1243 0.00333888 0.311843
0.124059 0.00280386 0.31218
0.123863 0.00228349 0.312683
0.123633 0.00175121 0.313063
0.123406 0.00121904 0.313454
0.123195 0.000691679 0.313905
0.123038 0.000180991 0.314561
0.122879 -0.000331636 0.31521
0.122756 -0.000834379 0.315996
0.122633 -0.00133872 0.316785
0.122503 -0.00184663 0.317553
0.122369 -0.0023572 0.318309
0.122218 -0.00287374 0.319008
0.122142 -0.00337061 0.319991
0.12212 -0.00385468 0.32118
0.12213 -0.00433202 0.322504
0.122121 -0.00481773 0.323758
0.13492 0.0206469 0.310277
0.134567 0.0200606 0.310244
0.134175 0.0194575 0.310085
0.133736 0.0188335 0.309765
0.133287 0.0182065 0.309411
0.132847 0.0175844 0.309083
0.132399 0.0169602 0.308725
0.131964 0.0163432 0.308411
0.131499 0.0157142 0.30799
0.131053 0.0150946 0.307629
0.130586 0.0144672 0.307195
0.130143 0.0138514 0.306836
0.129725 0.0132476 0.306562
0.129352 0.0126633 0.306437
0.129014 0.012094 0.306429
0.12871 0.0115386 0.306533
0.128418 0.0109885 0.306681
0.128137 0.0104427 0.306865
0.127865 0.00990024 0.307081
0.127593 0.00935816 0.307298
0.127323 0.00881628 0.30752
0.127054 0.00827495 0.307747
0.126783 0.00773304 0.307969
0.126521 0.00719388 0.308219
0.126248 0.00665097 0.308436
0.125976 0.00610793 0.308653
0.125743 0.00557907 0.309009
0.125523 0.0050543 0.309413
0.125317 0.00453357 0.309865
0.125142 0.00402332 0.310433
0.124976 0.00351497 0.311034
0.124771 0.00299273 0.311499
0.124551 0.00246462 0.311911
0.124357 0.00194451 0.312419
0.124137 0.00141508 0.312832
0.12391 0.000882914 0.313224
0.12369 0.000352354 0.313642
0.123535 -0.000158534 0.314299
0.123388 -0.000667929 0.314991
0.123268 -0.00117081 0.315784
0.123146 -0.00167545 0.316575
0.123013 -0.00218475 0.31733
0.122866 -0.00269982 0.318035
0.122704 -0.00322049 0.318686
0.122638 -0.00371549 0.319701
0.122641 -0.00419368 0.320981
0.122688 -0.00466266 0.322436
0.122725 -0.00513761 0.323862
0.135752 0.0208799 0.309977
0.135376 0.0202834 0.309873
0.134996 0.0196859 0.309756
0.134586 0.0190752 0.309536
0.134133 0.0184461 0.309174
0.13366 0.0178098 0.308743
0.133221 0.0171894 0.308419
0.132786 0.0165722 0.308106
0.132353 0.0159574 0.3078
0.131889 0.0153301 0.307384
0.131454 0.014716 0.30706
0.130986 0.0140898 0.306625
0.130543 0.0134753 0.30627
0.130134 0.0128763 0.306027
0.129773 0.0122976 0.305942
0.129437 0.0117295 0.30594
0.129144 0.0111791 0.306083
0.128862 0.0106331 0.306264
0.128581 0.0100873 0.306446
0.128308 0.00954507 0.306659
0.128036 0.00900305 0.306875
0.127765 0.00846119 0.307094
0.127495 0.00791946 0.307316
0.127224 0.00737754 0.307535
0.126951 0.00683508 0.307751
0.126669 0.00628869 0.307931
0.126386 0.00574231 0.308111
0.126144 0.00521002 0.308431
0.125915 0.00468235 0.308802
0.125721 0.00416579 0.309294
0.125557 0.00365933 0.309898
0.125414 0.0031584 0.310577
0.125231 0.00264333 0.311118
0.125033 0.00212241 0.311607
0.12485 0.0016055 0.312153
0.12464 0.00107895 0.312602
0.124413 0.000546785 0.312994
0.124193 1.57741e-05 0.31341
0.124039 -0.000495317 0.314069
0.123903 -0.00100236 0.314795
0.123786 -0.00150495 0.315597
0.123666 -0.00201015 0.31639
0.123524 -0.00252304 0.317107
0.123364 -0.00304214 0.317764
0.123201 -0.00356365 0.318408
0.123137 -0.00405893 0.319427
0.123163 -0.00453236 0.320787
0.123254 -0.00499136 0.3224
0.123325 -0.00545925 0.323947
0.136186 0.020507 0.309507
0.135803 0.0199079 0.309381
0.135406 0.0193028 0.309205
0.134973 0.0186833 0.308915
0.134497 0.0180452 0.308477
0.134022 0.0174097 0.308043
0.133586 0.0167919 0.30773
0.133152 0.0161762 0.307421
0.13272 0.0155626 0.307116
0.132266 0.0149411 0.306737
0.131831 0.0143286 0.306415
0.131375 0.0137089 0.306023
0.130945 0.0131008 0.305712
0.130539 0.0125036 0.305478
0.130198 0.0119339 0.305462
0.129863 0.0113668 0.305464
0.129562 0.0108136 0.305578
0.129279 0.0102679 0.305757
0.129006 0.00972569 0.305967
0.128725 0.00918027 0.306149
0.128463 0.00864228 0.306399
0.128202 0.00810426 0.30665
0.12794 0.00756609 0.3069
0.127668 0.00702377 0.307116
0.127395 0.00648137 0.307329
0.127113 0.00593524 0.307509
0.126831 0.00538914 0.307688
0.126589 0.00485717 0.308011
0.126352 0.00432655 0.308349
0.126158 0.00381012 0.308841
0.125994 0.00330333 0.309443
0.125852 0.00280273 0.310123
0.12568 0.00229055 0.310698
0.125503 0.0017766 0.311263
0.125332 0.00126318 0.311848
0.125134 0.000739945 0.312338
0.124917 0.000210429 0.312763
0.124696 -0.00032078 0.313177
0.124542 -0.000832731 0.313832
0.124415 -0.00133749 0.31459
0.1243 -0.00184062 0.315393
0.124181 -0.0023461 0.31619
0.12404 -0.00285916 0.31691
0.123873 -0.00338135 0.317532
0.12371 -0.00390335 0.318175
0.123648 -0.00439915 0.319198
0.123687 -0.0048707 0.320598
0.123792 -0.00532787 0.322255
0.123883 -0.00579238 0.323871
0.136221 0.0195287 0.308859
0.135818 0.0189222 0.308668
0.13536 0.0182921 0.308294
0.134882 0.0176552 0.307855
0.13441 0.017022 0.307431
0.133974 0.0164055 0.30712
0.133539 0.0157909 0.306811
0.133095 0.0151732 0.306467
0.132639 0.014552 0.306081
0.132213 0.0139448 0.305793
0.131773 0.0133324 0.305452
0.131356 0.0127311 0.305188
0.130972 0.0121435 0.305028
0.130642 0.0115787 0.305048
0.130307 0.011012 0.30505
0.130005 0.010459 0.305163
0.129722 0.00991334 0.305341
0.12945 0.00937141 0.305552
0.129179 0.00883021 0.305768
0.128919 0.0082934 0.306025
0.12866 0.00775592 0.306281
0.128398 0.00721791 0.306532
0.128126 0.00667558 0.306745
0.127844 0.00612974 0.306925
0.127561 0.00558391 0.307104
0.127279 0.00503807 0.307284
0.127038 0.00450635 0.307606
0.1268 0.00397554 0.307941
0.126606 0.00345893 0.30843
0.126441 0.00295131 0.309025
0.126309 0.0024531 0.309735
0.126146 0.00194439 0.310345
0.125983 0.00143377 0.310951
0.125824 0.000923742 0.311578
0.125636 0.00040384 0.312105
0.125421 -0.000125701 0.312533
0.125191 -0.000660083 0.312912
0.125035 -0.0011728 0.31356
0.124908 -0.00167855 0.314314
0.124793 -0.00218226 0.315114
0.124677 -0.00268762 0.315917
0.124557 -0.00319587 0.316708
0.124401 -0.0037154 0.317371
0.12425 -0.00423459 0.318059
0.124191 -0.00473111 0.319084
0.124231 -0.00520373 0.320485
0.124325 -0.00566567 0.322095
0.124409 -0.00613404 0.323674
0.137004 0.0197399 0.308409
0.136617 0.0191405 0.308271
0.1362 0.0185287 0.308033
0.135748 0.017903 0.307683
0.135271 0.0172677 0.307249
0.1348 0.0166364 0.306831
0.134352 0.0160161 0.306482
0.133906 0.0153976 0.306136
0.133447 0.0147754 0.305746
0.132999 0.0141589 0.305389
0.132586 0.0135581 0.305143
0.132169 0.0129562 0.304879
0.131775 0.0123653 0.304694
0.131413 0.0117872 0.304607
0.131081 0.0112224 0.304623
0.130746 0.0106562 0.304624
0.130444 0.0101033 0.304737
0.130161 0.00955766 0.304911
0.129888 0.00901603 0.305122
0.129618 0.00847557 0.305342
0.129372 0.00794349 0.305641
0.129125 0.00741077 0.305939
0.128876 0.00687723 0.306232
0.128615 0.00633914 0.306483
0.128343 0.00579673 0.306696
0.12806 0.00525089 0.306876
0.127788 0.00470835 0.307089
0.127547 0.00417636 0.307411
0.127309 0.00364529 0.307745
0.127113 0.00312749 0.308226
0.126937 0.00261584 0.30878
0.126785 0.00211072 0.309419
0.126625 0.0016019 0.310032
0.126461 0.00109116 0.310638
0.126306 0.000581867 0.311275
0.12613 6.48902e-05 0.31184
0.125924 -0.000462053 0.312302
0.125704 -0.000993707 0.312716
0.12555 -0.00150672 0.313366
0.125424 -0.00201279 0.314121
0.125309 -0.0025174 0.314919
0.125193 -0.00302341 0.31572
0.125075 -0.00353203 0.316514
0.124931 -0.00404883 0.317219
0.124793 -0.00456557 0.317949
0.124735 -0.00506298 0.318976
0.124766 -0.0055397 0.320335
0.124839 -0.00600865 0.321859
0.124912 -0.00648136 0.323392
0.124384 -0.00663251 0.324856
0.124879 -0.00698315 0.324536
0.137375 0.0193411 0.307745
0.136989 0.0187433 0.30761
0.136571 0.018132 0.307369
0.136135 0.0175144 0.307071
0.13566 0.0168816 0.306647
0.1352 0.0162559 0.306265
0.13475 0.0156358 0.30591
0.134289 0.0150129 0.305521
0.133819 0.0143874 0.305098
0.133382 0.0137765 0.304776
0.13298 0.0131813 0.304568
0.132577 0.0125862 0.304351
0.132206 0.0120047 0.304239
0.131853 0.0114315 0.304187
0.131522 0.0108669 0.304202
0.131186 0.010301 0.304203
0.130873 0.00974423 0.304278
0.13059 0.00919898 0.304453
0.130318 0.00865769 0.304663
0.130048 0.00811758 0.304884
0.129813 0.00758944 0.305218
0.129589 0.00706515 0.305592
0.129353 0.00653625 0.305928
0.129104 0.00600223 0.30622
0.128842 0.0054635 0.306468
0.128569 0.00492102 0.306681
0.128308 0.00438238 0.306933
0.128068 0.00385052 0.307258
0.12783 0.00331913 0.307593
0.127633 0.00280054 0.308067
0.127449 0.00228549 0.308591
0.127276 0.00177311 0.309156
0.127116 0.00126365 0.309765
0.126953 0.000752532 0.310371
0.126788 0.000239961 0.310973
0.126613 -0.000277326 0.311537
0.126417 -0.000801375 0.312034
0.126209 -0.00133004 0.312485
0.126058 -0.00184277 0.313146
0.125943 -0.00234625 0.31394
0.12583 -0.0028512 0.314739
0.125713 -0.00335871 0.315531
0.125595 -0.00386779 0.316324
0.125462 -0.00438242 0.317068
0.125338 -0.00489621 0.317846
0.125272 -0.00539685 0.318839
0.12529 -0.00587846 0.320145
0.12533 -0.0063574 0.321541
0.125372 -0.00683906 0.322949
0.125319 -0.00734619 0.324016
0.138176 0.0195606 0.307354
0.137768 0.0189532 0.307153
0.137395 0.0183619 0.30706
0.136985 0.0177551 0.306848
0.136531 0.017131 0.306494
0.136049 0.0164961 0.306046
0.135595 0.0158745 0.305687
0.135122 0.0152462 0.305262
0.134651 0.0146203 0.304839
0.134191 0.0140004 0.30445
0.133767 0.0133959 0.304172
0.13338 0.0128074 0.304012
0.132998 0.0122218 0.303868
0.132638 0.0116455 0.303792
0.132286 0.0110731 0.303741
0.131965 0.010513 0.303792
0.131629 0.00994758 0.303793
0.131307 0.00938754 0.303837
0.131023 0.00884235 0.304008
0.13075 0.00830107 0.304215
0.13048 0.00776108 0.304435
0.130255 0.00723684 0.304803
0.130052 0.00671968 0.305244
0.129828 0.00619525 0.305622
0.129591 0.00566551 0.305954
0.129341 0.00513049 0.30624
0.129079 0.00459157 0.306489
0.128829 0.00405665 0.306781
0.128592 0.00352541 0.307115
0.128357 0.00299436 0.307457
0.128159 0.00247513 0.30793
0.127964 0.00195598 0.308412
0.127771 0.00143702 0.308907
0.127608 0.00092633 0.309506
0.127444 0.000413928 0.310102
0.12727 -0.00010211 0.310668
0.127095 -0.000619536 0.311232
0.126909 -0.00114109 0.311761
0.126711 -0.00166661 0.312252
0.126575 -0.00217611 0.312958
0.126474 -0.00267675 0.313798
0.12636 -0.00318244 0.314594
0.126242 -0.00369128 0.315378
0.126123 -0.0042013 0.316166
0.125993 -0.00471634 0.316915
0.125871 -0.00523038 0.317698
0.125806 -0.00573181 0.318691
0.125813 -0.00621756 0.319951
0.12582 -0.00670599 0.32122
0.125828 -0.00719716 0.322496
0.125762 -0.0077082 0.323509
0.138155 0.0185637 0.306547
0.137784 0.0179741 0.30646
0.137369 0.0173667 0.306235
0.136907 0.0167399 0.305854
0.136431 0.0161093 0.30543
0.135956 0.0154803 0.305006
0.135482 0.0148529 0.304577
0.135021 0.0142323 0.304189
0.134586 0.0136237 0.303881
0.134176 0.0130258 0.303648
0.133821 0.0124513 0.303596
0.133451 0.0118709 0.303491
0.133102 0.0112996 0.303452
0.13276 0.0107312 0.303436
0.132431 0.0101682 0.303459
0.132095 0.00960313 0.303459
0.131771 0.00904298 0.303499
0.131487 0.00849764 0.303668
0.131203 0.00795289 0.303841
0.130944 0.00741673 0.304095
0.130709 0.00688884 0.304429
0.130516 0.00637526 0.304904
0.130295 0.00585096 0.305285
0.130069 0.00532512 0.305655
0.12984 0.00479726 0.306011
0.129599 0.00426549 0.306333
0.129372 0.00373782 0.306701
0.129149 0.00321072 0.307082
0.128933 0.00268556 0.30749
0.128736 0.00216573 0.307964
0.12853 0.00164222 0.308407
0.128315 0.00111592 0.308826
0.12814 0.000600515 0.30938
0.127955 8.1658e-05 0.309904
0.12776 -0.000441099 0.310396
0.127584 -0.000959103 0.310956
0.127399 -0.00148121 0.311482
0.127214 -0.00200356 0.312016
0.12708 -0.00251269 0.312731
0.126992 -0.00301082 0.31361
0.126878 -0.00351742 0.314403
0.126759 -0.00402695 0.315183
0.126641 -0.00453807 0.315969
0.126522 -0.00505079 0.316755
0.126402 -0.00556523 0.317541
0.126338 -0.00606747 0.318534
0.126335 -0.0065572 0.319751
0.126311 -0.00705424 0.320901
0.126295 -0.00755199 0.322087
0.126215 -0.00806699 0.323044
0.138566 0.0181857 0.30602
0.13818 0.0175906 0.305886
0.137733 0.0169706 0.30556
0.137257 0.0163397 0.30514
0.136768 0.0157052 0.304677
0.136292 0.0150768 0.304246
0.135829 0.0144555 0.303856
0.135382 0.0138422 0.303515
0.13497 0.0132438 0.303282
0.134583 0.0126564 0.303126
0.134242 0.0120875 0.303117
0.133883 0.0115121 0.303046
0.133555 0.0109494 0.303078
0.133215 0.0103823 0.303067
0.132886 0.00981992 0.303092
0.132549 0.00925482 0.30309
0.132223 0.00869452 0.303124
0.131939 0.00814918 0.303293
0.131667 0.00760859 0.303501
0.13141 0.00707317 0.303762
0.131175 0.00654522 0.304094
0.130991 0.00603478 0.304599
0.13077 0.00551042 0.30498
0.130546 0.00498492 0.305354
0.130339 0.00446427 0.305784
0.130131 0.00394303 0.306214
0.129927 0.00342251 0.30666
0.129727 0.00290206 0.307118
0.129522 0.00237992 0.307564
0.129324 0.00185902 0.308034
0.129096 0.00132821 0.308402
0.128859 0.000794397 0.308744
0.128662 0.000272131 0.309223
0.128467 -0.000250624 0.309708
0.128252 -0.000779667 0.31013
0.128076 -0.00129824 0.310685
0.12789 -0.00182074 0.311209
0.127716 -0.0023405 0.311779
0.127574 -0.00285259 0.312463
0.127487 -0.00335133 0.313341
0.127372 -0.0038589 0.314128
0.127254 -0.00436899 0.314906
0.127128 -0.0048824 0.315662
0.127021 -0.00539291 0.316487
0.126912 -0.00590538 0.317308
0.126849 -0.00640851 0.3183
0.126837 -0.00690141 0.319481
0.126793 -0.00740424 0.320554
0.126767 -0.00790563 0.321694
0.126677 -0.00842353 0.32261
0.138993 0.0178151 0.305543
0.138565 0.0172031 0.30528
0.138116 0.0165836 0.30495
0.137613 0.0159431 0.304448
0.137113 0.015305 0.303948
0.136646 0.0146826 0.303552
0.136187 0.014064 0.303175
0.135763 0.013461 0.302907
0.135375 0.0128732 0.302752
0.135001 0.0122915 0.302637
0.134671 0.0117277 0.302664
0.134333 0.0111609 0.302663
0.134007 0.0105993 0.302701
0.133668 0.010033 0.302693
0.133338 0.0094708 0.302716
0.132999 0.00890555 0.302709
0.132662 0.0083414 0.302706
0.132389 0.00780061 0.302912
0.13213 0.00726431 0.303162
0.131886 0.00673349 0.303463
0.131652 0.00620563 0.303797
0.131477 0.00569792 0.30433
0.131254 0.00517285 0.304704
0.131032 0.00464772 0.305084
0.130838 0.00413123 0.305555
0.130653 0.00361721 0.306063
0.130464 0.0031006 0.306555
0.130275 0.00258371 0.307052
0.130083 0.00206475 0.307539
0.129874 0.00153994 0.307973
0.129634 0.0010051 0.3083
0.129394 0.000469829 0.30863
0.129187 -5.62722e-05 0.309071
0.128981 -0.000582309 0.30952
0.128756 -0.00111451 0.309906
0.128579 -0.00163415 0.310455
0.128392 -0.00215705 0.310975
0.12823 -0.0026741 0.311583
0.128089 -0.00318655 0.312269
0.128011 -0.00368371 0.313176
0.127895 -0.00419279 0.313953
0.127777 -0.00470343 0.314732
0.127655 -0.00521707 0.315494
0.127551 -0.00572739 0.316328
0.127443 -0.00624051 0.317151
0.12738 -0.00674449 0.318139
0.127359 -0.00724104 0.319282
0.127296 -0.0077492 0.320283
0.127261 -0.00825361 0.321385
0.127172 -0.00877224 0.3223
0.139948 0.0181001 0.305641
0.139406 0.0174398 0.305029
0.138948 0.0168164 0.304675
0.138472 0.016187 0.304261
0.137945 0.015538 0.303684
0.137444 0.0149014 0.303185
0.136992 0.014286 0.302835
0.136545 0.013674 0.302498
0.136145 0.0130816 0.302308
0.135769 0.0124994 0.302191
0.135395 0.0119184 0.302077
0.135066 0.0113551 0.302104
0.134739 0.0107937 0.30214
0.134414 0.0102328 0.302179
0.134087 0.00967163 0.302211
0.133767 0.00911349 0.302266
0.133437 0.00855183 0.302287
0.13311 0.00799202 0.302319
0.132849 0.0074553 0.302562
0.132604 0.00692418 0.302857
0.132372 0.00639765 0.303199
0.132138 0.00586991 0.303534
0.131953 0.00535798 0.30403
0.131729 0.00483253 0.304399
0.131508 0.00430753 0.30478
0.131326 0.00379458 0.305292
0.131165 0.00328762 0.305876
0.130998 0.00277797 0.306443
0.130823 0.00226444 0.306982
0.130641 0.00174799 0.307502
0.130432 0.00122266 0.307934
0.130191 0.000687099 0.308259
0.129951 0.000151343 0.308588
0.129733 -0.000378262 0.308994
0.129518 -0.000907676 0.309409
0.129291 -0.00144087 0.309786
0.129103 -0.00196398 0.310299
0.128917 -0.00248719 0.310819
0.128767 -0.00300174 0.311466
0.128628 -0.00351435 0.312156
0.12854 -0.00401498 0.313027
0.128432 -0.00452262 0.313832
0.128315 -0.00503444 0.314606
0.128195 -0.00554798 0.315377
0.128094 -0.00605883 0.316217
0.127997 -0.00657037 0.317074
0.127924 -0.00707774 0.318023
0.127892 -0.00757791 0.319124
0.12783 -0.0080874 0.320119
0.127795 -0.00859262 0.321222
0.127709 -0.0091117 0.322142
0.140885 0.0183768 0.305672
0.140353 0.0177206 0.305101
0.139778 0.0170487 0.304392
0.139288 0.0164131 0.303938
0.138792 0.0157769 0.303464
0.138254 0.0151257 0.302857
0.137766 0.0144955 0.302396
0.137327 0.013887 0.30209
0.136915 0.0132899 0.301864
0.136528 0.0127035 0.301715
0.136162 0.0121257 0.301628
0.135798 0.0115497 0.301548
0.135468 0.010987 0.301573
0.135142 0.010426 0.301611
0.134817 0.00986605 0.301652
0.134491 0.00930538 0.301685
0.134171 0.00874791 0.301739
0.133853 0.00819138 0.3018
0.13354 0.00763635 0.301873
0.133301 0.00710799 0.30219
0.133079 0.00658482 0.302558
0.132859 0.00606212 0.302937
0.132626 0.00553417 0.303273
0.132429 0.00501823 0.30373
0.132204 0.00449221 0.304095
0.131983 0.0039671 0.304475
0.131813 0.0034577 0.305024
0.131675 0.00295751 0.305683
0.131531 0.00245424 0.306322
0.131366 0.00194332 0.306895
0.131205 0.00143285 0.307485
0.130997 0.00090744 0.307921
0.130758 0.000371562 0.30825
0.130519 -0.000164107 0.308583
0.130291 -0.000697264 0.308954
0.130065 -0.00123038 0.309332
0.129838 -0.00176419 0.309706
0.12964 -0.00229055 0.310183
0.129455 -0.0028142 0.310706
0.129316 -0.00332642 0.311391
0.129171 -0.00384142 0.312057
0.129075 -0.00434536 0.312895
0.128967 -0.00485378 0.313697
0.128849 -0.00536658 0.314466
0.12873 -0.0058807 0.315238
0.128631 -0.00639177 0.316083
0.128545 -0.00690178 0.316975
0.12848 -0.00740865 0.317949
0.128439 -0.00791211 0.319011
0.128367 -0.00842482 0.319969
0.128332 -0.00893154 0.321064
0.128245 -0.00945147 0.321979
0.140152 0.0166589 0.303761
0.139643 0.0160173 0.303254
0.139143 0.0153811 0.302768
0.138606 0.0147316 0.302164
0.13812 0.0141041 0.301715
0.137706 0.0135062 0.301486
0.137307 0.0129154 0.301301
0.13692 0.0123298 0.301153
0.136545 0.0117494 0.301038
0.136179 0.0111735 0.300952
0.135827 0.010603 0.300906
0.1355 0.0100427 0.300941
0.135175 0.00948331 0.300981
0.134859 0.00892753 0.301049
0.134553 0.00837521 0.301145
0.134249 0.00782391 0.301248
0.133958 0.00727777 0.301395
0.133744 0.00675765 0.301787
0.133544 0.00624222 0.302228
0.133336 0.00572316 0.302644
0.133123 0.00520206 0.303046
0.132916 0.00468232 0.303466
0.132689 0.0041556 0.303825
0.132467 0.00362983 0.3042
0.132299 0.00312057 0.304754
0.132174 0.00262379 0.305452
0.132043 0.00212387 0.306132
0.131879 0.00161291 0.306708
0.131728 0.00110487 0.30733
0.131533 0.000582283 0.307804
0.131296 4.70947e-05 0.308142
0.13108 -0.000482418 0.308552
0.130863 -0.00101288 0.308958
0.130635 -0.00154694 0.30933
0.130407 -0.00208154 0.309702
0.130209 -0.00260869 0.310177
0.130026 -0.00313253 0.310706
0.129888 -0.00364531 0.311392
0.129744 -0.00416112 0.31206
0.129638 -0.00466846 0.312863
0.12952 -0.00518059 0.313626
0.129392 -0.00569679 0.314357
0.129275 -0.0062116 0.315131
0.129176 -0.0067233 0.315975
0.129101 -0.00723162 0.316905
0.129049 -0.00773709 0.317916
0.128999 -0.00824364 0.318945
0.128926 -0.00875761 0.319898
0.128871 -0.0092698 0.320916
0.128772 -0.00979312 0.321787
0.14042 0.0162277 0.302813
0.139923 0.015593 0.302343
0.139475 0.0149788 0.302019
0.138961 0.0143402 0.301488
0.138499 0.0137236 0.301114
0.138106 0.013135 0.300952
0.137709 0.0125458 0.300775
0.137334 0.0119654 0.300663
0.136958 0.0113856 0.300546
0.136579 0.0108055 0.300421
0.136216 0.0102316 0.30034
0.135887 0.00967135 0.30037
0.135552 0.009109 0.300377
0.135238 0.00855408 0.300447
0.134931 0.00800249 0.300544
0.134639 0.00745595 0.300684
0.134362 0.00691499 0.300875
0.134162 0.00639969 0.301309
0.133975 0.00588846 0.30179
0.133789 0.00537679 0.302274
0.133588 0.00485955 0.302714
0.133382 0.00433953 0.303135
0.133155 0.00381277 0.303493
0.132942 0.00328962 0.303895
0.132765 0.00277728 0.304417
0.132632 0.00227764 0.305086
0.132512 0.00178051 0.305801
0.132359 0.00127254 0.306411
0.132221 0.000767598 0.307072
0.132049 0.000251535 0.307622
0.131845 -0.000274169 0.308071
0.131641 -0.000800945 0.308519
0.131435 -0.00132916 0.308962
0.131207 -0.00186378 0.309333
0.130979 -0.00239897 0.309704
0.130772 -0.00292909 0.310149
0.130599 -0.00345106 0.310709
0.130461 -0.0039646 0.311394
0.130327 -0.00447898 0.312093
0.130221 -0.00498755 0.312892
0.130101 -0.0055011 0.313648
0.129962 -0.00602056 0.314341
0.129854 -0.0065342 0.315145
0.12975 -0.00704869 0.315964
0.129678 -0.00755771 0.3169
0.129627 -0.00806348 0.317918
0.129569 -0.00857352 0.318912
0.129488 -0.0090903 0.319832
0.129431 -0.00960425 0.320839
0.129332 -0.0101286 0.321706
0.140626 0.0157737 0.301682
0.140206 0.0151713 0.301448
0.139807 0.0145783 0.301274
0.139318 0.0139512 0.300823
0.138879 0.0133447 0.30052
0.138499 0.0127619 0.300399
0.138125 0.0121822 0.300292
0.137761 0.0116067 0.300216
0.137383 0.0110268 0.300094
0.136993 0.0104433 0.299934
0.136615 0.00986525 0.299811
0.136276 0.00930132 0.299804
0.135941 0.00873947 0.299811
0.135627 0.00818553 0.299884
0.135322 0.0076348 0.299983
0.135038 0.00709204 0.300152
0.134771 0.00655455 0.300372
0.134563 0.00603673 0.300779
0.13439 0.00552975 0.3013
0.134216 0.005022 0.301822
0.134018 0.00450543 0.302267
0.133804 0.00398313 0.302662
0.133587 0.00345951 0.303051
0.133374 0.00293648 0.303453
0.133197 0.00242401 0.303972
0.133075 0.00192711 0.304673
0.132976 0.00143621 0.305455
0.132846 0.000934415 0.306138
0.132732 0.000435989 0.306876
0.132583 -7.40223e-05 0.307501
0.132403 -0.000593756 0.308026
0.132212 -0.00111775 0.308515
0.132007 -0.00164568 0.308964
0.131781 -0.00218044 0.309341
0.131562 -0.00271374 0.309743
0.131345 -0.0032473 0.310152
0.131172 -0.00376984 0.310712
0.131036 -0.00428422 0.311399
0.130901 -0.00479955 0.312095
0.130774 -0.00531434 0.31282
0.130653 -0.00582888 0.31357
0.130513 -0.00634964 0.314257
0.130407 -0.00686379 0.315063
0.130315 -0.0073764 0.315923
0.130266 -0.00788133 0.316936
0.13022 -0.00838777 0.317964
0.130161 -0.00889901 0.318954
0.130079 -0.00941735 0.319866
0.130012 -0.00993448 0.320836
0.129906 -0.0104616 0.321673
0.130261 -0.0104517 0.326226
0.129852 -0.01098 0.322702
0.140969 0.0153766 0.300975
0.140555 0.0147777 0.300758
0.140172 0.0141922 0.300635
0.139709 0.0135763 0.300265
0.13928 0.0129749 0.299996
0.138903 0.012394 0.299882
0.138541 0.011819 0.299812
0.138168 0.0112414 0.29971
0.1378 0.010666 0.29962
0.137409 0.0100828 0.299458
0.13702 0.00950088 0.299297
0.136669 0.00893378 0.299256
0.136333 0.00837232 0.299261
0.136009 0.00781544 0.299301
0.135703 0.0072649 0.299397
0.135418 0.00672187 0.299559
0.13516 0.00618823 0.299808
0.134953 0.00567043 0.300215
0.134789 0.00516692 0.300765
0.134628 0.00466283 0.301322
0.134441 0.00415008 0.301802
0.13423 0.00362876 0.302206
0.134025 0.00310876 0.302631
0.133823 0.00258901 0.303065
0.133655 0.00207925 0.303615
0.133546 0.00158548 0.304353
0.133459 0.00109735 0.30517
0.133352 0.00060171 0.305926
0.133254 0.000106682 0.30671
0.133108 -0.000402744 0.307346
0.13294 -0.000919506 0.307911
0.13276 -0.00144088 0.308436
0.132559 -0.00196881 0.308892
0.132333 -0.00250401 0.309269
0.132124 -0.00303489 0.309706
0.131917 -0.00356658 0.310147
0.131756 -0.00408692 0.310746
0.131621 -0.00460174 0.311438
0.131489 -0.0051175 0.312138
0.131361 -0.00563358 0.312859
0.13122 -0.00615371 0.31354
0.131069 -0.00667783 0.314187
0.130965 -0.00719257 0.314997
0.130884 -0.00770368 0.315894
0.13084 -0.00820877 0.316919
0.130804 -0.0087144 0.317978
0.130745 -0.00922705 0.318963
0.130651 -0.00974906 0.31983
0.130585 -0.0102672 0.320802
0.130481 -0.0107946 0.321645
0.130423 -0.0113154 0.322651
0.140914 0.0143895 0.300105
0.140539 0.0138077 0.300005
0.140109 0.0132056 0.299735
0.139682 0.0126058 0.299473
0.139303 0.0120252 0.299357
0.138932 0.011448 0.29926
0.13857 0.0108748 0.299191
0.138194 0.0102971 0.299076
0.137803 0.00971509 0.298915
0.137413 0.00913386 0.298754
0.13706 0.00856686 0.298708
0.136725 0.00800586 0.298711
0.136411 0.00745316 0.298784
0.136106 0.0069036 0.298883
0.135821 0.00636097 0.299045
0.135563 0.00582703 0.29929
0.135343 0.00530586 0.299658
0.13517 0.00479866 0.300172
0.135017 0.00429756 0.300756
0.134843 0.00378847 0.301273
0.134643 0.0032707 0.301709
0.13445 0.00275442 0.302171
0.134269 0.00224127 0.302673
0.134116 0.00173545 0.303266
0.13402 0.00124501 0.304044
0.133947 0.000760096 0.304903
0.133864 0.000270611 0.305733
0.133768 -0.000224228 0.306523
0.133635 -0.000731007 0.307198
0.133478 -0.00124544 0.307796
0.133309 -0.00176462 0.308354
0.133118 -0.0022902 0.308845
0.132902 -0.00282302 0.309257
0.132705 -0.00335158 0.309732
0.132509 -0.00388084 0.310211
0.132362 -0.00439867 0.310855
0.13222 -0.00491684 0.311517
0.132098 -0.00543109 0.312252
0.131961 -0.00595027 0.31294
0.13181 -0.00647404 0.313583
0.131648 -0.00700135 0.314194
0.131544 -0.00751702 0.315003
0.131466 -0.00802889 0.315905
0.131423 -0.00853482 0.316932
0.131379 -0.00904365 0.317957
0.131309 -0.00955963 0.318902
0.131202 -0.0100853 0.31972
0.131137 -0.0106042 0.320694
0.131046 -0.0111302 0.321576
0.130991 -0.0116516 0.322591
0.141239 0.0139894 0.299353
0.140876 0.0134133 0.299289
0.140476 0.0128238 0.299113
0.14006 0.012229 0.298882
0.139679 0.0116485 0.298761
0.139306 0.0110714 0.298658
0.138944 0.010499 0.298589
0.13858 0.00992665 0.298512
0.138201 0.00934939 0.298388
0.137824 0.00877385 0.298268
0.137481 0.00821077 0.298252
0.137155 0.00765387 0.298288
0.136843 0.00710173 0.298362
0.13654 0.00655302 0.298467
0.136257 0.00601154 0.298636
0.135989 0.00547452 0.29885
0.135747 0.00494608 0.299145
0.135561 0.00443509 0.29962
0.135398 0.00393028 0.300165
0.135224 0.00342179 0.300683
0.135037 0.00290769 0.301156
0.134867 0.00239851 0.301688
0.13471 0.00189201 0.302263
0.134582 0.00139311 0.302932
0.134501 0.000906954 0.303759
0.134453 0.000428313 0.304694
0.134393 -5.58186e-05 0.305594
0.134296 -0.000551695 0.30638
0.134174 -0.00105637 0.307086
0.134026 -0.00156901 0.307713
0.133857 -0.0020884 0.308273
0.133667 -0.00261444 0.308766
0.133463 -0.00314478 0.309214
0.133278 -0.00367098 0.309728
0.133096 -0.00419754 0.310251
0.132952 -0.00471547 0.310904
0.132811 -0.0052341 0.311571
0.132698 -0.00574711 0.312335
0.13255 -0.00627002 0.312984
0.132389 -0.00679718 0.313589
0.132228 -0.00732507 0.314201
0.132121 -0.00784252 0.314999
0.132034 -0.00835733 0.315866
0.131982 -0.00886683 0.316857
0.131928 -0.0093786 0.317846
0.131847 -0.00989804 0.318749
0.131728 -0.0104265 0.319527
0.131654 -0.0109484 0.320461
0.131584 -0.0114712 0.321415
0.131532 -0.011993 0.322436
0.141986 0.0141888 0.298843
0.141605 0.0136063 0.298729
0.141237 0.0130291 0.29865
0.140838 0.0124408 0.298475
0.140412 0.011844 0.298219
0.14002 0.01126 0.298061
0.139643 0.0106825 0.297947
0.13927 0.0101073 0.297845
0.138917 0.00953968 0.297802
0.138552 0.00896848 0.297721
0.138187 0.00839803 0.297638
0.137848 0.00783696 0.297633
0.137534 0.00728473 0.297705
0.137233 0.00673712 0.297815
0.136942 0.00619314 0.297958
0.136673 0.00565581 0.298164
0.136415 0.00512276 0.298412
0.136172 0.0045941 0.298703
0.135973 0.00407887 0.299134
0.135799 0.00357056 0.299642
0.135626 0.00306181 0.300157
0.135442 0.00254896 0.30064
0.135296 0.00204684 0.301247
0.135164 0.00154743 0.301898
0.13507 0.0010583 0.302676
0.135015 0.000578277 0.303579
0.13499 0.000105312 0.304586
0.134942 -0.00037642 0.305522
0.134845 -0.000873464 0.306305
0.134722 -0.00137904 0.307007
0.134564 -0.00189542 0.307598
0.134397 -0.00241519 0.308161
0.134208 -0.00294145 0.308656
0.134016 -0.00346903 0.309144
0.133845 -0.00399265 0.3097
0.133686 -0.00451393 0.310301
0.133544 -0.00503256 0.310958
0.133412 -0.00554987 0.311653
0.133299 -0.00606419 0.312413
0.13314 -0.00659061 0.313023
0.132968 -0.00712098 0.313593
0.132805 -0.00765017 0.314196
0.132678 -0.00817307 0.314922
0.132589 -0.00868906 0.315781
0.132526 -0.00920189 0.316731
0.132461 -0.00971703 0.317681
0.132369 -0.0102393 0.318543
0.13224 -0.0107709 0.31928
0.132132 -0.0112997 0.320095
0.132075 -0.0118212 0.321087
0.132036 -0.0123414 0.322148
0.141975 0.0132256 0.298119
0.141603 0.0126481 0.29803
0.141195 0.0120576 0.297828
0.140773 0.011463 0.297584
0.140368 0.0108755 0.297388
0.139979 0.0102948 0.29724
0.139595 0.00971641 0.297103
0.139241 0.00914978 0.297058
0.138889 0.00858383 0.297014
0.138539 0.0080192 0.296975
0.138213 0.00746355 0.297012
0.137911 0.006916 0.29712
0.137622 0.00637269 0.297265
0.137343 0.0058329 0.297443
0.137075 0.00529681 0.297656
0.136829 0.0047675 0.297936
0.136596 0.00424206 0.298258
0.136386 0.00372344 0.298653
0.13621 0.00321449 0.299154
0.136048 0.00270882 0.2997
0.135876 0.00219946 0.300219
0.135746 0.0017017 0.300872
0.135649 0.00121224 0.301632
0.13559 0.000732084 0.302517
0.135558 0.000257778 0.303492
0.135547 -0.000212719 0.304539
0.135501 -0.000695382 0.305477
0.135404 -0.00119313 0.306259
0.135271 -0.00170233 0.306925
0.135103 -0.00222182 0.307483
0.134936 -0.00274202 0.308047
0.134769 -0.00326336 0.308612
0.134592 -0.0037881 0.309145
0.134422 -0.00431209 0.309706
0.134286 -0.00482895 0.310378
0.134143 -0.00534867 0.311032
0.134001 -0.00586923 0.311693
0.133877 -0.00638726 0.312414
0.133717 -0.00691459 0.313019
0.133535 -0.00744787 0.313554
0.133362 -0.00798008 0.314122
0.133223 -0.00850603 0.314806
0.133122 -0.00902562 0.315623
0.133037 -0.00954378 0.316495
0.132961 -0.0100621 0.317402
0.132857 -0.0105875 0.318219
0.132729 -0.0111194 0.318955
0.132609 -0.0116509 0.319727
0.132574 -0.0121692 0.32079
0.132536 -0.01269 0.321852
0.132074 -0.0128507 0.323482
0.132581 -0.0131995 0.323202
0.132143 -0.0133579 0.324932
0.132653 -0.0137074 0.324656
0.141951 0.0122612 0.297358
0.141539 0.0116707 0.297148
0.141122 0.011079 0.296919
0.140716 0.0104923 0.296721
0.140316 0.00990862 0.296539
0.139931 0.00933107 0.296398
0.139579 0.00876579 0.296359
0.139248 0.00820814 0.29638
0.138921 0.00765222 0.296412
0.138619 0.00710484 0.29652
0.13833 0.00656176 0.296665
0.138051 0.00602229 0.296842
0.137772 0.00548283 0.29702
0.137505 0.00494705 0.297233
0.13725 0.00441503 0.297486
0.137019 0.00389041 0.297812
0.136799 0.00336866 0.298174
0.136623 0.00285941 0.298671
0.13647 0.00235677 0.299247
0.136322 0.00185421 0.299837
0.136207 0.00136006 0.300533
0.136144 0.00087982 0.301399
0.13611 0.000405902 0.302359
0.136081 -6.86643e-05 0.30334
0.136083 -0.000536895 0.304424
0.136037 -0.00102039 0.30536
0.135942 -0.00151896 0.306143
0.135809 -0.00202878 0.306809
0.135652 -0.00254604 0.307401
0.135487 -0.00306667 0.307967
0.135342 -0.0035829 0.308603
0.135177 -0.00410554 0.309175
0.135009 -0.00462974 0.309741
0.134874 -0.00514744 0.310414
0.134719 -0.00567074 0.311027
0.134555 -0.00619726 0.311615
0.13442 -0.00671858 0.312297
0.134251 -0.00724834 0.312872
0.134069 -0.00778241 0.313404
0.133897 -0.00831497 0.313973
0.133758 -0.0088415 0.314657
0.133647 -0.00936417 0.315433
0.133549 -0.00988572 0.316261
0.133462 -0.0104069 0.317125
0.133348 -0.0109351 0.317904
0.133219 -0.0114672 0.318638
0.133079 -0.0120031 0.319337
0.133064 -0.0125185 0.320464
0.13303 -0.0130399 0.321533
0.133067 -0.0135518 0.322849
0.133119 -0.0140642 0.324229
0.132693 -0.0142243 0.326005
0.133156 -0.0145821 0.325559
0.142202 0.0118409 0.296405
0.141832 0.0112665 0.296319
0.141462 0.0106929 0.296228
0.141056 0.0101074 0.296032
0.140655 0.00952457 0.295848
0.140258 0.00894389 0.295674
0.139917 0.00838299 0.295664
0.139589 0.00782727 0.295694
0.139275 0.00727654 0.295766
0.138985 0.00673369 0.295909
0.138717 0.00619822 0.296118
0.13845 0.00566277 0.296329
0.138183 0.00512744 0.296542
0.137926 0.00459544 0.296789
0.137682 0.00406686 0.297072
0.13744 0.003539 0.297365
0.137212 0.00301438 0.297697
0.137025 0.00250232 0.298162
0.136874 0.00199965 0.298737
0.136738 0.00150045 0.299363
0.136646 0.00101257 0.300128
0.13662 0.000542188 0.301105
0.136621 7.70133e-05 0.302173
0.136617 -0.000391777 0.303228
0.136633 -0.000857741 0.304351
0.136597 -0.00133982 0.305315
0.136502 -0.0018391 0.306097
0.136369 -0.00234964 0.306762
0.136215 -0.00286714 0.307361
0.13606 -0.00338594 0.307958
0.135917 -0.00390253 0.308599
0.135753 -0.00442552 0.309174
