ply
format ascii 1.0
element vertex 1577
property float x
property float y
property float z
end_header
-0.0184906 -0.0310611 0.676181
-0.0174117 -0.0313966 0.674743
-0.0163452 -0.0317543 0.673781
-0.0152804 -0.032106 0.672711
-0.0142147 -0.0324403 0.67134
-0.0131551 -0.0327804 0.670115
-0.0121025 -0.0331339 0.669164
-0.0110531 -0.0334876 0.668239
-0.0100087 -0.0338546 0.667583
-0.00896713 -0.0342282 0.667063
-0.0079273 -0.0346012 0.666548
-0.0068898 -0.034988 0.666292
-0.00585356 -0.0353762 0.666053
-0.00481769 -0.0357636 0.66582
-0.00378294 -0.0361504 0.665575
-0.00274884 -0.0365392 0.665371
-0.0017156 -0.0369239 0.665105
-0.00068327 -0.0373097 0.66486
0.00035153 -0.0377177 0.665
0.00138741 -0.0381322 0.665236
0.00242487 -0.0385524 0.665557
0.003463 -0.038972 0.665864
0.00450639 -0.0394099 0.666465
0.00554776 -0.0398345 0.666835
0.00659062 -0.0402605 0.667225
0.00763931 -0.0407019 0.667853
0.00869245 -0.0411525 0.668613
0.00974703 -0.0416026 0.669341
0.0108027 -0.0420498 0.670017
0.0118596 -0.0424952 0.670659
0.012914 -0.0429309 0.671139
0.0139644 -0.0433539 0.671426
0.0150158 -0.0437773 0.671718
0.0160724 -0.0442109 0.67215
0.0171307 -0.0446464 0.672599
0.018188 -0.0450775 0.672979
0.0192555 -0.0455259 0.673604
0.0203249 -0.0459767 0.674242
0.0214054 -0.0464444 0.675108
0.0224916 -0.0469188 0.676052
0.0235944 -0.0474181 0.677322
0.0246958 -0.0479099 0.678471
0.0257983 -0.0483984 0.679564
0.0269036 -0.0488886 0.680651
0.0280184 -0.0493887 0.681861
0.0291382 -0.0498928 0.6831
0.03027 -0.0504115 0.684505
0.031421 -0.0509522 0.686183
0.0325664 -0.0514803 0.687667
0.0337272 -0.0520255 0.689345
0.0348742 -0.0525458 0.690692
-0.0191501 -0.0296437 0.676851
-0.0180698 -0.0299863 0.675486
-0.0169897 -0.0303157 0.673869
-0.015922 -0.0306656 0.672722
-0.0148574 -0.031012 0.671542
-0.0137937 -0.0313458 0.670115
-0.0127373 -0.0316906 0.668961
-0.0116877 -0.0320491 0.668091
-0.010642 -0.0324141 0.667369
-0.00959957 -0.0327856 0.666788
-0.00855965 -0.0331624 0.666323
-0.00752136 -0.0335393 0.665871
-0.00648525 -0.0339268 0.665612
-0.00544965 -0.0343144 0.665376
-0.0044151 -0.0347025 0.665146
-0.003381 -0.0350889 0.664902
-0.0023481 -0.0354781 0.664698
-0.00131562 -0.0358673 0.664505
-0.000283401 -0.0362569 0.664335
0.000751906 -0.0366729 0.664611
0.00178872 -0.037095 0.66498
0.00282686 -0.0375187 0.665368
0.00386554 -0.0379373 0.665679
0.00490804 -0.0383703 0.666209
0.00594927 -0.0387935 0.66657
0.0069921 -0.0392188 0.666959
0.00804213 -0.0396638 0.667656
0.00909855 -0.0401218 0.668552
0.0101567 -0.0405791 0.669412
0.0112145 -0.0410294 0.670149
0.0122752 -0.0414828 0.670918
0.0133307 -0.0419186 0.671407
0.0143823 -0.0423412 0.6717
0.0154345 -0.0427656 0.672001
0.0164901 -0.0431943 0.672369
0.0175471 -0.0436246 0.67275
0.0186047 -0.0440551 0.673124
0.0196705 -0.0444984 0.673685
0.020741 -0.0449483 0.674327
0.0218252 -0.0454195 0.675263
0.0229105 -0.0458898 0.676164
0.0240119 -0.046383 0.677375
0.025114 -0.0468732 0.678519
0.0262171 -0.0473596 0.679604
0.0273233 -0.0478484 0.680692
0.0284394 -0.0483479 0.681911
0.0295635 -0.0488548 0.683215
0.0306993 -0.0493744 0.684665
0.0318477 -0.049908 0.686273
0.0329907 -0.0504287 0.68769
0.0341522 -0.0509701 0.689356
0.0352994 -0.0514883 0.690694
-0.0165686 -0.0292372 0.673005
-0.0155012 -0.0295836 0.67176
-0.0144386 -0.0299311 0.670557
-0.013377 -0.0302665 0.669137
-0.0123229 -0.0306137 0.668003
-0.0112762 -0.0309797 0.667275
-0.0102329 -0.0313498 0.666628
-0.0091917 -0.0317215 0.666049
-0.00815288 -0.0320961 0.665532
-0.00711586 -0.0324729 0.66507
-0.00608053 -0.0328532 0.664681
-0.00504659 -0.0332408 0.66444
-0.00401332 -0.0336286 0.664209
-0.00298068 -0.0340187 0.664029
-0.0019484 -0.0344113 0.663901
-0.000916535 -0.0348046 0.663786
0.000115275 -0.0352028 0.663751
0.00115142 -0.0356257 0.664165
0.00218936 -0.0360548 0.664667
0.00322856 -0.036481 0.665123
0.00426864 -0.0369067 0.665554
0.00531024 -0.0373354 0.666018
0.00635153 -0.0377573 0.666369
0.00739426 -0.0381814 0.666748
0.00844493 -0.0386253 0.667455
0.00950324 -0.0390868 0.668422
0.0105636 -0.0395473 0.669356
0.0116222 -0.0399969 0.670101
0.012685 -0.040453 0.670928
0.0137431 -0.0408921 0.671485
0.0147955 -0.0413161 0.671796
0.0158525 -0.0417491 0.672234
0.0169107 -0.0421824 0.672667
0.0179681 -0.0426116 0.673037
0.0190266 -0.0430413 0.673408
0.0200932 -0.0434839 0.673964
0.0211653 -0.0439337 0.674618
0.0222505 -0.0444043 0.675556
0.0233373 -0.0448732 0.67646
0.0244373 -0.0453605 0.677608
0.0255376 -0.0458439 0.678682
0.0266386 -0.0463241 0.679698
0.0277463 -0.0468113 0.680792
0.0288632 -0.0473096 0.68201
0.0299919 -0.0478198 0.683381
0.0311327 -0.0483419 0.684899
0.0322794 -0.0488691 0.686448
0.0334232 -0.0493872 0.687857
0.034578 -0.0499161 0.689384
0.0357218 -0.0504264 0.690643
-0.0161386 -0.0281347 0.671556
-0.0150752 -0.0284856 0.67038
-0.014019 -0.0288472 0.669473
-0.0129615 -0.0291907 0.668187
-0.011911 -0.0295461 0.667192
-0.0108669 -0.0299189 0.666587
-0.00982485 -0.0302901 0.665955
-0.00878534 -0.0306658 0.665443
-0.0077477 -0.0310411 0.664922
-0.00671144 -0.0314144 0.664387
-0.00567706 -0.0317916 0.663934
-0.00464428 -0.032179 0.663684
-0.00361244 -0.0325638 0.663393
-0.00258089 -0.0329538 0.663218
-0.00154976 -0.0333466 0.663091
-0.000518718 -0.0337435 0.663044
0.000512908 -0.0341454 0.66309
0.00154906 -0.0345719 0.663581
0.00258762 -0.0350036 0.664157
0.00362786 -0.0354368 0.664738
0.00466873 -0.0358658 0.665238
0.0057107 -0.0362928 0.665703
0.00675172 -0.0367141 0.666053
0.00779547 -0.0371405 0.666483
0.00884486 -0.0375806 0.667131
0.00990213 -0.0380373 0.668046
0.0109645 -0.0384998 0.669044
0.0120247 -0.0389521 0.669852
0.0130899 -0.0394109 0.67075
0.014152 -0.0398583 0.671445
0.0152105 -0.040295 0.671957
0.0162707 -0.0407319 0.672467
0.0173322 -0.0411681 0.672966
0.0183904 -0.041597 0.673335
0.0194496 -0.0420265 0.673702
0.0205152 -0.0424648 0.674205
0.0215903 -0.0429178 0.674915
0.0226766 -0.0433874 0.675852
0.023767 -0.0438591 0.676811
0.0248683 -0.0443444 0.677953
0.0259696 -0.0448255 0.679016
0.0270683 -0.0453002 0.679963
0.0281797 -0.0457897 0.68111
0.029296 -0.0462828 0.682282
0.030427 -0.0467915 0.683667
0.0315696 -0.0473137 0.685197
0.0327147 -0.0478334 0.686682
0.0338566 -0.0483456 0.688033
0.0350119 -0.0488706 0.689541
0.0361563 -0.0493788 0.690793
-0.0157049 -0.0270214 0.669767
-0.0146509 -0.0273919 0.669026
-0.013601 -0.0277673 0.668398
-0.0125474 -0.0281188 0.667259
-0.0115001 -0.0284815 0.666394
-0.010458 -0.028858 0.665864
-0.00941819 -0.0292361 0.665361
-0.00838005 -0.0296155 0.664915
-0.00734323 -0.0299908 0.664385
-0.00630785 -0.0303618 0.663786
-0.00527475 -0.0307358 0.663255
-0.00424285 -0.0311197 0.662939
-0.0032119 -0.0315041 0.662648
-0.00218158 -0.0318947 0.662476
-0.00115153 -0.0322874 0.662354
-0.000121147 -0.0326871 0.662361
0.000910233 -0.0330914 0.662461
0.0019452 -0.0335145 0.662902
0.00298423 -0.0339488 0.663551
0.00402514 -0.0343843 0.664203
0.00506582 -0.0348126 0.664713
0.00610644 -0.0352369 0.665131
0.00714811 -0.0356604 0.665537
0.0081915 -0.0360859 0.665967
0.00924044 -0.0365247 0.66661
0.0102992 -0.036983 0.667584
0.0113642 -0.0374517 0.668706
0.0124282 -0.0379106 0.669645
0.0134975 -0.0383766 0.670684
0.0145643 -0.0388309 0.671517
0.0156278 -0.0392754 0.672167
0.0166912 -0.0397159 0.67275
0.0177537 -0.0401535 0.673261
0.0188132 -0.0405826 0.67364
0.0198755 -0.0410152 0.674065
0.0209397 -0.0414487 0.674502
0.0220158 -0.0419012 0.675213
0.0231036 -0.0423695 0.676153
0.0241951 -0.0428395 0.677108
0.0252917 -0.0433143 0.678116
0.0263932 -0.0437937 0.679167
0.0274927 -0.0442661 0.680103
0.0286055 -0.0447547 0.681255
0.0297266 -0.0452511 0.682502
0.0308661 -0.0457681 0.684025
0.0320117 -0.0462891 0.685574
0.0331579 -0.0468069 0.687053
0.0343006 -0.0473162 0.68839
0.0354536 -0.0478346 0.689831
0.0365964 -0.0483366 0.691029
0.0377066 -0.0503838 0.698627
0.0377641 -0.0488661 0.692573
-0.0152852 -0.025946 0.66876
-0.0142337 -0.026319 0.66805
-0.0131866 -0.026699 0.667515
-0.0121363 -0.0270578 0.666525
-0.011091 -0.0274242 0.665723
-0.0100505 -0.0278025 0.665207
-0.00901187 -0.0281833 0.664771
-0.00797469 -0.0285614 0.664278
-0.00693932 -0.0289404 0.663807
-0.00590495 -0.0293116 0.663203
-0.00487263 -0.0296822 0.662604
-0.003842 -0.0300635 0.662225
-0.00281219 -0.030448 0.661929
-0.00178319 -0.0308355 0.6617
-0.000754275 -0.0312277 0.661571
0.000275055 -0.0316263 0.661565
0.00130564 -0.0320334 0.661718
0.00234033 -0.0324547 0.66216
0.00337919 -0.0328912 0.662864
0.00442057 -0.0333288 0.66358
0.0054616 -0.03376 0.664154
0.00650217 -0.0341837 0.664589
0.00754471 -0.0346101 0.665061
0.00858889 -0.0350383 0.66555
0.00963908 -0.035479 0.66625
0.0106997 -0.0359394 0.667292
0.0117667 -0.0364101 0.668477
0.0128347 -0.0368752 0.669551
0.0139073 -0.0373443 0.670675
0.0149751 -0.0377991 0.671527
0.0160414 -0.0382472 0.67225
0.0171076 -0.0386913 0.672899
0.0181714 -0.0391286 0.673423
0.0192317 -0.039557 0.673803
0.0202968 -0.0399937 0.67429
0.0213641 -0.0404303 0.674785
0.0224442 -0.0408863 0.675566
0.0235337 -0.041354 0.676516
0.0246267 -0.0418238 0.67748
0.0257245 -0.0422967 0.678478
0.0268216 -0.0427669 0.679406
0.0279186 -0.0432332 0.68027
0.0290329 -0.0437208 0.681429
0.0301588 -0.0442198 0.682743
0.031301 -0.0447366 0.684289
0.032451 -0.0452592 0.685894
0.0335985 -0.0457743 0.687365
0.0347382 -0.046276 0.688622
0.0358927 -0.0467925 0.690064
0.0370374 -0.0472944 0.691276
0.0382041 -0.0478188 0.692779
-0.0138181 -0.025251 0.667142
-0.0127731 -0.0256331 0.666649
-0.0117265 -0.0260011 0.665844
-0.0106825 -0.0263687 0.665055
-0.00964316 -0.0267472 0.664533
-0.00860571 -0.0271269 0.664049
-0.0075698 -0.0275077 0.663617
-0.00653534 -0.0278846 0.6631
-0.00550255 -0.0282573 0.662499
-0.00447144 -0.0286284 0.661898
-0.00344209 -0.0290097 0.661509
-0.00241328 -0.0293939 0.661212
-0.0013851 -0.0297845 0.661041
-0.000357134 -0.0301771 0.660919
0.000671426 -0.0305753 0.660913
0.00170158 -0.0309806 0.66106
0.0027343 -0.0313986 0.661431
0.0037721 -0.0318296 0.66207
0.00481348 -0.0322684 0.662835
0.00585524 -0.0327015 0.663476
0.00689612 -0.0331278 0.663971
0.00793949 -0.0335568 0.664511
0.00898578 -0.033991 0.665124
0.0100378 -0.0344347 0.665904
0.0111004 -0.0348976 0.667019
0.0121701 -0.0353703 0.668282
0.0132422 -0.0358417 0.669491
0.0143155 -0.0363106 0.670625
0.0153864 -0.0367675 0.671549
0.0164552 -0.0372182 0.672333
0.0175243 -0.0376649 0.673043
0.018591 -0.0381054 0.67363
0.0196543 -0.0385377 0.674074
0.0207229 -0.038978 0.674629
0.0217939 -0.0394188 0.675194
0.0228785 -0.039879 0.676057
0.0239676 -0.0403417 0.676952
0.025065 -0.0408144 0.677979
0.0261614 -0.0412826 0.67892
0.0272567 -0.0417468 0.679777
0.0283519 -0.0422082 0.680577
0.0294673 -0.042694 0.681733
0.0305954 -0.0431919 0.683057
0.0317392 -0.0437073 0.684607
0.0328877 -0.0442235 0.686152
0.0340325 -0.0447319 0.68755
0.0351683 -0.0452258 0.688719
0.0363243 -0.0457407 0.690166
0.0374743 -0.0462458 0.691448
0.0386437 -0.0467684 0.692968
-0.0134013 -0.0241782 0.66605
-0.0123588 -0.0245632 0.665625
-0.0113157 -0.024939 0.664992
-0.010274 -0.02531 0.664261
-0.00923579 -0.0256884 0.66373
-0.00819971 -0.0260681 0.663234
-0.0071652 -0.0264493 0.662802
-0.00613225 -0.0268299 0.662355
-0.00510051 -0.0272052 0.661822
-0.00407087 -0.0275812 0.661297
-0.00304218 -0.0279649 0.660964
-0.00201416 -0.0283524 0.660725
-0.000986497 -0.028743 0.660559
4.10765e-05 -0.0291358 0.660447
0.00106903 -0.0295347 0.660454
0.00209814 -0.0299369 0.660543
0.00312883 -0.0303475 0.660781
0.00416514 -0.0307738 0.661348
0.00520498 -0.0312076 0.662042
0.00624592 -0.0316399 0.662687
0.00728754 -0.0320681 0.663249
0.00833273 -0.032503 0.663919
0.00938181 -0.0329424 0.664666
0.010437 -0.0333921 0.665585
0.011502 -0.0338587 0.666791
0.0125758 -0.0343374 0.668192
0.0136524 -0.0348135 0.669529
0.0147266 -0.0352802 0.670657
0.0158 -0.0357393 0.671639
0.0168714 -0.0361919 0.672475
0.0179411 -0.0366384 0.673188
0.0190088 -0.0370781 0.673778
0.0200752 -0.0375142 0.674288
0.0211476 -0.0379577 0.674915
0.0222227 -0.0384026 0.67556
0.0233094 -0.038863 0.67644
0.0244 -0.0393255 0.677343
0.025501 -0.0398003 0.678423
0.0265957 -0.0402629 0.679292
0.0276892 -0.0407215 0.680082
0.0287855 -0.0411824 0.680883
0.0299016 -0.0416651 0.682021
0.0310275 -0.0421576 0.683282
0.0321697 -0.0426657 0.684767
0.0333157 -0.043176 0.686247
0.0344575 -0.043677 0.68757
0.0355898 -0.0441647 0.688665
0.0367425 -0.0446724 0.690042
0.0379015 -0.0451846 0.691454
0.0390726 -0.0457064 0.692985
-0.014032 -0.0227351 0.665713
-0.0129883 -0.0231173 0.665195
-0.011947 -0.0235014 0.664741
-0.0109055 -0.0238777 0.664111
-0.00986525 -0.0242482 0.663332
-0.00882815 -0.0246238 0.662734
-0.00779356 -0.025003 0.662218
-0.0067607 -0.025382 0.661725
-0.00572939 -0.0257648 0.661342
-0.00469955 -0.0261444 0.660887
-0.00367127 -0.0265236 0.660431
-0.00264394 -0.0269085 0.660118
-0.00161684 -0.0272989 0.659945
-0.000589913 -0.0276925 0.659845
0.000437095 -0.0280887 0.659804
0.00146522 -0.0284897 0.65988
0.00249412 -0.0288949 0.66003
0.00352439 -0.0293044 0.660262
0.00455915 -0.0297261 0.660748
0.00559755 -0.0301554 0.661376
0.00663807 -0.0305857 0.662016
0.00767942 -0.0310139 0.662597
0.00872706 -0.0314543 0.663403
0.00977911 -0.0318995 0.66429
0.010839 -0.0323586 0.665408
0.0119083 -0.0328302 0.666753
0.0129867 -0.0333138 0.668288
0.0140661 -0.0337919 0.669691
0.0151414 -0.0342566 0.670812
0.0162154 -0.0347144 0.671786
0.0172859 -0.0351615 0.672557
0.0183567 -0.0356071 0.673276
0.0194252 -0.0360465 0.673871
0.0204947 -0.0364863 0.674453
0.0215712 -0.0369333 0.675158
0.0226528 -0.0373863 0.675943
0.0237413 -0.0378457 0.676831
0.0248352 -0.0383106 0.677785
0.0259376 -0.0387836 0.678858
0.0270305 -0.0392409 0.679658
0.0281222 -0.0396945 0.680384
0.0292188 -0.0401534 0.681169
0.0303294 -0.0406265 0.682175
0.0314556 -0.0411167 0.683423
0.0325949 -0.0416182 0.684833
0.0337385 -0.0421214 0.686244
0.0348768 -0.0426162 0.687493
0.0360058 -0.0430969 0.688516
0.0371461 -0.0435885 0.689678
0.03831 -0.0441025 0.691158
0.0394864 -0.0446271 0.692764
-0.0125767 -0.0220596 0.664362
-0.0115366 -0.0224436 0.663891
-0.0104964 -0.022819 0.663211
-0.00945763 -0.0231902 0.662455
-0.0084218 -0.023564 0.661788
-0.00738856 -0.0239406 0.661209
-0.00635708 -0.0243172 0.660651
-0.0053279 -0.0247007 0.660263
-0.00429968 -0.0250833 0.659878
-0.00327276 -0.0254658 0.659503
-0.00224654 -0.0258538 0.659267
-0.00122026 -0.0262469 0.659162
-0.00019399 -0.0266431 0.659126
0.000832662 -0.0270419 0.659149
0.00185986 -0.0274435 0.659236
0.00288882 -0.027851 0.659448
0.00391946 -0.028262 0.659736
0.0049528 -0.0286797 0.660157
0.00599059 -0.0291072 0.660771
0.00703195 -0.0295389 0.66147
0.00807422 -0.0299691 0.662116
0.0091236 -0.0304126 0.663009
0.0101801 -0.0308669 0.664095
0.0112456 -0.0313334 0.665409
0.0123191 -0.0318101 0.666885
0.013401 -0.032295 0.668494
0.014482 -0.032771 0.6699
0.0155583 -0.0332345 0.671021
0.0166313 -0.0336877 0.67193
0.0177003 -0.0341312 0.672641
0.018772 -0.0345759 0.673361
0.019846 -0.0350214 0.674085
0.0209197 -0.0354649 0.674749
0.0219976 -0.0359114 0.675463
0.0230858 -0.0363707 0.676377
0.0241754 -0.0368288 0.677259
0.0252681 -0.0372893 0.678152
0.0263687 -0.0377565 0.679154
0.0274621 -0.0382126 0.679945
0.0285516 -0.0386619 0.680607
0.0296461 -0.0391155 0.681328
0.0307537 -0.0395834 0.682261
0.0318771 -0.0400666 0.683432
0.0330095 -0.0405574 0.684702
0.0341497 -0.0410533 0.686035
0.035284 -0.041541 0.687203
0.036413 -0.0420202 0.688225
0.0375491 -0.0425051 0.689309
0.0387217 -0.0430253 0.690919
0.039899 -0.0435476 0.692527
0.0406998 -0.045187 0.694858
0.0411157 -0.0441058 0.694652
0.0419337 -0.0457634 0.697161
0.0423511 -0.0446795 0.696962
-0.011126 -0.021384 0.662945
-0.0100874 -0.0217597 0.66225
-0.00905058 -0.0221325 0.661522
-0.0080165 -0.0225069 0.66085
-0.00698468 -0.0228817 0.660209
-0.00595518 -0.023259 0.659645
-0.00492728 -0.0236422 0.659268
-0.0039006 -0.0240299 0.659002
-0.00287468 -0.0244179 0.658759
-0.00184887 -0.0248111 0.658652
-0.000823002 -0.025207 0.658616
0.000203023 -0.0256056 0.658639
0.00122905 -0.0260041 0.658662
0.00225579 -0.0264054 0.658751
0.00328381 -0.0268098 0.658912
0.00431376 -0.0272213 0.659207
0.00534599 -0.0276351 0.659569
0.00638344 -0.0280607 0.660178
0.00742524 -0.0284941 0.66093
0.00846983 -0.0289296 0.661707
0.00952126 -0.0293748 0.662679
0.0105827 -0.0298366 0.66396
0.0116521 -0.0303083 0.665411
0.0127272 -0.0307831 0.6669
0.0138121 -0.0312692 0.668576
0.0148941 -0.0317434 0.66998
0.0159717 -0.0322047 0.671103
0.0170456 -0.0326566 0.672012
0.0181175 -0.0331025 0.672785
0.0191902 -0.0335464 0.673509
0.0202696 -0.0339986 0.674361
0.0213473 -0.0344447 0.675097
0.0224266 -0.0348914 0.675821
0.0235163 -0.0353493 0.676737
0.0246037 -0.0358028 0.677544
0.0256918 -0.036254 0.678305
0.0267901 -0.036716 0.679237
0.0278814 -0.0371684 0.679972
0.0289716 -0.037616 0.680629
0.0300669 -0.0380688 0.681354
0.0311752 -0.0385354 0.682286
0.0322956 -0.0390126 0.683383
0.0334246 -0.0394963 0.684574
0.0345608 -0.0399863 0.68583
0.0356918 -0.0404673 0.68693
0.0368209 -0.0409453 0.687948
0.0379493 -0.0414196 0.688901
0.0391298 -0.041945 0.690628
0.0403089 -0.0424649 0.692248
0.0415226 -0.0430162 0.694313
0.0427503 -0.043578 0.696491
0.0435812 -0.0452427 0.699083
0.0439778 -0.0441353 0.698577
-0.0107121 -0.0203102 0.661479
-0.00967737 -0.0206931 0.661013
-0.00864443 -0.0210761 0.66054
-0.007612 -0.021451 0.659873
-0.00658198 -0.0218264 0.659228
-0.00555383 -0.022201 0.658602
-0.00452769 -0.0225866 0.658279
-0.00350248 -0.0229748 0.658031
-0.00247786 -0.0233657 0.65786
-0.00145292 -0.023761 0.657819
-0.000427595 -0.0241619 0.6579
0.000598189 -0.0245623 0.657987
0.00162401 -0.0249634 0.658075
0.00265075 -0.0253669 0.658225
0.00367886 -0.0257734 0.658442
0.00470772 -0.0261813 0.658677
0.00573867 -0.0265918 0.658983
0.00677461 -0.0270141 0.659535
0.0078161 -0.0274458 0.660286
0.00886193 -0.0278825 0.661131
0.0099159 -0.028332 0.662228
0.0109822 -0.0288016 0.663713
0.0120578 -0.0292798 0.665363
0.0131374 -0.0297594 0.666988
0.0142259 -0.0302462 0.668736
0.0153107 -0.030721 0.67019
0.0163893 -0.0311812 0.671312
0.017464 -0.0316322 0.672219
0.0185377 -0.032077 0.673006
0.0196133 -0.0325233 0.673787
0.0206942 -0.0329748 0.674649
0.0217731 -0.0334209 0.675389
0.0228538 -0.033867 0.676122
0.0239444 -0.0343232 0.67703
0.0250271 -0.034768 0.6777
0.0261152 -0.0352178 0.678446
0.0272111 -0.0356745 0.679306
0.0283002 -0.0361218 0.679976
0.029391 -0.0365692 0.680637
0.0304904 -0.0370246 0.681427
0.0315967 -0.0374865 0.682305
0.032718 -0.0379618 0.6834
0.0338435 -0.0384402 0.684517
0.0349763 -0.0389229 0.685695
0.0361037 -0.0393992 0.686729
0.0372336 -0.0398755 0.687751
0.038355 -0.0403407 0.688584
0.039536 -0.0408633 0.690308
0.040715 -0.0413798 0.691916
0.0419192 -0.0419185 0.693829
0.0431364 -0.042466 0.69585
0.0443681 -0.0430229 0.697974
-0.010301 -0.019245 0.660173
-0.00926944 -0.019633 0.659842
-0.008239 -0.0200203 0.659498
-0.00720834 -0.0203956 0.658836
-0.00618002 -0.0207708 0.65818
-0.00515388 -0.021148 0.657606
-0.00412945 -0.0215346 0.657296
-0.00310531 -0.0219248 0.657122
-0.00208183 -0.0223186 0.657023
-0.00105735 -0.0227183 0.657104
-3.21681e-05 -0.0231206 0.657253
0.000993224 -0.0235243 0.657411
0.00201933 -0.0239272 0.657571
0.00304618 -0.0243332 0.657781
0.00407379 -0.0247391 0.657995
0.00510219 -0.0251457 0.658219
0.00613146 -0.0255529 0.658454
0.00716702 -0.0259739 0.659001
0.00820851 -0.026404 0.659753
0.00925413 -0.0268402 0.660607
0.01031 -0.027291 0.661781
0.0113832 -0.0277688 0.66352
0.012465 -0.0282546 0.66538
0.0135503 -0.0287386 0.66716
0.0146435 -0.0292294 0.669029
0.0157317 -0.0297046 0.670539
0.0168095 -0.0301599 0.671593
0.0178837 -0.0306064 0.672441
0.0189607 -0.031054 0.673295
0.0200377 -0.0315002 0.674089
0.0211228 -0.0319537 0.675021
0.0222052 -0.0324019 0.675822
0.0232872 -0.0328477 0.676555
0.0243736 -0.0332962 0.677332
0.0254536 -0.0337361 0.677921
0.0265388 -0.0341805 0.678582
0.0276292 -0.0346286 0.679309
0.0287152 -0.0350713 0.679907
0.0298101 -0.035521 0.680636
0.0309136 -0.03598 0.681496
0.0320183 -0.036437 0.682322
0.0331369 -0.0369075 0.683355
0.0342624 -0.0373835 0.684459
0.0353915 -0.0378607 0.685564
0.0365157 -0.0383309 0.686532
0.0376471 -0.0388057 0.687564
0.0387725 -0.0392745 0.68846
0.0399502 -0.0397898 0.690113
0.0411284 -0.040303 0.691699
0.0423236 -0.0408293 0.693465
0.0435267 -0.0413592 0.69526
0.0447466 -0.0419021 0.697222
0.0455482 -0.0435296 0.6993
0.0459211 -0.0424021 0.698479
-0.0109222 -0.0177968 0.659263
-0.00989392 -0.0181944 0.659221
-0.00886407 -0.0185838 0.658932
-0.00783489 -0.0189699 0.658555
-0.00680641 -0.0193489 0.657961
-0.00577955 -0.0197243 0.657311
-0.00475489 -0.0201018 0.656731
-0.00373152 -0.0204899 0.656478
-0.00270853 -0.0208831 0.656376
-0.00168568 -0.0212794 0.656354
-0.000660781 -0.0216855 0.656624
0.000364908 -0.0220923 0.656903
0.00139092 -0.0224982 0.657139
0.00241752 -0.0229045 0.657379
0.00344482 -0.0233097 0.657597
0.00447148 -0.0237128 0.657744
0.00549842 -0.0241165 0.657894
0.00652723 -0.0245224 0.658111
0.00756152 -0.0249394 0.658588
0.00860287 -0.0253682 0.659337
0.00964861 -0.0258029 0.660191
0.0107061 -0.0262545 0.661429
0.0117825 -0.0267334 0.663256
0.0128691 -0.0272229 0.665267
0.0139596 -0.0277112 0.667196
0.0150584 -0.0282053 0.669202
0.01615 -0.028682 0.670783
0.0172308 -0.0291382 0.671886
0.0183085 -0.029587 0.672806
0.019389 -0.030037 0.673726
0.0204681 -0.0304828 0.674535
0.0215568 -0.0309381 0.675524
0.0226411 -0.0313855 0.676331
0.0237217 -0.0318269 0.676996
0.0248035 -0.032268 0.67764
0.0258811 -0.0327033 0.678152
0.0269602 -0.0331391 0.678665
0.0280446 -0.0335797 0.679255
0.029128 -0.0340178 0.679789
0.0302261 -0.0344699 0.680575
0.0313344 -0.0349309 0.681507
0.0324401 -0.0353879 0.682343
0.0335562 -0.0358534 0.683317
0.0346812 -0.0363264 0.684397
0.0358068 -0.0367969 0.685426
0.0369273 -0.0372624 0.686327
0.0380635 -0.0377401 0.68743
0.0391941 -0.0382107 0.688395
0.0403679 -0.0387197 0.689975
0.0415418 -0.0392255 0.691482
0.0427274 -0.0397395 0.693091
0.0439111 -0.0402502 0.694609
0.0451159 -0.0407763 0.696354
0.0462794 -0.0412645 0.697453
-0.0105145 -0.0167479 0.658245
-0.00948713 -0.0171435 0.658176
-0.00845936 -0.0175352 0.657962
-0.00743131 -0.0179185 0.657491
-0.00640495 -0.0182987 0.656914
-0.00538002 -0.018675 0.656264
-0.0043571 -0.0190549 0.655745
-0.0033353 -0.019443 0.655494
-0.0023131 -0.01984 0.655524
-0.00129034 -0.0202396 0.655633
-0.00026518 -0.0206527 0.6561
0.000761268 -0.0210639 0.656518
0.00178857 -0.0214738 0.656892
0.00281577 -0.0218824 0.657195
0.00384395 -0.0222893 0.657475
0.00486981 -0.0226898 0.657561
0.00589661 -0.0230929 0.657702
0.00692533 -0.0234984 0.657916
0.00795845 -0.0239123 0.658328
0.00900001 -0.0243393 0.659072
0.0100473 -0.0247744 0.659974
0.0111054 -0.0252245 0.661214
0.012184 -0.0257038 0.663104
0.0132759 -0.0261959 0.665258
0.0143703 -0.0266853 0.667276
0.0154734 -0.0271793 0.669364
0.0165703 -0.0276598 0.671071
0.017653 -0.0281149 0.672189
0.0187341 -0.0285659 0.673175
0.0198207 -0.0290211 0.674225
0.0209042 -0.0294689 0.675105
0.0219924 -0.0299216 0.676047
0.0230778 -0.0303675 0.676843
0.0241568 -0.0308048 0.677437
0.025231 -0.0312354 0.677883
0.0263026 -0.0316633 0.678251
0.027379 -0.0320938 0.678685
0.0284603 -0.0325301 0.679201
0.0295442 -0.032967 0.679733
0.0306432 -0.0334185 0.680527
0.0317557 -0.0338823 0.68153
0.0328624 -0.0343379 0.682368
0.0339749 -0.0347987 0.683268
0.0350963 -0.0352653 0.684269
0.036217 -0.0357301 0.68521
0.0373345 -0.0361898 0.686049
0.0384715 -0.0366662 0.687159
0.0396028 -0.0371361 0.688132
0.0407727 -0.0376384 0.689641
0.0419464 -0.0381414 0.691137
0.043123 -0.0386445 0.692608
0.0442967 -0.0391433 0.693978
0.0454906 -0.0396572 0.695562
0.0466952 -0.0401781 0.69723
0.0474389 -0.0417477 0.69846
0.0479054 -0.0407005 0.698903
-0.0101079 -0.0157017 0.657248
-0.00908122 -0.0160943 0.657076
-0.00805496 -0.0164845 0.656822
-0.00702891 -0.0168674 0.656314
-0.00600429 -0.0172492 0.655805
-0.00498131 -0.01763 0.655291
-0.00395983 -0.0180141 0.654899
-0.0029392 -0.0184042 0.654707
-0.0019178 -0.018803 0.6548
-0.000895593 -0.0192051 0.654988
0.000129929 -0.0196194 0.655538
0.00115705 -0.0200343 0.656089
0.00218528 -0.0204484 0.65659
0.00321347 -0.0208578 0.656957
0.00424218 -0.0212673 0.657297
0.00526884 -0.0216696 0.657438
0.00629595 -0.0220723 0.657583
0.00732506 -0.0224778 0.657805
0.00835859 -0.0228911 0.658223
0.00940071 -0.0233175 0.658973
0.0104483 -0.0237507 0.659865
0.0115084 -0.0242011 0.661156
0.0125899 -0.0246795 0.663103
0.0136849 -0.0251718 0.665325
0.0147848 -0.0256624 0.667464
0.0158933 -0.0261601 0.669686
0.0169949 -0.0266413 0.671475
0.0180818 -0.0270987 0.672673
0.0191692 -0.0275547 0.673792
0.0202585 -0.0280096 0.674867
0.0213438 -0.0284573 0.675754
0.0224313 -0.0289053 0.676626
0.0235149 -0.0293469 0.677345
0.024589 -0.0297774 0.677799
0.0256608 -0.0302036 0.678167
0.0267303 -0.0306272 0.678463
0.0278067 -0.0310578 0.678891
0.0288855 -0.0314899 0.67934
0.0299703 -0.0319262 0.679873
0.0310702 -0.032377 0.680669
0.0321876 -0.032843 0.681742
0.0332963 -0.0332983 0.682595
0.0344093 -0.0337568 0.683483
0.0355269 -0.0342186 0.684405
0.0366435 -0.0346774 0.685262
0.0377533 -0.0351293 0.685968
0.0388873 -0.0356 0.687016
0.0400239 -0.0360722 0.68806
0.0411908 -0.0365691 0.689511
0.0423607 -0.037066 0.690938
0.0435325 -0.0375619 0.692326
0.0446914 -0.0380464 0.69348
0.0458592 -0.0385367 0.694709
0.0471098 -0.0390909 0.696996
0.0483767 -0.0396545 0.699398
-0.0107305 -0.0142731 0.656731
-0.00970268 -0.0146602 0.656321
-0.0086773 -0.0150512 0.656077
-0.00765203 -0.0154388 0.655749
-0.00662753 -0.0158204 0.655193
-0.00560513 -0.0162066 0.65482
-0.00458365 -0.016593 0.654496
-0.00356324 -0.0169813 0.654239
-0.00254317 -0.0173736 0.654121
-0.00152197 -0.0177762 0.654341
-0.000499592 -0.0181792 0.654589
0.000526384 -0.0185948 0.655209
0.00155425 -0.0190111 0.655831
0.00258343 -0.0194263 0.656399
0.00361242 -0.0198376 0.656826
0.00464118 -0.0202469 0.657169
0.00566815 -0.0206487 0.657314
0.00669651 -0.0210537 0.657524
0.0077271 -0.0214615 0.657818
0.00876159 -0.021875 0.658257
0.00980421 -0.0223008 0.659009
0.0108525 -0.0227328 0.659899
0.0119137 -0.0231808 0.661186
0.0129968 -0.0236565 0.66314
0.0140969 -0.0241503 0.66548
0.015202 -0.0246436 0.667747
0.0163171 -0.0251429 0.670103
0.0174228 -0.0256247 0.67196
0.018514 -0.0260837 0.673233
0.0196038 -0.0265392 0.67437
0.0206949 -0.026993 0.675446
0.0217796 -0.0274371 0.676275
0.0228658 -0.0278809 0.677078
0.0239471 -0.0283186 0.677715
0.0250158 -0.0287412 0.678017
0.0260846 -0.0291646 0.678312
0.0271547 -0.0295877 0.678608
0.0282293 -0.0300146 0.678979
0.0293088 -0.0304461 0.679428
0.0304005 -0.0308884 0.680088
0.0315018 -0.0313388 0.680892
0.0326216 -0.0318038 0.681981
0.0337343 -0.0322611 0.682891
0.0348452 -0.0327154 0.68372
0.0359597 -0.0331718 0.68457
0.0370729 -0.033626 0.685354
0.0381825 -0.0340762 0.686046
0.0393164 -0.0345457 0.687084
0.040459 -0.0350202 0.688201
0.0416237 -0.0355116 0.689597
0.0427898 -0.0360023 0.69095
0.0439514 -0.036488 0.692183
0.0450945 -0.0369577 0.693109
0.0462955 -0.0374711 0.69478
0.0475978 -0.0380605 0.697729
0.0489335 -0.0386715 0.700995
-0.0103257 -0.0132366 0.655894
-0.00929903 -0.0136228 0.655461
-0.00827449 -0.0140116 0.655133
-0.00725029 -0.0143961 0.654674
-0.00622775 -0.0147798 0.654189
-0.00520682 -0.0151691 0.653951
-0.0041866 -0.0155618 0.653837
-0.00316701 -0.0159547 0.653726
-0.0021471 -0.0163486 0.653687
-0.00112573 -0.016752 0.653962
-0.000103499 -0.0171566 0.654262
0.00092203 -0.0175692 0.65482
0.00195042 -0.0179864 0.655501
0.00298017 -0.0184026 0.65613
0.00401028 -0.0188154 0.656628
0.00503951 -0.0192238 0.65698
0.00606718 -0.0196285 0.65719
0.00709683 -0.0200352 0.657464
0.00812917 -0.0204446 0.657824
0.0091643 -0.0208579 0.658273
0.0102076 -0.0212829 0.659026
0.0112568 -0.0217133 0.659919
0.0123189 -0.0221599 0.661207
0.0134037 -0.0226333 0.663173
0.0145082 -0.0231259 0.665597
0.0156193 -0.0236216 0.668003
0.0167404 -0.0241231 0.670487
0.017853 -0.0246074 0.672486
0.0189505 -0.0250706 0.673891
0.0200447 -0.0255269 0.675089
0.0211376 -0.0259798 0.676164
0.0222238 -0.0264225 0.676983
0.0233056 -0.0268596 0.67764
0.0243823 -0.0272907 0.678137
0.0254481 -0.0277105 0.67836
0.0265151 -0.0281301 0.678588
0.0275833 -0.0285503 0.678827
0.0286559 -0.0289753 0.679149
0.0297362 -0.0294062 0.679599
0.0308322 -0.0298501 0.680319
0.0319382 -0.0303028 0.681192
0.0330601 -0.0307674 0.682298
0.0341783 -0.0312275 0.683282
0.0352903 -0.0316809 0.684109
0.0364021 -0.0321326 0.684889
0.0375083 -0.0325795 0.685544
0.0386181 -0.0330275 0.686222
0.0397532 -0.0334952 0.687259
0.0408966 -0.0339686 0.688374
0.0420584 -0.034455 0.689709
0.0432205 -0.03494 0.690989
0.0443712 -0.0354149 0.692056
0.045562 -0.0359183 0.693624
0.0468125 -0.0364655 0.695935
0.0481822 -0.0370972 0.699719
0.049601 -0.0377621 0.703993
-0.0109497 -0.0118173 0.655636
-0.00992315 -0.0122059 0.655256
-0.008897 -0.0125906 0.654734
-0.00787292 -0.0129762 0.654264
-0.00685006 -0.0133584 0.653679
-0.00582914 -0.0137439 0.653267
-0.00480954 -0.0141351 0.65311
-0.00379026 -0.0145327 0.653192
-0.00277087 -0.014931 0.653288
-0.00175128 -0.0153273 0.653329
-0.000729621 -0.0157313 0.65366
0.000292455 -0.016135 0.653947
0.00131702 -0.0165448 0.654425
0.00234558 -0.0169607 0.655112
0.00337629 -0.0173775 0.655805
0.00440715 -0.017792 0.656377
0.00543742 -0.0182018 0.656794
0.00646649 -0.0186076 0.657066
0.0074964 -0.0190136 0.65734
0.00852875 -0.019423 0.6577
0.00956396 -0.0198358 0.658147
0.0106078 -0.020259 0.658896
0.011657 -0.0206886 0.659777
0.0127216 -0.021135 0.661127
0.0138137 -0.0216123 0.663297
0.0149282 -0.022112 0.666002
0.0160488 -0.0226127 0.668637
0.01718 -0.0231189 0.671341
0.0182999 -0.023606 0.673473
0.0193995 -0.0240682 0.674874
0.0204918 -0.024518 0.675953
0.0215839 -0.0249666 0.676948
0.0226685 -0.0254061 0.677687
0.0237464 -0.0258366 0.678207
0.0248186 -0.0262619 0.678571
0.0258826 -0.026678 0.678725
0.026947 -0.0270951 0.678885
0.0280128 -0.027513 0.679062
0.0290861 -0.0279372 0.679379
0.0301705 -0.0283702 0.679892
0.0312712 -0.028817 0.680684
0.0323799 -0.0292696 0.681579
0.0335035 -0.0297334 0.682691
0.0346228 -0.0301916 0.683667
0.0357356 -0.0306433 0.684485
0.0368449 -0.0310916 0.685205
0.0379481 -0.0315345 0.685796
0.039059 -0.0319819 0.686476
0.0401946 -0.0324485 0.687503
0.0413359 -0.0329171 0.688565
0.0424945 -0.0333981 0.689833
0.0436563 -0.03388 0.691092
0.0448017 -0.0343495 0.692074
0.0460465 -0.0348884 0.694362
0.0473576 -0.0354743 0.697441
0.0488007 -0.0361503 0.702122
0.0502705 -0.0368416 0.706956
-0.0115756 -0.0104031 0.655602
-0.0105473 -0.0107895 0.655085
-0.00952049 -0.0111748 0.654528
-0.00849552 -0.0115594 0.653943
-0.00747243 -0.0119439 0.653426
-0.0064511 -0.0123268 0.652844
-0.00543178 -0.0127141 0.652491
-0.00441318 -0.0131083 0.652465
-0.00339422 -0.0135084 0.652679
-0.00237484 -0.0139097 0.652911
-0.00135492 -0.014309 0.653081
-0.000333448 -0.0147132 0.653416
0.000688574 -0.0151158 0.653691
0.00171269 -0.0155225 0.654101
0.00274121 -0.0159373 0.654783
0.0037721 -0.0163532 0.655484
0.0048042 -0.0167685 0.656128
0.00583569 -0.0171796 0.656611
0.00686579 -0.0175867 0.656943
0.00789567 -0.0179924 0.657212
0.0089281 -0.0184013 0.657569
0.00996491 -0.0188148 0.658069
0.011009 -0.0192375 0.658817
0.0120572 -0.0196633 0.659632
0.0131274 -0.0201134 0.661157
0.0142284 -0.0205966 0.663587
0.0153528 -0.0211014 0.666541
0.016486 -0.0216093 0.669484
0.0176294 -0.0221215 0.672456
0.0187506 -0.0226042 0.674536
0.0198509 -0.0230622 0.675874
0.0209402 -0.0235064 0.676816
0.0220267 -0.0239465 0.677617
0.023107 -0.0243794 0.678211
0.0241829 -0.0248067 0.678657
0.0252503 -0.0252268 0.678889
0.0263122 -0.0256405 0.678982
0.0273772 -0.026057 0.679136
0.028443 -0.0264747 0.679301
0.0295165 -0.0268975 0.679604
0.0306051 -0.0273332 0.680181
0.0317109 -0.027782 0.681046
0.0328255 -0.0282373 0.682025
0.0339511 -0.0286995 0.683142
0.0350713 -0.0291567 0.684111
0.0361841 -0.0296069 0.684907
0.0372906 -0.0300515 0.685562
0.0383911 -0.0304906 0.68609
0.0395033 -0.0309373 0.686773
0.0406403 -0.031402 0.6878
0.0417827 -0.0318697 0.68886
0.0429382 -0.0323459 0.690065
0.0441012 -0.0328259 0.691323
0.0452477 -0.0332938 0.692301
0.0464956 -0.0338316 0.694608
0.047859 -0.034447 0.698346
0.0493209 -0.0351261 0.703208
0.0507848 -0.0358028 0.70791
0.0517634 -0.0375433 0.711898
0.0522634 -0.0364852 0.712612
0.0531278 -0.0381521 0.715067
0.053617 -0.0370799 0.71561
-0.0136353 -0.00962496 0.656494
-0.0142715 -0.00821757 0.657082
-0.0132361 -0.00860397 0.65639
-0.0126038 -0.0100128 0.655963
-0.0122036 -0.00899094 0.65573
-0.0111735 -0.0093773 0.65512
-0.0101455 -0.00976317 0.654502
-0.00911919 -0.0101474 0.653871
-0.0080954 -0.0105326 0.653317
-0.00707364 -0.0109181 0.652781
-0.00605334 -0.0113024 0.65227
-0.00503494 -0.0116913 0.651982
-0.00401706 -0.0120871 0.652008
-0.00299851 -0.0124866 0.652225
-0.00197908 -0.0128885 0.652519
-0.000959075 -0.0132892 0.652757
6.23461e-05 -0.0136929 0.653102
0.00108409 -0.0140954 0.653378
0.00210881 -0.0145025 0.653839
0.00313742 -0.0149159 0.654514
0.0041687 -0.015331 0.65523
0.00520185 -0.0157475 0.655939
0.00623472 -0.0161594 0.656487
0.00726608 -0.0165679 0.656878
0.00829623 -0.0169734 0.65715
0.00933011 -0.0173838 0.657566
0.0103674 -0.0177965 0.658067
0.0114125 -0.0182181 0.658821
0.0124597 -0.0186406 0.659574
0.0135413 -0.0191004 0.661468
0.0146511 -0.0195882 0.664128
0.015788 -0.0200987 0.667388
0.016932 -0.0206107 0.670565
0.0180837 -0.0211237 0.673672
0.019201 -0.0215968 0.675545
0.0202985 -0.0220482 0.676741
0.0213817 -0.0224844 0.677477
0.0224647 -0.0229188 0.678147
0.0235431 -0.0233479 0.678659
0.0246139 -0.02377 0.678965
0.0256791 -0.0241866 0.679125
0.0267414 -0.0246007 0.679216
0.0278068 -0.0250171 0.679366
0.0288731 -0.0254343 0.679525
0.0299503 -0.0258599 0.679889
0.0310471 -0.0263001 0.680602
0.0321591 -0.0267519 0.681555
0.0332762 -0.0272064 0.682549
0.0344025 -0.0276674 0.683652
0.0355195 -0.0281191 0.684535
0.0366252 -0.0285627 0.685196
0.0377289 -0.029003 0.685785
0.0388262 -0.0294392 0.686253
0.0399383 -0.029885 0.686923
0.0410761 -0.0303475 0.687944
0.0422196 -0.0308139 0.689005
0.0433768 -0.031289 0.690218
0.0445511 -0.0317742 0.691616
0.0457048 -0.0322447 0.692676
0.0469813 -0.0327967 0.695338
0.0483855 -0.033432 0.699562
0.0498434 -0.0340989 0.704312
0.0512941 -0.0347571 0.708778
0.0527551 -0.0354182 0.713206
0.0540687 -0.0359809 0.715687
-0.0149035 -0.00680232 0.657291
-0.0138692 -0.00719318 0.656757
-0.0128339 -0.00757995 0.655995
-0.0118004 -0.00796485 0.655182
-0.0107696 -0.00834858 0.654364
-0.00974218 -0.00873336 0.653665
-0.00871766 -0.00911893 0.653044
-0.00769579 -0.00950666 0.652597
-0.00667528 -0.00989412 0.652201
-0.0056565 -0.0102827 0.651829
-0.00463854 -0.0106739 0.651661
-0.0036211 -0.0110696 0.651686
-0.00260289 -0.0114671 0.651838
-0.00158359 -0.0118697 0.652179
-0.000563322 -0.0122711 0.652479
0.000458357 -0.0126743 0.652842
0.00148019 -0.0130765 0.653128
0.00250536 -0.0134848 0.653647
0.00353367 -0.0138952 0.654259
0.00456498 -0.0143096 0.654973
0.00559846 -0.0147249 0.655688
0.00663263 -0.0151374 0.656301
0.00766541 -0.0155473 0.656758
0.00869714 -0.0159541 0.657097
0.00973301 -0.0163657 0.657584
0.0107727 -0.0167801 0.658159
0.0118199 -0.0172028 0.658977
0.01287 -0.0176266 0.659801
0.0139644 -0.018096 0.662091
0.0150862 -0.0185893 0.665051
0.0162328 -0.0191013 0.668502
0.0173831 -0.0196114 0.671749
0.0185377 -0.0201195 0.674825
0.0196472 -0.0205808 0.676404
0.0207389 -0.0210237 0.677386
0.0218184 -0.0214543 0.677982
0.0228995 -0.0218853 0.678574
0.0239757 -0.0223115 0.67901
0.025044 -0.0227306 0.67924
0.0261098 -0.0231465 0.679394
0.0271758 -0.0235633 0.679548
0.0282425 -0.0239803 0.67971
0.02931 -0.0243978 0.679877
0.0303952 -0.0248281 0.680375
0.0314944 -0.0252692 0.681109
0.0326055 -0.0257184 0.68202
0.0337276 -0.0261741 0.683073
0.0348553 -0.0266332 0.68417
0.0359649 -0.0270785 0.684909
0.0370679 -0.0275175 0.6855
0.0381678 -0.0279545 0.686016
0.0392574 -0.0283839 0.686349
0.0403651 -0.0288248 0.686938
0.0414982 -0.0292835 0.687883
0.0426426 -0.0297482 0.688947
0.0438064 -0.0302251 0.69024
0.0449934 -0.0307154 0.691797
0.0461643 -0.0311948 0.693072
0.047465 -0.0317576 0.696022
0.0488384 -0.032364 0.699793
0.0502767 -0.0330094 0.704251
0.0517142 -0.0336512 0.708523
0.0531505 -0.0342879 0.712613
0.0544377 -0.0348301 0.714764
-0.0159427 -0.00641297 0.658022
-0.0145053 -0.00578118 0.657292
-0.0134687 -0.00617068 0.656564
-0.0124325 -0.0065569 0.655669
-0.0113978 -0.00693982 0.654663
-0.0103659 -0.00732098 0.653557
-0.00934001 -0.00770652 0.652861
-0.00831717 -0.0080934 0.65231
-0.00729697 -0.00848368 0.651996
-0.00627819 -0.00887504 0.651748
-0.00526008 -0.00926603 0.651515
-0.00424249 -0.00965858 0.651413
-0.00322503 -0.0100538 0.651436
-0.00220742 -0.0104503 0.651522
-0.00118833 -0.0108501 0.651798
-0.00016797 -0.0112523 0.652152
0.000853629 -0.0116553 0.652524
0.00187532 -0.0120575 0.652822
0.00290139 -0.0124659 0.653403
0.00392961 -0.0128754 0.654008
0.00496127 -0.0132882 0.654717
0.00599489 -0.0137027 0.655432
0.0070301 -0.0141162 0.656107
0.00806457 -0.0145268 0.656637
0.00909827 -0.0149349 0.657052
0.010135 -0.0153463 0.657556
0.0111764 -0.0157621 0.658192
0.0122265 -0.0161847 0.659079
0.0132929 -0.0166236 0.660465
0.0144051 -0.017105 0.663272
0.0155405 -0.0176045 0.666558
0.016699 -0.0181194 0.670237
0.0178543 -0.0186253 0.673481
0.0189919 -0.0191101 0.675942
0.0200886 -0.0195564 0.677098
0.0211739 -0.0199908 0.677862
0.0222471 -0.0204144 0.678269
0.0233232 -0.0208408 0.678723
0.0243973 -0.0212635 0.679088
0.0254625 -0.0216801 0.679242
0.0265257 -0.0220937 0.679334
0.0275922 -0.0225106 0.679496
0.0286631 -0.0229302 0.679736
0.0297349 -0.0233509 0.679983
0.030832 -0.0237889 0.680696
0.0319401 -0.0242347 0.681573
0.033057 -0.0246858 0.682561
0.0341806 -0.02514 0.683611
0.035309 -0.0255969 0.684688
0.0364117 -0.026036 0.68529
0.0375115 -0.026472 0.685814
0.0386041 -0.0269024 0.686195
0.0396929 -0.0273302 0.686506
0.0407961 -0.0277675 0.687018
0.0419296 -0.0282241 0.687954
0.0430803 -0.0286904 0.689091
0.0442556 -0.0291725 0.690532
0.0454555 -0.0296689 0.692246
0.0466501 -0.0301603 0.693819
0.0479127 -0.0306927 0.696218
0.0492343 -0.0312604 0.699289
0.0506132 -0.0318604 0.702963
0.052002 -0.0324648 0.706621
0.0534001 -0.0330714 0.710256
0.0547183 -0.0336289 0.712801
-0.014104 -0.00475747 0.657071
-0.0130665 -0.00514669 0.656235
-0.0120297 -0.00553245 0.6552
-0.0109946 -0.00591506 0.653985
-0.0099633 -0.00629595 0.652812
-0.00893904 -0.00668242 0.652122
-0.00791792 -0.00707125 0.65165
-0.00689923 -0.00746375 0.651479
-0.00588135 -0.0078575 0.651369
-0.00486355 -0.00825013 0.651267
-0.00384648 -0.00864493 0.651232
-0.00282916 -0.00904006 0.651255
-0.00181184 -0.00943519 0.651278
-0.000793243 -0.00983346 0.651486
0.000226573 -0.0102336 0.651775
0.00124737 -0.0106346 0.652087
0.00226955 -0.0110371 0.652445
0.00329637 -0.011446 0.65309
0.00432453 -0.0118551 0.653699
0.00535732 -0.0122674 0.654462
0.00639215 -0.0126813 0.655226
0.00742762 -0.0130947 0.655909
0.00846377 -0.0135061 0.656512
0.0095004 -0.0139172 0.657057
0.0105379 -0.0143279 0.65757
0.0115814 -0.0147441 0.658262
0.0126322 -0.0151662 0.65915
0.0137183 -0.0156203 0.661193
0.0148497 -0.0161122 0.664534
0.0160006 -0.0166174 0.668176
0.0171662 -0.0171295 0.671921
0.0183277 -0.0176332 0.67521
0.019444 -0.0180942 0.67696
0.0205256 -0.0185246 0.677644
0.0216017 -0.0189506 0.678142
0.0226702 -0.0193697 0.678412
0.0237416 -0.0197903 0.678733
0.0248129 -0.0202106 0.679028
0.0258753 -0.0206246 0.679114
0.0269385 -0.0210387 0.679208
0.0280087 -0.0214573 0.679441
0.029084 -0.0218798 0.679765
0.0301602 -0.0223032 0.680091
0.0312654 -0.0227455 0.680941
0.0323788 -0.0231924 0.681892
0.0335011 -0.0236449 0.682953
0.0346259 -0.0240983 0.684
0.0357554 -0.0245537 0.685073
0.0368554 -0.0249892 0.685609
0.0379514 -0.0254213 0.686053
0.0390354 -0.0258461 0.686293
0.0401198 -0.0262702 0.686527
0.0412184 -0.0267042 0.686964
0.0423529 -0.0271592 0.687903
0.0435141 -0.0276303 0.689182
0.0447021 -0.0281165 0.690776
0.0459149 -0.028617 0.692645
0.0471281 -0.0291168 0.694441
0.0483531 -0.0296227 0.696325
0.04963 -0.0301573 0.698785
0.0509504 -0.0307162 0.701705
0.0522904 -0.0312853 0.704756
0.0536464 -0.031862 0.707891
0.0549749 -0.0324199 0.710572
-0.0147391 -0.00334141 0.657462
-0.0137006 -0.00373312 0.656669
-0.0126624 -0.0041221 0.655691
-0.0116263 -0.00450851 0.654608
-0.0105918 -0.00489144 0.653328
-0.00956241 -0.0052743 0.652166
-0.00853991 -0.00566297 0.651547
-0.00752017 -0.00605348 0.651203
-0.00650233 -0.0064477 0.651161
-0.00548488 -0.00684238 0.651122
-0.00446747 -0.00723651 0.651087
-0.00345015 -0.00763164 0.651109
-0.00243283 -0.00802676 0.651132
-0.00141551 -0.00842189 0.651155
-0.000397238 -0.00881893 0.651299
0.00062188 -0.00921774 0.651517
0.00164235 -0.0096179 0.651808
0.00266447 -0.0100199 0.652169
0.00369097 -0.0104265 0.652767
0.00471944 -0.0108342 0.653381
0.00575204 -0.011246 0.654142
0.00678694 -0.0116586 0.654903
0.00782282 -0.0120705 0.655593
0.00886165 -0.0124839 0.656321
0.00990002 -0.0128958 0.656939
0.0109405 -0.0133085 0.657564
0.0119862 -0.0137251 0.658314
0.0130559 -0.0141618 0.659861
0.0141656 -0.014632 0.662633
0.0153161 -0.0151329 0.666462
0.0164801 -0.0156399 0.670343
0.0176487 -0.0161456 0.674004
0.0187916 -0.0166257 0.676602
0.0198857 -0.0170658 0.67766
0.0209561 -0.017486 0.678007
0.0220254 -0.0179054 0.678304
0.0230913 -0.0183217 0.678495
0.0241599 -0.01874 0.678739
0.0252284 -0.0191575 0.678962
0.0262882 -0.0195692 0.678986
0.0273511 -0.0199835 0.679078
0.0284217 -0.0204018 0.679314
0.0295001 -0.0208257 0.679696
0.0305806 -0.0212511 0.680099
0.0316941 -0.0216969 0.681087
0.0328125 -0.0221456 0.682113
0.0339398 -0.0225996 0.683244
0.0350665 -0.0230513 0.684298
0.0361974 -0.023506 0.685375
0.0372939 -0.0239378 0.685837
0.0383861 -0.0243673 0.686211
0.0394657 -0.0247885 0.686372
0.04055 -0.0252122 0.686596
0.0416494 -0.0256453 0.687036
0.0427862 -0.0261002 0.687997
0.0439541 -0.0265722 0.68935
0.0451539 -0.0270633 0.691095
0.0463748 -0.0275644 0.693044
0.0476015 -0.028068 0.694993
0.0488392 -0.0285772 0.69701
0.0500793 -0.0290864 0.698975
0.0513439 -0.0296084 0.701166
0.0526341 -0.0301434 0.703593
0.0539403 -0.030687 0.706127
-0.0157695 -0.00294353 0.657606
-0.0153633 -0.00191717 0.657123
-0.0143321 -0.0023147 0.656865
-0.0132938 -0.0027068 0.655995
-0.0122564 -0.00309625 0.654964
-0.0112218 -0.00348452 0.653841
-0.0101893 -0.00386929 0.652579
-0.00916235 -0.00425475 0.651554
-0.00814164 -0.00464537 0.651119
-0.00712337 -0.00503852 0.650895
-0.00610605 -0.00543365 0.650918
-0.00508862 -0.00582769 0.650884
-0.00407152 -0.00622224 0.650844
-0.00305445 -0.00661616 0.650803
-0.00203775 -0.00701047 0.650764
-0.00102102 -0.00740424 0.650729
-3.88093e-06 -0.00780043 0.65081
0.0010148 -0.0081982 0.651015
0.00203469 -0.0085978 0.651295
0.00305641 -0.00899867 0.651651
0.00408249 -0.00940465 0.652252
0.00511097 -0.00981117 0.652877
0.00614238 -0.0102203 0.653576
0.00717708 -0.0106311 0.654331
0.00821392 -0.0110427 0.65508
0.00925412 -0.0114564 0.655882
0.0102955 -0.01187 0.65663
0.0113404 -0.0122862 0.657441
0.0124043 -0.0127168 0.658866
0.0134957 -0.0131684 0.661119
0.014631 -0.0136527 0.66463
0.0157938 -0.0141538 0.668669
0.0169654 -0.0146573 0.672598
0.0181185 -0.0151426 0.675632
0.0192422 -0.0156035 0.67758
0.0203167 -0.016026 0.678041
0.0213828 -0.0164424 0.678252
0.0224474 -0.0168574 0.67841
0.0235074 -0.0172693 0.678452
0.0245698 -0.0176834 0.678551
0.025632 -0.0180967 0.678635
0.0266886 -0.0185056 0.678592
0.0277509 -0.0189194 0.678679
0.028824 -0.0193395 0.678975
0.0299026 -0.0197624 0.679359
0.0309864 -0.020189 0.679824
0.0321069 -0.020638 0.680941
0.0332268 -0.0210855 0.681981
0.0343596 -0.0215401 0.683191
0.0354947 -0.0219953 0.684377
0.036627 -0.0224483 0.685459
0.0377198 -0.0228778 0.685855
0.038812 -0.023306 0.686219
0.0398913 -0.0237267 0.686371
0.0409761 -0.0241511 0.686603
0.0420815 -0.0245861 0.687121
0.0432242 -0.0250428 0.688153
0.0443942 -0.0255138 0.689521
0.0455913 -0.0259994 0.691202
0.0468084 -0.0264952 0.693083
0.0480413 -0.0269985 0.695094
0.0492652 -0.0274965 0.696913
0.0504836 -0.0279896 0.698587
0.0517045 -0.0284844 0.70023
0.0529531 -0.0289928 0.702149
0.0542134 -0.0295066 0.704135
-0.0159865 -0.000494784 0.656719
-0.0149567 -0.000892262 0.65657
-0.0139258 -0.00128965 0.656278
-0.0128881 -0.00168249 0.65536
-0.0118523 -0.00207365 0.654317
-0.0108193 -0.00246323 0.653231
-0.00978903 -0.00285028 0.652057
-0.00876402 -0.00323843 0.651117
-0.00774434 -0.00363001 0.65075
-0.00672641 -0.00402295 0.650527
-0.00570946 -0.00441761 0.650492
-0.0046925 -0.0048113 0.650453
-0.00367588 -0.00520559 0.650407
-0.00265941 -0.00559946 0.650357
-0.00164335 -0.00599353 0.650312
-0.00062736 -0.00638765 0.650272
0.000388983 -0.0067824 0.650295
0.00140701 -0.00717966 0.650496
0.00242653 -0.00757841 0.650776
0.00344781 -0.00797876 0.651134
0.00447379 -0.00838371 0.651744
0.00550275 -0.00879004 0.652417
0.00653293 -0.00919624 0.653043
0.00756819 -0.00960723 0.653852
0.00860604 -0.0100187 0.654659
0.0096481 -0.0104327 0.655545
0.0106929 -0.0108478 0.656431
0.0117577 -0.0112773 0.657994
0.0128427 -0.0117215 0.660135
0.0139598 -0.0121873 0.663167
0.0151186 -0.012681 0.667275
0.016292 -0.0131805 0.671435
0.017447 -0.0136635 0.674661
0.0185815 -0.0141284 0.677004
0.0196853 -0.0145706 0.678302
0.0207449 -0.014982 0.678328
0.0218042 -0.0153936 0.67835
0.0228634 -0.0158048 0.678368
0.0239173 -0.0162129 0.678263
0.0249732 -0.0166224 0.678212
0.0260288 -0.0170314 0.678157
0.0270842 -0.0174406 0.678106
0.0281431 -0.0178519 0.67813
0.0292124 -0.018269 0.678359
0.0302898 -0.0186915 0.678737
0.0313762 -0.0191192 0.67926
0.0325015 -0.0195687 0.680462
0.0336295 -0.020019 0.681645
0.0347745 -0.0204787 0.683059
0.0359147 -0.0209344 0.684317
0.0370477 -0.021386 0.6854
0.038141 -0.0218142 0.685794
0.0392331 -0.0222421 0.686154
0.0403128 -0.0226631 0.686311
0.0414033 -0.023089 0.686616
0.0425147 -0.0235268 0.687217
0.0436638 -0.0239852 0.688328
0.0448348 -0.0244541 0.68969
0.0460266 -0.0249335 0.691279
0.0472384 -0.0254234 0.693072
0.0484719 -0.0259229 0.695069
0.0496866 -0.0264122 0.696756
0.050895 -0.0268979 0.698294
0.0520761 -0.0273688 0.699439
0.0538404 -0.0281397 0.707563
-0.0155775 0.000529453 0.656048
-0.0145471 0.00013203 0.655781
-0.0135159 -0.000265191 0.655366
-0.0124784 -0.000658123 0.6543
-0.0114451 -0.00105037 0.653319
-0.0104159 -0.0014426 0.652432
-0.00938853 -0.00183211 0.651408
-0.00836575 -0.00222238 0.650663
-0.0073473 -0.00261549 0.65036
-0.00633006 -0.00300903 0.650189
-0.00531319 -0.00340285 0.650155
-0.00429671 -0.00379765 0.650178
-0.00328038 -0.00419286 0.65019
-0.00226395 -0.00458734 0.650189
-0.00124784 -0.00498109 0.650139
-0.000232276 -0.00537417 0.65004
0.00078364 -0.00576921 0.650059
0.00180107 -0.00616556 0.650206
0.00281993 -0.006563 0.650434
0.00384043 -0.0069619 0.650743
0.00486626 -0.00736548 0.651343
0.00589396 -0.00777003 0.651954
0.00692278 -0.00817406 0.652513
0.00795792 -0.00858264 0.653308
0.008997 -0.00899358 0.654177
0.0100394 -0.00940644 0.65508
0.0110863 -0.00982129 0.656054
0.0121737 -0.0102653 0.658471
0.0132852 -0.0107232 0.661489
0.01443 -0.0112015 0.665326
0.0156022 -0.0116954 0.669675
0.0167795 -0.0121886 0.673761
0.017914 -0.0126504 0.676203
0.0190241 -0.0130949 0.677742
0.0201075 -0.0135219 0.678435
0.0211674 -0.0139335 0.678459
0.0222221 -0.0143419 0.678353
0.0232758 -0.0147498 0.678235
0.0243259 -0.0151557 0.678042
0.025375 -0.0155616 0.677846
0.0264236 -0.0159671 0.677651
0.0274783 -0.0163757 0.677596
0.0285366 -0.0167868 0.67762
0.0296052 -0.0172038 0.677847
0.0306825 -0.0176256 0.67823
0.0317724 -0.0180537 0.678821
0.0328984 -0.0185017 0.680031
0.0340279 -0.0189503 0.681233
0.0351738 -0.0194082 0.682658
0.0363181 -0.0198642 0.68398
0.037452 -0.0203138 0.685068
0.0385494 -0.0207441 0.685533
0.039646 -0.0211736 0.68596
0.0407305 -0.0215967 0.686189
0.0418217 -0.0220225 0.686503
0.0429391 -0.0224627 0.687184
0.0440846 -0.0229169 0.688231
0.0452505 -0.0233807 0.689513
