ply
format ascii 1.0
element vertex 1568
property float x
property float y
property float z
end_header
-0.049746 -0.0462476 0.787623
-0.0483981 -0.046554 0.788228
-0.0470481 -0.04686 0.788822
-0.0456928 -0.0471562 0.789259
-0.044349 -0.0474793 0.790141
-0.0430039 -0.0478055 0.791067
-0.0420929 -0.0498311 0.797196
-0.0416555 -0.0481286 0.791928
-0.145756 -0.0212934 0.716778
-0.144462 -0.0215566 0.716881
-0.143172 -0.0218196 0.717001
-0.141677 -0.0220384 0.715806
-0.140184 -0.0222566 0.7146
-0.137979 -0.0235234 0.706922
-0.138254 -0.0223756 0.710485
-0.131111 -0.0223767 0.688383
-0.128865 -0.0223868 0.68159
-0.127092 -0.0225032 0.677924
-0.125665 -0.0227006 0.676593
-0.124262 -0.0229016 0.675398
-0.122863 -0.0231021 0.674196
-0.121498 -0.0233086 0.673211
-0.120115 -0.0235089 0.672059
-0.118801 -0.023726 0.671386
-0.117509 -0.0239481 0.670859
-0.116258 -0.0241813 0.67063
-0.115004 -0.0244121 0.670363
-0.113767 -0.024648 0.67022
-0.11252 -0.0248796 0.669989
-0.111239 -0.0251001 0.669474
-0.109952 -0.0253172 0.668883
-0.108657 -0.0255305 0.668212
-0.107383 -0.0257487 0.667685
-0.106105 -0.0259649 0.667104
-0.104877 -0.0261969 0.666938
-0.103668 -0.0264352 0.666925
-0.102464 -0.0266748 0.66695
-0.101274 -0.02692 0.667091
-0.100096 -0.0271691 0.667351
-0.0989123 -0.0274162 0.667552
-0.0977306 -0.027664 0.667772
-0.0965623 -0.0279173 0.668123
-0.0953868 -0.0281686 0.668406
-0.0942102 -0.028419 0.668682
-0.0930599 -0.0286809 0.669225
-0.0919117 -0.028945 0.669802
-0.0908033 -0.0292285 0.670805
-0.0897323 -0.0295319 0.672234
-0.0894128 -0.0312876 0.678997
-0.0888433 -0.0299275 0.675669
-0.0886512 -0.0317655 0.68399
-0.088034 -0.0303701 0.680099
-0.0872067 -0.0308143 0.684481
-0.0863354 -0.0312444 0.688518
-0.0853967 -0.0316477 0.691917
-0.0842659 -0.0319508 0.693166
-0.0830364 -0.0322003 0.693262
-0.0818461 -0.0324731 0.693836
-0.0807304 -0.0327911 0.695365
-0.0797644 -0.0332064 0.69887
-0.078839 -0.0336562 0.70305
-0.0779321 -0.0341304 0.707649
-0.0769859 -0.0345895 0.711907
-0.0759458 -0.034995 0.715042
-0.0747816 -0.0353201 0.716515
-0.0735918 -0.0356303 0.717692
-0.072411 -0.0359501 0.719042
-0.0712335 -0.0362762 0.720494
-0.0700581 -0.0366076 0.722043
-0.0688779 -0.0369405 0.723588
-0.067701 -0.0372806 0.72527
-0.0665126 -0.0376142 0.726818
-0.0653335 -0.0379633 0.728619
-0.0641633 -0.0383255 0.730672
-0.0629898 -0.0386924 0.732777
-0.06181 -0.0390598 0.734881
-0.0606082 -0.0394117 0.736655
-0.0594026 -0.0397655 0.738461
-0.0582717 -0.0402121 0.741956
-0.0545818 -0.0433213 0.779183
-0.0534749 -0.043952 0.785624
-0.0521729 -0.044322 0.787383
-0.0508062 -0.0445965 0.787447
-0.0494463 -0.0448825 0.787709
-0.0480974 -0.0451878 0.788309
-0.0467478 -0.0454936 0.788915
-0.0453978 -0.0458005 0.789543
-0.0440556 -0.04613 0.790532
-0.0427125 -0.0464611 0.791561
-0.0413629 -0.0467832 0.792426
-0.0402922 -0.0484177 0.792228
-0.0400008 -0.0470779 0.792812
-0.146602 -0.0197116 0.715582
-0.145298 -0.0199719 0.715614
-0.143999 -0.0202325 0.715674
-0.142711 -0.0204958 0.715795
-0.141396 -0.0207527 0.715743
-0.140123 -0.0210189 0.715964
-0.138435 -0.0211968 0.713448
-0.128757 -0.021197 0.682635
-0.126809 -0.021279 0.677753
-0.125414 -0.0214868 0.676642
-0.124023 -0.0216925 0.675526
-0.122624 -0.0218955 0.674326
-0.12125 -0.0221022 0.673272
-0.119865 -0.0223035 0.672109
-0.118541 -0.0225197 0.671363
-0.117248 -0.0227431 0.670831
-0.11598 -0.0229719 0.670469
-0.114716 -0.0232004 0.670123
-0.113461 -0.0234313 0.669834
-0.112204 -0.0236604 0.669516
-0.110908 -0.0238772 0.668872
-0.109622 -0.0240952 0.668279
-0.10833 -0.02431 0.667617
-0.107072 -0.0245347 0.667221
-0.105797 -0.0247527 0.666663
-0.104579 -0.0249884 0.666573
-0.103371 -0.0252273 0.666569
-0.102166 -0.0254665 0.666578
-0.100976 -0.0257114 0.666713
-0.0998049 -0.0259625 0.667031
-0.0986292 -0.0262129 0.667303
-0.0974552 -0.0264632 0.667596
-0.096302 -0.0267225 0.668089
-0.0951337 -0.0269763 0.668445
-0.0939707 -0.0272326 0.668858
-0.0928271 -0.0274979 0.669475
-0.0916848 -0.0277645 0.670118
-0.0905756 -0.0280461 0.671125
-0.0895042 -0.0283482 0.672559
-0.0885197 -0.0286937 0.674981
-0.0876632 -0.0291072 0.678894
-0.0868099 -0.0295305 0.68298
-0.085914 -0.0299409 0.686725
-0.0849681 -0.0303333 0.690022
-0.0839178 -0.0306772 0.692196
-0.0827259 -0.0309464 0.69273
-0.0815651 -0.0312346 0.693663
-0.0804972 -0.031579 0.6958
-0.0795445 -0.0319984 0.699502
-0.0786166 -0.0324426 0.703681
-0.0776945 -0.0329012 0.708115
-0.0767308 -0.0333438 0.712167
-0.0756511 -0.0337194 0.71476
-0.0744823 -0.0340386 0.716174
-0.0732983 -0.034352 0.717431
-0.0721179 -0.0346699 0.718781
-0.070939 -0.0349932 0.720228
-0.0697623 -0.0353222 0.721767
-0.0685773 -0.0356486 0.723237
-0.0673967 -0.035983 0.724843
-0.0662034 -0.0363107 0.72631
-0.0650148 -0.0366473 0.727945
-0.0638361 -0.0369987 0.729831
-0.0626613 -0.0373603 0.731904
-0.0614745 -0.0377163 0.733845
-0.0602721 -0.0380639 0.735596
-0.0590819 -0.0384304 0.737697
-0.0579024 -0.0388177 0.740174
-0.0530708 -0.0424382 0.782961
-0.0518277 -0.042887 0.786213
-0.0505101 -0.0432365 0.787628
-0.0491497 -0.0435213 0.787874
-0.0477999 -0.0438263 0.788479
-0.046451 -0.0441341 0.789127
-0.0451056 -0.0444519 0.789956
-0.0437658 -0.0447851 0.791051
-0.0424216 -0.0451155 0.792069
-0.0410723 -0.0454412 0.793002
-0.0397126 -0.0457447 0.793553
-0.147504 -0.0181425 0.714746
-0.146183 -0.0184 0.714669
-0.144883 -0.0186612 0.714713
-0.143577 -0.0189207 0.714717
-0.142276 -0.0191802 0.714751
-0.140933 -0.0194325 0.714507
-0.139649 -0.0196948 0.714639
-0.138155 -0.0199158 0.71338
-0.136089 -0.0212296 0.706499
-0.136011 -0.0200005 0.707765
-0.128796 -0.0200355 0.684694
-0.126675 -0.0200884 0.678621
-0.125146 -0.0202679 0.676567
-0.123765 -0.0204785 0.675527
-0.122376 -0.0206855 0.674396
-0.121002 -0.0208943 0.673338
-0.119625 -0.021101 0.672233
-0.118292 -0.0213157 0.671417
-0.116998 -0.0215398 0.670879
-0.115712 -0.021765 0.670375
-0.114437 -0.0219917 0.669946
-0.113163 -0.0222174 0.669504
-0.111897 -0.0224453 0.669111
-0.110593 -0.0226602 0.668391
-0.109307 -0.0228797 0.667799
-0.108025 -0.0230984 0.667208
-0.106778 -0.0233272 0.666899
-0.105506 -0.0235466 0.66636
-0.104296 -0.0237859 0.666336
-0.103095 -0.0240265 0.666385
-0.101883 -0.0242643 0.666329
-0.100692 -0.0245089 0.666466
-0.0995294 -0.0247627 0.666853
-0.098356 -0.0250137 0.667146
-0.0971834 -0.0252645 0.667451
-0.0960434 -0.0255287 0.668072
-0.0948887 -0.0257876 0.668564
-0.0937403 -0.0260492 0.669129
-0.092611 -0.0263201 0.669896
-0.0914812 -0.0265916 0.670681
-0.0903772 -0.0268758 0.671753
-0.089298 -0.0271731 0.673124
-0.088323 -0.0275204 0.675668
-0.0874384 -0.0279158 0.679299
-0.0865621 -0.0283234 0.683151
-0.0856442 -0.0287179 0.686661
-0.0846895 -0.0291016 0.689867
-0.0836175 -0.0294309 0.691789
-0.0824391 -0.0297069 0.692484
-0.0813021 -0.0300067 0.693713
-0.0802708 -0.0303692 0.696326
-0.0793199 -0.0307856 0.700082
-0.0783838 -0.0312198 0.704186
-0.077449 -0.0316655 0.708482
-0.0764632 -0.0320894 0.712254
-0.0753564 -0.0324438 0.714478
-0.0741884 -0.032763 0.715912
-0.0730057 -0.0330741 0.717185
-0.0718247 -0.0333905 0.718532
-0.070641 -0.0337079 0.719898
-0.069459 -0.0340309 0.721359
-0.0682747 -0.0343553 0.72283
-0.0670935 -0.0346867 0.724432
-0.065899 -0.0350123 0.725894
-0.06471 -0.0353461 0.727509
-0.0635261 -0.0356903 0.729308
-0.0623472 -0.0360439 0.731292
-0.061159 -0.0363963 0.733214
-0.0599533 -0.0367362 0.734879
-0.058767 -0.0371046 0.737072
-0.0576004 -0.0375023 0.739813
-0.0569004 -0.0394257 0.746745
-0.0565391 -0.0380317 0.745085
-0.0526804 -0.0409502 0.780624
-0.0515017 -0.0414823 0.785557
-0.050236 -0.041908 0.78844
-0.0488695 -0.0421876 0.788575
-0.0475171 -0.0424878 0.789101
-0.0461694 -0.0428008 0.78985
-0.0448288 -0.0431295 0.790891
-0.0434896 -0.0434689 0.792099
-0.0421408 -0.0437926 0.793022
-0.0409248 -0.0444346 0.799644
-0.147084 -0.0168336 0.713826
-0.145737 -0.0170869 0.713579
-0.144417 -0.0173438 0.713486
-0.143084 -0.0175981 0.713311
-0.141753 -0.0178523 0.713136
-0.140413 -0.0181046 0.712894
-0.13913 -0.0183666 0.713016
-0.137826 -0.0186251 0.712993
-0.135887 -0.0187588 0.708732
-0.126711 -0.0189312 0.680678
-0.12504 -0.0190845 0.67765
-0.123525 -0.0192683 0.675657
-0.122156 -0.0194823 0.674667
-0.120781 -0.0196925 0.673604
-0.119405 -0.0199016 0.672502
-0.118061 -0.0201162 0.671612
-0.116759 -0.0203393 0.671009
-0.115453 -0.0205603 0.670362
-0.11416 -0.0207836 0.669787
-0.112867 -0.0210054 0.669188
-0.111584 -0.0212293 0.668656
-0.110272 -0.0214432 0.667868
-0.108989 -0.0216642 0.667284
-0.107723 -0.0218887 0.666823
-0.106486 -0.0221207 0.666592
-0.10523 -0.0223462 0.66619
-0.104029 -0.0225886 0.666239
-0.102835 -0.0228319 0.666348
-0.101622 -0.0230696 0.666285
-0.100431 -0.0233141 0.666423
-0.099264 -0.0235668 0.666768
-0.0980912 -0.023817 0.667069
-0.0969256 -0.0240709 0.667439
-0.0957926 -0.0243369 0.668132
-0.0946523 -0.024601 0.668768
-0.0935195 -0.0248687 0.669495
-0.0924046 -0.0251445 0.670422
-0.0912826 -0.0254197 0.671297
-0.0901826 -0.0257045 0.67243
-0.0891007 -0.0259999 0.673787
-0.0881243 -0.0263442 0.676339
-0.0872091 -0.026721 0.679659
-0.0863057 -0.0271107 0.683225
-0.0853691 -0.0274919 0.686537
-0.0844034 -0.027866 0.689625
-0.0833184 -0.0281859 0.691396
-0.0821581 -0.0284702 0.692309
-0.0810569 -0.0287876 0.693988
-0.0800716 -0.029173 0.697202
-0.0791119 -0.0295807 0.700881
-0.0781641 -0.0300034 0.70487
-0.0772112 -0.0304331 0.708955
-0.0761937 -0.0308339 0.712315
-0.0750529 -0.0311639 0.71407
-0.0738956 -0.0314873 0.715662
-0.0727189 -0.0318014 0.717016
-0.0715417 -0.0321185 0.718435
-0.0703521 -0.0324308 0.719723
-0.0691698 -0.032751 0.721175
-0.0679841 -0.0330735 0.72264
-0.0667985 -0.0333992 0.724168
-0.0656043 -0.0337222 0.72563
-0.0644146 -0.0340536 0.727244
-0.0632262 -0.0343911 0.72896
-0.0620435 -0.0347384 0.730863
-0.0608547 -0.0350873 0.732776
-0.059649 -0.035426 0.734457
-0.0584676 -0.0357948 0.736743
-0.0573054 -0.0361932 0.73959
-0.0561805 -0.0366454 0.743467
-0.0555445 -0.0386663 0.7523
-0.0551168 -0.0371859 0.749062
-0.0510507 -0.0399019 0.781449
-0.0498516 -0.0404142 0.786103
-0.0485405 -0.0407729 0.787783
-0.0472338 -0.0411498 0.789764
-0.0460617 -0.0417761 0.796453
-0.146639 -0.0155238 0.712749
-0.145277 -0.0157744 0.712398
-0.143948 -0.01603 0.712241
-0.14259 -0.0162807 0.711889
-0.141239 -0.0165311 0.711576
-0.139913 -0.0167854 0.711407
-0.138619 -0.0170447 0.711437
-0.137292 -0.0172982 0.711255
-0.135561 -0.0174766 0.70835
-0.133724 -0.0188429 0.702847
-0.133645 -0.0176165 0.704118
-0.126955 -0.0178089 0.684206
-0.125108 -0.0179334 0.67996
-0.123427 -0.0180874 0.676802
-0.121936 -0.0182772 0.674939
-0.120552 -0.018488 0.673814
-0.119175 -0.0186991 0.672709
-0.117831 -0.0189158 0.671816
-0.116521 -0.0191381 0.671154
-0.115198 -0.0193571 0.670368
-0.113894 -0.0195789 0.669706
-0.112581 -0.0197971 0.668956
-0.111281 -0.0200171 0.668282
-0.109963 -0.0202309 0.667433
-0.108688 -0.0204546 0.666915
-0.107432 -0.0206828 0.666528
-0.106204 -0.020918 0.666368
-0.104957 -0.0211474 0.666039
-0.103764 -0.0213916 0.666157
-0.10257 -0.0216359 0.666272
-0.101365 -0.0218758 0.666283
-0.100183 -0.0221231 0.666491
-0.0990213 -0.0223779 0.666894
-0.0978548 -0.0226307 0.667258
-0.0966952 -0.0228863 0.667692
-0.0955617 -0.0231513 0.668388
-0.0944224 -0.0234156 0.66904
-0.093297 -0.0236861 0.669848
-0.0921901 -0.0239645 0.670867
-0.0910743 -0.0242412 0.671819
-0.0899806 -0.0245282 0.673032
-0.0889026 -0.0248244 0.674449
-0.0878918 -0.0251505 0.676648
-0.0869524 -0.0255134 0.679713
-0.0860329 -0.0258912 0.683113
-0.0850753 -0.0262578 0.686194
-0.0840985 -0.0266217 0.689159
-0.0830372 -0.0269508 0.691214
-0.0819007 -0.0272461 0.69242
-0.0808417 -0.0275831 0.69464
-0.0798697 -0.0279721 0.698057
-0.0789088 -0.0283751 0.701756
-0.0779439 -0.0287845 0.705553
-0.0769676 -0.0291961 0.709355
-0.0759115 -0.0295699 0.712203
-0.0747653 -0.0298941 0.713889
-0.0736092 -0.0302161 0.715494
-0.0724363 -0.030531 0.716919
-0.0712543 -0.0308432 0.718266
-0.0700592 -0.0311501 0.719468
-0.0688711 -0.0314641 0.720833
-0.0676802 -0.0317805 0.72221
-0.0664902 -0.0321006 0.723674
-0.0653008 -0.0324255 0.725212
-0.064117 -0.0327586 0.726913
-0.0629321 -0.0330971 0.728709
-0.0617527 -0.0334457 0.730691
-0.0605715 -0.0337992 0.732762
-0.0593699 -0.0341401 0.734541
-0.0581955 -0.0345143 0.737002
-0.0570282 -0.0349045 0.739763
-0.0558393 -0.0352824 0.742229
-0.0547008 -0.0357282 0.746056
-0.0506008 -0.0383307 0.777286
-0.0494758 -0.0389346 0.783935
-0.0482205 -0.0393753 0.787259
-0.0469553 -0.0398158 0.790557
-0.0448904 -0.0424467 0.803883
-0.0459611 -0.0407501 0.803431
-0.14612 -0.014206 0.711218
-0.144761 -0.0144572 0.710864
-0.143422 -0.0147114 0.710629
-0.142058 -0.0149608 0.710227
-0.140699 -0.0152102 0.709838
-0.139388 -0.0154664 0.709749
-0.138074 -0.015722 0.709632
-0.136737 -0.0159731 0.709361
-0.135208 -0.0161901 0.707783
-0.133508 -0.0163756 0.705006
-0.131499 -0.0177056 0.69822
-0.131596 -0.0165171 0.700705
-0.125317 -0.016802 0.683293
-0.12344 -0.0169243 0.678758
-0.121778 -0.0170839 0.675669
-0.120244 -0.0172661 0.673442
-0.118891 -0.0174838 0.672506
-0.117574 -0.0177081 0.671815
-0.116273 -0.0179344 0.671224
-0.114951 -0.0181545 0.670443
-0.113635 -0.018375 0.669693
-0.112312 -0.0185927 0.668854
-0.111003 -0.0188113 0.6681
-0.109686 -0.0190276 0.667261
-0.108413 -0.0192527 0.666753
-0.107165 -0.0194841 0.666437
-0.105937 -0.0197202 0.666276
-0.104699 -0.0199529 0.666018
-0.103514 -0.0201998 0.666213
-0.10233 -0.0204469 0.666415
-0.10114 -0.0206918 0.66656
-0.0999643 -0.0209419 0.666837
-0.098802 -0.021196 0.66724
-0.0976334 -0.0214485 0.667591
-0.0964726 -0.0217038 0.668021
-0.0953382 -0.0219682 0.668716
-0.0942055 -0.022234 0.669444
-0.0930914 -0.0225083 0.670377
-0.0919902 -0.022788 0.671466
-0.0908794 -0.0230663 0.672486
-0.0897789 -0.0233504 0.673643
-0.0887061 -0.0236468 0.675133
-0.0876663 -0.0239591 0.677034
-0.0867071 -0.0243099 0.679899
-0.0857719 -0.0246763 0.683137
-0.0848101 -0.0250367 0.686184
-0.0838205 -0.0253913 0.689009
-0.0827755 -0.0257248 0.69127
-0.0816794 -0.0260384 0.692982
-0.080657 -0.0263922 0.695683
-0.0796878 -0.0267793 0.699175
-0.078714 -0.0271718 0.702747
-0.0777353 -0.0275699 0.706399
-0.0767204 -0.0279555 0.709709
-0.0756304 -0.028306 0.712108
-0.0744789 -0.0286255 0.713722
-0.0733272 -0.0289482 0.715397
-0.0721538 -0.0292614 0.716822
-0.070966 -0.0295686 0.718091
-0.0697659 -0.0298693 0.719205
-0.0685714 -0.0301784 0.72048
-0.0673755 -0.0304885 0.72177
-0.066186 -0.0308067 0.723233
-0.0650013 -0.0311327 0.724858
-0.0638222 -0.0314675 0.72665
-0.0626419 -0.0318075 0.72854
-0.0614665 -0.0321567 0.730605
-0.0602892 -0.0325116 0.732774
-0.0590917 -0.0328542 0.734634
-0.057913 -0.0332216 0.737024
-0.0567389 -0.0336028 0.73968
-0.0555449 -0.0339718 0.742036
-0.0543396 -0.0343375 0.744295
-0.0536866 -0.0363403 0.753231
-0.0532564 -0.0348572 0.749759
-0.049293 -0.0377397 0.787443
-0.144232 -0.0131434 0.70925
-0.142902 -0.0133987 0.709047
-0.141556 -0.0136501 0.708741
-0.1402 -0.0139001 0.708357
-0.13889 -0.014157 0.708257
-0.137564 -0.0144102 0.708053
-0.136219 -0.0146602 0.707706
-0.134878 -0.0149095 0.707371
-0.13339 -0.0151339 0.706025
-0.131703 -0.0153228 0.703279
-0.129522 -0.0166236 0.695177
-0.129848 -0.0154781 0.699288
-0.123665 -0.015795 0.682249
-0.121823 -0.0159274 0.677885
-0.120089 -0.0160752 0.674202
-0.118594 -0.0162665 0.672206
-0.117288 -0.0164945 0.671595
-0.115995 -0.016723 0.671057
-0.114692 -0.0169494 0.670425
-0.11336 -0.0171676 0.669546
-0.112028 -0.0173843 0.668631
-0.110709 -0.0176026 0.667794
-0.109392 -0.01782 0.66695
-0.108113 -0.0180452 0.66639
-0.106883 -0.0182814 0.666214
-0.105663 -0.0185201 0.666121
-0.104448 -0.0187592 0.666058
-0.103287 -0.0190131 0.666462
-0.102126 -0.0192672 0.666883
-0.100953 -0.0195176 0.667184
-0.0997903 -0.0197721 0.667595
-0.098626 -0.0200261 0.667994
-0.0974557 -0.0202784 0.668342
-0.0962871 -0.0205311 0.668712
-0.0951455 -0.0207936 0.669349
-0.0940029 -0.0210558 0.669993
-0.0928794 -0.0213262 0.670844
-0.0917689 -0.0216019 0.67185
-0.0906577 -0.0218789 0.672877
-0.0895625 -0.0221636 0.674102
-0.0885024 -0.0224639 0.675746
-0.0874804 -0.0227822 0.677862
-0.086504 -0.0231223 0.680561
-0.0855537 -0.0234784 0.683654
-0.0845816 -0.0238311 0.686602
-0.0835832 -0.0241781 0.689346
-0.0825335 -0.0245079 0.691564
-0.0814794 -0.0248391 0.693811
-0.0804819 -0.0252021 0.69686
-0.0795132 -0.0255864 0.700398
-0.0785179 -0.0259642 0.703731
-0.0775149 -0.0263455 0.707097
-0.0764629 -0.0267084 0.709926
-0.0753497 -0.0270428 0.712016
-0.0741925 -0.0273567 0.713557
-0.0730451 -0.0276803 0.7153
-0.0718712 -0.027991 0.716725
-0.0706781 -0.0282932 0.717914
-0.0694679 -0.0285868 0.718873
-0.0682627 -0.0288863 0.719971
-0.0670575 -0.0291872 0.721097
-0.0658637 -0.0294999 0.722472
-0.0646799 -0.029824 0.724109
-0.0635097 -0.0301634 0.726068
-0.0623435 -0.0305111 0.728207
-0.0611721 -0.0308618 0.730369
-0.0600065 -0.0312232 0.732764
-0.0588145 -0.0315694 0.734778
-0.0576282 -0.0319271 0.737018
-0.0564422 -0.0322937 0.739428
-0.0552459 -0.0326568 0.741742
-0.0540327 -0.033012 0.743827
-0.0528862 -0.0334503 0.747729
-0.0521298 -0.0353465 0.754524
-0.0517069 -0.0338674 0.751094
-0.143732 -0.0118378 0.707805
-0.14241 -0.0120934 0.707642
-0.141091 -0.0123492 0.70749
-0.13973 -0.0125995 0.707058
-0.138421 -0.0128549 0.706952
-0.137097 -0.0131087 0.706746
-0.135754 -0.0133595 0.706396
-0.134406 -0.0136086 0.706001
-0.133071 -0.0138586 0.705682
-0.131558 -0.0140799 0.704118
-0.129888 -0.0142726 0.701422
-0.12793 -0.0156168 0.694752
-0.128176 -0.014455 0.698363
-0.122133 -0.0148117 0.682045
-0.120222 -0.0149355 0.677096
-0.118679 -0.0151227 0.674774
-0.117191 -0.0153177 0.672809
-0.115876 -0.0155453 0.672125
-0.114421 -0.0157414 0.670317
-0.113093 -0.0159622 0.669463
-0.111771 -0.0161835 0.66863
-0.11044 -0.0164004 0.667696
-0.109102 -0.0166148 0.666667
-0.107831 -0.0168425 0.666167
-0.10662 -0.0170839 0.666154
-0.105414 -0.0173265 0.666178
-0.104235 -0.0175754 0.666433
-0.103105 -0.0178374 0.667122
-0.101963 -0.0180966 0.667713
-0.100812 -0.0183538 0.668239
-0.099663 -0.0186122 0.66879
-0.09849 -0.0188649 0.669129
-0.0973179 -0.0191173 0.669479
-0.0961404 -0.0193685 0.669782
-0.0949825 -0.0196258 0.67028
-0.0938228 -0.0198833 0.670771
-0.0926896 -0.0201496 0.671541
-0.091564 -0.02042 0.672407
-0.0904519 -0.020696 0.673439
-0.0893552 -0.0209793 0.674663
-0.0883124 -0.0212847 0.676512
-0.0872838 -0.0215977 0.678578
-0.0862936 -0.0219298 0.681146
-0.0853273 -0.0222762 0.684079
-0.0843511 -0.0226238 0.687002
-0.0833472 -0.022965 0.689699
-0.0823282 -0.0233054 0.692311
-0.0813171 -0.0236536 0.69512
-0.0803362 -0.0240218 0.698421
-0.0793598 -0.0243993 0.70191
-0.0783389 -0.024762 0.704951
-0.0772961 -0.0251204 0.707822
-0.0762025 -0.0254584 0.710108
-0.0750732 -0.0257818 0.711985
-0.0739108 -0.0260916 0.713457
-0.0727629 -0.0264116 0.715203
-0.0715886 -0.0267206 0.716628
-0.0703898 -0.0270186 0.717738
-0.0691739 -0.0273069 0.718611
-0.0679597 -0.0275984 0.71954
-0.0667392 -0.027888 0.720421
-0.0655359 -0.0281922 0.721624
-0.0643488 -0.0285101 0.723179
-0.0631799 -0.0288466 0.725149
-0.0620235 -0.0291983 0.727461
-0.0608609 -0.0295526 0.72979
-0.0596994 -0.0299138 0.73227
-0.0585153 -0.0302638 0.73443
-0.0573272 -0.0306179 0.736665
-0.0561345 -0.0309734 0.738917
-0.0549367 -0.0313329 0.741212
-0.0537232 -0.0316833 0.743281
-0.052511 -0.0320443 0.745553
-0.0512751 -0.032385 0.747353
-0.143264 -0.0105408 0.706549
-0.141943 -0.0107963 0.706381
-0.14066 -0.0110564 0.706448
-0.139312 -0.0113079 0.70609
-0.138003 -0.0115644 0.705979
-0.136661 -0.0118164 0.705634
-0.135331 -0.0120686 0.705362
-0.133973 -0.0123162 0.704889
-0.132616 -0.0125639 0.704402
-0.131248 -0.0128089 0.703829
-0.129756 -0.0130338 0.702364
-0.128247 -0.0132534 0.700748
-0.126215 -0.0145906 0.69344
-0.126529 -0.0134383 0.697582
-0.124577 -0.0135792 0.692644
-0.12066 -0.0138397 0.682278
-0.117164 -0.0141505 0.674568
-0.115648 -0.0143421 0.672349
-0.114143 -0.0145326 0.67015
-0.11282 -0.0147563 0.669334
-0.111505 -0.0149796 0.668548
-0.110169 -0.015198 0.667574
-0.108857 -0.0154191 0.66676
-0.107627 -0.0156578 0.666597
-0.106454 -0.0159089 0.66692
-0.105288 -0.0161614 0.667298
-0.104143 -0.0164187 0.667865
-0.103029 -0.0166848 0.668719
-0.101896 -0.0169477 0.669418
-0.100751 -0.0172075 0.67003
-0.0995928 -0.0174646 0.670522
-0.0984148 -0.0177163 0.670843
-0.0972262 -0.0179655 0.671064
-0.0960319 -0.0182131 0.671231
-0.0948573 -0.0184663 0.671591
-0.0936791 -0.0187191 0.67192
-0.0925283 -0.0189801 0.672534
-0.0913939 -0.0192473 0.673331
-0.0902811 -0.0195234 0.674374
-0.089184 -0.0198054 0.675617
-0.0881514 -0.0201121 0.677603
-0.0871141 -0.0204208 0.679601
-0.0861011 -0.0207418 0.681943
-0.0851232 -0.0210804 0.68477
-0.0841432 -0.0214235 0.687672
-0.0831521 -0.0217675 0.690547
-0.08216 -0.0221158 0.693519
-0.0811854 -0.0224781 0.696821
-0.0802034 -0.0228427 0.700161
-0.0792027 -0.0232059 0.703388
-0.0781405 -0.0235476 0.705926
-0.0770588 -0.0238837 0.708304
-0.0759315 -0.0242027 0.710142
-0.0747915 -0.024518 0.71188
-0.0736289 -0.0248258 0.713355
-0.0724758 -0.0251415 0.715034
-0.071301 -0.0254484 0.716453
-0.0700979 -0.0257416 0.717489
-0.0688763 -0.0260261 0.718279
-0.0676518 -0.0263093 0.719047
-0.0664176 -0.0265883 0.71967
-0.0651957 -0.0268769 0.720543
-0.0639958 -0.0271824 0.721837
-0.0628192 -0.02751 0.723647
-0.0616644 -0.027858 0.725967
-0.0605164 -0.0282183 0.728545
-0.0593679 -0.0285852 0.731268
-0.0581983 -0.0289443 0.73374
-0.0570226 -0.0293045 0.736215
-0.0558333 -0.0296611 0.738547
-0.0546342 -0.0300157 0.740829
-0.0534232 -0.0303664 0.742968
-0.0522115 -0.0307241 0.745246
-0.0509784 -0.0310659 0.747127
-0.0502633 -0.0330102 0.755444
-0.0499121 -0.0316167 0.753805
-0.141473 -0.00950226 0.705101
-0.140176 -0.00976097 0.705064
-0.138845 -0.0100148 0.704801
-0.137532 -0.0102705 0.704643
-0.136194 -0.0105225 0.704318
-0.13489 -0.0107785 0.704201
-0.133531 -0.0110265 0.703712
-0.13216 -0.0112731 0.703117
-0.130789 -0.0115179 0.702501
-0.129443 -0.011765 0.702045
-0.128093 -0.0120119 0.701547
-0.126613 -0.0122373 0.700095
-0.113862 -0.0133229 0.669958
-0.112544 -0.0135485 0.669181
-0.106397 -0.0147535 0.668613
-0.105259 -0.0150133 0.669263
-0.104099 -0.0152692 0.669729
-0.103012 -0.0155419 0.670846
-0.101869 -0.0158023 0.671492
-0.100713 -0.0160603 0.672034
-0.0995405 -0.0163151 0.672434
-0.098351 -0.0165656 0.672677
-0.0971437 -0.016811 0.67275
-0.0959385 -0.0170574 0.672838
-0.0947523 -0.0173083 0.673112
-0.093563 -0.0175585 0.673356
-0.0924029 -0.0178181 0.673901
-0.0912599 -0.0180832 0.674635
-0.0901447 -0.0183579 0.675681
-0.0890459 -0.0186393 0.676936
-0.0880055 -0.0189423 0.678867
-0.0869473 -0.0192421 0.680663
-0.0859167 -0.0195544 0.682835
-0.0849214 -0.0198837 0.685489
-0.0839507 -0.0202265 0.688529
-0.0829784 -0.0205748 0.691662
-0.0820185 -0.020933 0.695068
-0.081061 -0.0212997 0.698631
-0.0800699 -0.0216579 0.701908
-0.0790279 -0.0220008 0.704647
-0.0779193 -0.0223185 0.706607
-0.0768004 -0.0226356 0.708502
-0.0756456 -0.0229386 0.709972
-0.0744948 -0.0232467 0.711559
-0.073332 -0.0235521 0.713032
-0.0721777 -0.0238651 0.714704
-0.070998 -0.0241672 0.716051
-0.0697955 -0.0244589 0.717082
-0.0685695 -0.0247392 0.717789
-0.0673359 -0.025017 0.718402
-0.0660923 -0.0252882 0.718853
-0.0648562 -0.0255651 0.719462
-0.0636376 -0.0258558 0.720402
-0.0624448 -0.0261664 0.721872
-0.0612906 -0.0265097 0.72416
-0.0601534 -0.0268721 0.726909
-0.0590191 -0.0272456 0.729909
-0.0578715 -0.0276177 0.732814
-0.0567146 -0.0279895 0.735682
-0.0555254 -0.0283428 0.738033
-0.0543235 -0.0286919 0.740235
-0.0531185 -0.0290442 0.742518
-0.0519101 -0.0294023 0.744886
-0.0506798 -0.0297461 0.746871
-0.0495621 -0.0302279 0.752147
-0.139612 -0.0084609 0.703158
-0.138296 -0.00871656 0.702974
-0.137018 -0.00897562 0.703029
-0.135697 -0.00922984 0.702797
-0.134409 -0.00948732 0.702774
-0.133053 -0.00973593 0.702282
-0.131694 -0.00998447 0.701754
-0.130323 -0.0102294 0.701124
-0.128982 -0.0104788 0.700682
-0.127652 -0.0107279 0.700313
-0.126388 -0.0109856 0.700393
-0.124978 -0.0112225 0.699415
-0.123392 -0.0126418 0.695148
-0.123736 -0.0114825 0.699641
-0.122259 -0.0117077 0.698114
-0.106432 -0.0136115 0.671105
-0.105298 -0.0138734 0.671821
-0.104135 -0.0141295 0.672303
-0.103017 -0.0143957 0.673193
-0.10185 -0.0146523 0.673658
-0.100672 -0.0149066 0.674035
-0.0994724 -0.0151558 0.67421
-0.0982644 -0.015403 0.674307
-0.0970512 -0.0156485 0.674351
-0.0958431 -0.0158956 0.674438
-0.0946464 -0.016145 0.674635
-0.0934559 -0.0163962 0.674894
-0.0922857 -0.0166531 0.675365
-0.0911331 -0.0169161 0.676027
-0.0900086 -0.0171875 0.677004
-0.0889076 -0.0174683 0.678263
-0.0878531 -0.0177654 0.68007
-0.0867846 -0.0180606 0.681783
-0.0857385 -0.0183657 0.683807
-0.0847456 -0.0186936 0.686519
-0.0837864 -0.0190374 0.68973
-0.082839 -0.019391 0.693206
-0.0819029 -0.0197559 0.696949
-0.0809368 -0.020115 0.700463
-0.0799156 -0.0204589 0.703405
-0.0788322 -0.0207821 0.705647
-0.0776859 -0.0210822 0.70713
-0.0765322 -0.021382 0.708569
-0.0753651 -0.0216782 0.709876
-0.0742027 -0.0219784 0.711302
-0.0730386 -0.0222807 0.712761
-0.0718795 -0.0225885 0.714353
-0.0706947 -0.022887 0.715624
-0.0694912 -0.0231764 0.716642
-0.0682613 -0.0234535 0.717276
-0.0670191 -0.0237246 0.717736
-0.0657668 -0.0239897 0.718028
-0.0645143 -0.0242543 0.718315
-0.0632738 -0.0245278 0.718831
-0.0620591 -0.0248202 0.719853
-0.0608854 -0.0251443 0.721724
-0.0597326 -0.0254875 0.724103
-0.0586172 -0.0258681 0.727425
-0.0574977 -0.0262547 0.730853
-0.0563661 -0.0266425 0.734257
-0.0551967 -0.0270073 0.737021
-0.0540131 -0.0273688 0.739653
-0.0528165 -0.0277268 0.742148
-0.0516151 -0.0280888 0.744698
-0.0503982 -0.0284443 0.747056
-0.0492323 -0.028865 0.751025
-0.139082 -0.00716978 0.70147
-0.137793 -0.00742793 0.701441
-0.136514 -0.00768649 0.701471
-0.135181 -0.00793919 0.701136
-0.133899 -0.0081971 0.701136
-0.132548 -0.00844686 0.70066
-0.131195 -0.00869584 0.700154
-0.129841 -0.00894468 0.699628
-0.128517 -0.00919519 0.699285
-0.127216 -0.00944877 0.699107
-0.125995 -0.00971144 0.699489
-0.124786 -0.00997631 0.699959
-0.123602 -0.0102445 0.700623
-0.122416 -0.0105129 0.701287
-0.121218 -0.0107806 0.701871
-0.105377 -0.0127327 0.674745
-0.104175 -0.0129828 0.674926
-0.103013 -0.0132408 0.675472
-0.101815 -0.0134921 0.675694
-0.100614 -0.0137427 0.675888
-0.0993878 -0.0139872 0.675844
-0.0981624 -0.0142312 0.675804
-0.0969335 -0.0144749 0.67572
-0.0957219 -0.0147218 0.675797
-0.0945177 -0.0149707 0.675942
-0.0933264 -0.0152225 0.676219
-0.0921485 -0.0154784 0.676633
-0.0909923 -0.0157405 0.677283
-0.0898574 -0.0160093 0.678175
-0.0887463 -0.0162862 0.679352
-0.0876893 -0.0165812 0.681161
-0.086619 -0.0168745 0.68288
-0.0855882 -0.0171836 0.685107
-0.0846187 -0.0175157 0.688133
-0.0836849 -0.0178651 0.691692
-0.0827446 -0.0182186 0.695309
-0.0818106 -0.0185808 0.699139
-0.0808081 -0.0189242 0.702252
-0.0797399 -0.019247 0.704639
-0.0786109 -0.0195505 0.706315
-0.0774336 -0.0198365 0.707404
-0.0762528 -0.0201235 0.708481
-0.0750741 -0.0204122 0.709631
-0.0739 -0.0207059 0.710887
-0.0727293 -0.021003 0.712249
-0.0715603 -0.0213035 0.71369
-0.0703758 -0.0215993 0.71496
-0.0691729 -0.0218877 0.715978
-0.0679475 -0.0221654 0.716672
-0.066706 -0.0224359 0.717127
-0.0654545 -0.0227008 0.717419
-0.0641897 -0.0229583 0.717477
-0.0629329 -0.0232195 0.717672
-0.061689 -0.0234898 0.718112
-0.0604834 -0.0237864 0.719308
-0.0593029 -0.0241039 0.721077
-0.0582017 -0.0244866 0.724619
-0.0571057 -0.0248831 0.728495
-0.0560096 -0.0252916 0.732618
-0.0548703 -0.0256765 0.736057
-0.0537148 -0.0260591 0.739356
-0.0525242 -0.026419 0.742005
-0.0513288 -0.0267843 0.744747
-0.0501207 -0.0271454 0.747351
-0.0489079 -0.0275119 0.750059
-0.139807 -0.00562395 0.699592
-0.138531 -0.00588268 0.699633
-0.137263 -0.00614124 0.699722
-0.136002 -0.00640122 0.699853
-0.134668 -0.0066545 0.699499
-0.133387 -0.00691171 0.699483
-0.132052 -0.00716351 0.699096
-0.130706 -0.00741394 0.69862
-0.12938 -0.00766511 0.69827
-0.128091 -0.0079203 0.698165
-0.126829 -0.00817827 0.698244
-0.125631 -0.00844261 0.698781
-0.124444 -0.0087098 0.699408
-0.123263 -0.00897698 0.700097
-0.122077 -0.00924522 0.700753
-0.120879 -0.00951157 0.701331
-0.11966 -0.00977587 0.701755
-0.106552 -0.011312 0.676553
-0.105354 -0.0115638 0.676803
-0.104144 -0.0118144 0.676943
-0.102945 -0.0120663 0.677183
-0.101718 -0.012313 0.67717
-0.10049 -0.0125586 0.677139
-0.0992404 -0.0128001 0.676901
-0.0980061 -0.0130433 0.676793
-0.0967688 -0.013286 0.676644
-0.0955624 -0.0135355 0.676787
-0.0943581 -0.0137847 0.676951
-0.0931661 -0.0140376 0.677238
-0.0919867 -0.0142935 0.677657
-0.0908272 -0.0145547 0.678294
-0.0896761 -0.0148194 0.679034
-0.0885564 -0.0150934 0.680136
-0.0875025 -0.0153866 0.682004
-0.0864441 -0.015682 0.68388
-0.0854388 -0.0159968 0.686431
-0.0844963 -0.0163345 0.689811
-0.0835811 -0.0166862 0.693644
-0.0826389 -0.0170359 0.697292
-0.0816751 -0.0173836 0.700812
-0.08063 -0.017709 0.703432
-0.0795198 -0.0180149 0.705309
-0.0783586 -0.0183047 0.706579
-0.0771586 -0.0185806 0.707373
-0.0759664 -0.0188612 0.708299
-0.0747769 -0.0191446 0.709297
-0.0735913 -0.0194316 0.710387
-0.0724145 -0.0197233 0.711654
-0.0712361 -0.0200172 0.712943
-0.0700484 -0.0203093 0.714145
-0.0688458 -0.020596 0.715161
-0.067621 -0.0208726 0.715855
-0.066377 -0.0211404 0.716237
-0.065127 -0.0214046 0.716534
-0.0638589 -0.0216596 0.71652
-0.0625913 -0.0219135 0.716485
-0.0613275 -0.0221693 0.716505
-0.0600961 -0.0224455 0.717167
-0.0588871 -0.0227386 0.718291
-0.057761 -0.0230943 0.721233
-0.0566817 -0.0234935 0.725382
-0.0556177 -0.0239174 0.730177
-0.0545068 -0.0243174 0.734201
-0.0533784 -0.0247153 0.738107
-0.0522075 -0.0250892 0.741253
-0.0510246 -0.0254609 0.744301
-0.0498298 -0.025832 0.747288
-0.0486326 -0.0262121 0.750464
-0.136725 -0.00486002 0.697942
-0.135425 -0.00511656 0.697794
-0.134082 -0.0053682 0.69736
-0.132748 -0.00562121 0.696965
-0.131404 -0.00587153 0.696486
-0.130062 -0.0061223 0.696006
-0.128785 -0.00637797 0.695963
-0.127545 -0.00663731 0.696179
-0.126359 -0.00690207 0.696778
-0.125213 -0.00717075 0.697681
-0.124065 -0.00744015 0.69859
-0.122907 -0.0077096 0.699437
-0.121727 -0.0079773 0.70013
-0.120517 -0.00824106 0.700614
-0.119288 -0.00850353 0.700953
-0.118064 -0.00876655 0.70133
-0.106375 -0.0101107 0.67727
-0.105173 -0.0103627 0.677495
-0.103966 -0.010614 0.677674
-0.102748 -0.0108624 0.677752
-0.101505 -0.0111074 0.6776
-0.100261 -0.0113503 0.677432
-0.0990105 -0.0115925 0.677189
-0.0977769 -0.0118374 0.677091
-0.0965534 -0.0120839 0.677082
-0.0953529 -0.0123349 0.677292
-0.0941535 -0.0125856 0.677514
-0.0929606 -0.0128386 0.677802
-0.091786 -0.0130957 0.678284
-0.0906192 -0.0133554 0.678858
-0.0894658 -0.0136187 0.679588
-0.0883562 -0.0138939 0.680817
-0.087315 -0.0141898 0.682844
-0.0862827 -0.01449 0.685043
-0.085311 -0.0148116 0.688016
-0.0843931 -0.0151535 0.691732
-0.0834771 -0.0155008 0.695612
-0.0825111 -0.0158398 0.699021
-0.0815096 -0.0161716 0.702121
-0.0804226 -0.0164807 0.704247
-0.0792687 -0.0167693 0.70558
-0.0780835 -0.017049 0.706545
-0.0768765 -0.017322 0.707246
-0.0756744 -0.0175976 0.708037
-0.0744747 -0.0178761 0.708887
-0.0732825 -0.0181579 0.70988
-0.0720999 -0.0184456 0.711055
-0.0709162 -0.018735 0.712258
-0.0697253 -0.019023 0.713395
-0.0685234 -0.0193086 0.714412
-0.0672998 -0.0195848 0.715108
-0.0660521 -0.0198493 0.715417
-0.0648036 -0.0201139 0.715716
-0.0635374 -0.0203688 0.715709
-0.0622669 -0.0206202 0.715599
-0.0609883 -0.0208667 0.715313
-0.0597332 -0.0211254 0.715465
-0.0584879 -0.0213915 0.715817
-0.0573276 -0.0217163 0.717962
-0.0562591 -0.0221132 0.722271
-0.055215 -0.0225406 0.727434
-0.0541309 -0.0229533 0.732042
-0.0530301 -0.0233668 0.736574
-0.0518811 -0.0237523 0.74023
-0.0507012 -0.0241219 0.743355
-0.0495149 -0.0244961 0.746564
-0.0483303 -0.0248849 0.750119
-0.137623 -0.00333648 0.697192
-0.136252 -0.00358804 0.696587
-0.134847 -0.00383771 0.695729
-0.133439 -0.00408556 0.694824
-0.132038 -0.00433311 0.693947
-0.130656 -0.00458051 0.693177
-0.129308 -0.00483062 0.692618
-0.128059 -0.00508707 0.692736
-0.126885 -0.00535112 0.693379
-0.12577 -0.00561989 0.694456
-0.124685 -0.00589231 0.695777
-0.123593 -0.00616515 0.697077
-0.122483 -0.00643701 0.698261
-0.121322 -0.00670531 0.699087
-0.120098 -0.00696679 0.699456
-0.118811 -0.00722175 0.699327
-0.117563 -0.00748148 0.699503
-0.107319 -0.00864286 0.677062
-0.106094 -0.00889171 0.677085
-0.104894 -0.00914368 0.677327
-0.103696 -0.00939621 0.67759
-0.102477 -0.00964541 0.677659
-0.101241 -0.00989097 0.677572
-0.100005 -0.0101373 0.677474
-0.0987626 -0.0103813 0.677308
-0.0975368 -0.010628 0.677288
-0.09632 -0.0108762 0.677348
-0.0951189 -0.0111273 0.677559
-0.0939186 -0.0113786 0.677777
-0.0927242 -0.0116311 0.678057
-0.0915494 -0.0118879 0.678543
-0.0903822 -0.0121468 0.67912
-0.0892294 -0.0124097 0.679866
-0.0881381 -0.0126886 0.681305
-0.0871295 -0.0129901 0.683716
-0.0861371 -0.0132984 0.686395
-0.0851987 -0.0136258 0.689795
-0.0843024 -0.0139692 0.693818
-0.0833676 -0.0143084 0.697527
-0.0823625 -0.0146312 0.700512
-0.0813134 -0.0149465 0.703058
-0.080194 -0.0152431 0.704796
-0.0790109 -0.015521 0.705766
-0.0778143 -0.0157957 0.706588
-0.0766016 -0.0160659 0.707216
-0.0753935 -0.0163384 0.707927
-0.0741827 -0.0166118 0.708623
-0.0729846 -0.0168901 0.709529
-0.0717915 -0.0171723 0.710541
-0.0706028 -0.017458 0.711668
-0.0694116 -0.0177437 0.712802
-0.0682109 -0.0180274 0.713817
-0.0669876 -0.0183023 0.714507
-0.0657439 -0.0185688 0.714882
-0.0644967 -0.0188332 0.715179
-0.0632278 -0.0190861 0.715103
-0.0619498 -0.0193336 0.714848
-0.0606612 -0.0195737 0.71434
-0.0593769 -0.0198143 0.713881
-0.0580963 -0.0200559 0.713458
-0.056898 -0.02035 0.714733
-0.0558386 -0.0207428 0.719161
-0.0548053 -0.0211671 0.724496
-0.0537568 -0.0215955 0.729865
-0.0526886 -0.0220252 0.735161
-0.0515632 -0.0224245 0.739397
-0.0503807 -0.0227867 0.742464
-0.0491969 -0.0231581 0.745727
-0.0480175 -0.023546 0.74944
-0.135699 -0.00231622 0.694694
-0.134202 -0.00256179 0.693201
-0.132745 -0.00280753 0.691945
-0.131285 -0.00305191 0.690627
-0.129881 -0.00329823 0.689669
-0.128548 -0.00354922 0.689171
-0.127329 -0.00380692 0.689453
-0.126187 -0.00406993 0.690291
-0.125122 -0.00434019 0.691698
-0.124106 -0.00461459 0.693494
-0.123066 -0.00488968 0.695146
-0.121993 -0.00516274 0.696595
-0.12086 -0.00543092 0.697616
-0.119647 -0.0056933 0.698047
-0.118315 -0.00594361 0.697555
-0.116972 -0.00619188 0.696961
-0.108329 -0.00718306 0.677405
-0.107032 -0.00742315 0.676835
-0.105789 -0.00766941 0.676697
-0.10458 -0.00792016 0.676862
-0.10339 -0.00817334 0.677181
-0.102178 -0.00842369 0.677316
-0.100951 -0.00867132 0.677298
-0.0997231 -0.00891881 0.677278
-0.098497 -0.00916614 0.677262
-0.0972797 -0.00941478 0.677324
-0.0960643 -0.00966353 0.677398
-0.094863 -0.00991468 0.677609
-0.0936616 -0.0101658 0.677819
-0.0924603 -0.010417 0.67803
-0.0912855 -0.0106736 0.67852
-0.090119 -0.0109323 0.679106
-0.0889731 -0.0111959 0.679929
-0.0879081 -0.0114787 0.681667
-0.086958 -0.0117904 0.684753
-0.0860146 -0.0121078 0.688023
-0.0851122 -0.0124399 0.691892
-0.0842231 -0.0127812 0.69606
-0.0832592 -0.0131086 0.699477
-0.082194 -0.0134133 0.701769
-0.0810924 -0.0137105 0.70369
-0.0799427 -0.0139961 0.705061
-0.0787434 -0.0142685 0.705828
-0.0775419 -0.0145411 0.706589
-0.0763287 -0.0148107 0.707214
-0.0751143 -0.0150803 0.707844
-0.0738923 -0.0153481 0.70838
-0.0726884 -0.0156238 0.709199
-0.0714849 -0.0159 0.710055
-0.0702915 -0.0161821 0.711105
-0.0691012 -0.0164665 0.71223
-0.0679005 -0.0167492 0.713247
-0.0666772 -0.0170226 0.713933
-0.0654388 -0.0172906 0.714377
-0.0641913 -0.0175547 0.714668
-0.0629191 -0.017806 0.714518
-0.0616384 -0.0180516 0.714181
-0.060342 -0.0182877 0.713506
-0.0590442 -0.0185209 0.712746
-0.0577502 -0.0187537 0.712003
-0.0565127 -0.0190194 0.712394
-0.0554582 -0.0194067 0.716892
-0.054433 -0.0198265 0.722364
-0.0534014 -0.0202582 0.728115
-0.0523479 -0.0206894 0.733762
-0.0512455 -0.0210993 0.738587
-0.050059 -0.0214533 0.741521
-0.0488743 -0.0218189 0.744769
-0.0476964 -0.0222014 0.748503
-0.131983 -0.00153542 0.688589
-0.130521 -0.00178093 0.687223
-0.129138 -0.00202917 0.686357
-0.12782 -0.00228 0.685925
-0.126607 -0.00253664 0.686219
-0.125469 -0.00279792 0.687051
-0.124418 -0.0030653 0.68852
-0.123443 -0.00333923 0.69058
-0.122453 -0.00361377 0.69258
-0.12143 -0.00388732 0.694366
-0.12033 -0.00415632 0.695617
-0.119127 -0.00441789 0.696098
-0.11778 -0.00466721 0.695464
-0.116404 -0.00491331 0.694582
-0.114792 -0.00513599 0.691781
-0.10967 -0.00694742 0.67833
-0.111081 -0.00552278 0.681929
-0.109464 -0.00573364 0.678785
-0.108066 -0.0059651 0.677387
-0.106761 -0.00620539 0.676734
-0.1055 -0.00645021 0.676448
-0.104278 -0.00669911 0.676488
-0.103075 -0.00695059 0.676696
-0.101864 -0.0072007 0.676827
-0.100646 -0.00744994 0.67689
-0.0994276 -0.00769887 0.676952
-0.0982109 -0.0079479 0.67702
-0.0970019 -0.00819795 0.67716
-0.0957939 -0.00844802 0.677305
-0.0945991 -0.00870029 0.677581
-0.0933982 -0.00895158 0.677797
-0.0921968 -0.00920279 0.678009
-0.0910282 -0.00946002 0.678564
-0.0898611 -0.00971811 0.679149
-0.0887093 -0.00997977 0.679913
-0.0876945 -0.0102706 0.682214
-0.0867985 -0.0105899 0.685934
-0.0858984 -0.0109132 0.689739
-0.0850219 -0.0112472 0.693959
-0.084131 -0.0115836 0.698165
-0.0831115 -0.0118938 0.700963
-0.081991 -0.0121817 0.70261
-0.0808454 -0.0124655 0.703997
-0.0796766 -0.0127441 0.705136
-0.078477 -0.0130155 0.705906
-0.0772759 -0.0132878 0.706681
-0.0760622 -0.0135567 0.707306
-0.0748462 -0.0138256 0.707914
-0.0736127 -0.0140897 0.708291
-0.0724028 -0.0143616 0.709027
-0.0711942 -0.0146354 0.709802
-0.0699956 -0.0149142 0.710772
-0.0687949 -0.0151934 0.711743
-0.0675902 -0.015472 0.712686
-0.0663593 -0.0157415 0.713226
-0.0651179 -0.0160066 0.713602
-0.0638671 -0.0162681 0.713821
-0.0625957 -0.0165201 0.71366
-0.0613127 -0.0167646 0.713239
-0.0600125 -0.0169992 0.712469
-0.0587049 -0.0172271 0.711462
-0.0574014 -0.0174539 0.710469
-0.0561315 -0.0176986 0.710123
-0.0550917 -0.0180856 0.714893
-0.0540807 -0.018505 0.720674
-0.0530703 -0.0189413 0.726925
-0.052031 -0.0193741 0.732925
-0.0509196 -0.0197698 0.737523
-0.049729 -0.0201151 0.740352
-0.0485481 -0.0204776 0.743677
-0.0473724 -0.0208566 0.747473
-0.131138 -0.000271041 0.684657
-0.129764 -0.000521003 0.683845
-0.128455 -0.000772702 0.683449
-0.127163 -0.00102471 0.68317
-0.125956 -0.00128033 0.683473
-0.124821 -0.00153958 0.684293
-0.123766 -0.00180366 0.685708
-0.122787 -0.00207308 0.687712
-0.121795 -0.00234333 0.689656
-0.120799 -0.00261485 0.691625
-0.119737 -0.00288349 0.693126
-0.118551 -0.00314462 0.693708
-0.117213 -0.0033951 0.693116
-0.115834 -0.00364157 0.692177
-0.114239 -0.00386952 0.68947
-0.11251 -0.00408324 0.685597
-0.110798 -0.00429469 0.681756
-0.109235 -0.00451569 0.679041
-0.107835 -0.00474977 0.677629
-0.106512 -0.00498998 0.67683
-0.105233 -0.00523383 0.676392
-0.103997 -0.00548157 0.676308
-0.102778 -0.00573106 0.676368
-0.101553 -0.00597946 0.676368
-0.100344 -0.00622975 0.676506
-0.0991345 -0.00647998 0.676646
-0.0979262 -0.00673021 0.676791
-0.0967248 -0.00698136 0.677002
-0.0955301 -0.00723354 0.677278
-0.0943427 -0.00748682 0.677629
-0.0931489 -0.00773934 0.67792
-0.0919543 -0.0079918 0.678206
-0.0907847 -0.00824856 0.678757
-0.0896103 -0.00850491 0.67927
-0.0885058 -0.00877452 0.680556
-0.08755 -0.00907368 0.683534
-0.0866976 -0.00939717 0.687789
-0.085837 -0.00972427 0.692102
-0.0849758 -0.0100568 0.696566
-0.0840367 -0.0103783 0.700264
-0.0829566 -0.010672 0.702375
-0.0817881 -0.0109473 0.703461
-0.0806036 -0.0112201 0.704378
-0.0794205 -0.0114944 0.705345
-0.0782151 -0.0117636 0.706045
-0.0770087 -0.0120336 0.706756
-0.0757947 -0.0123019 0.707381
-0.0745772 -0.01257 0.707977
-0.0733378 -0.0128318 0.708271
-0.0721225 -0.0131017 0.70893
-0.0709087 -0.0133727 0.70963
-0.0697053 -0.0136481 0.710515
-0.0684989 -0.0139239 0.711396
-0.0672894 -0.0141997 0.712254
-0.0660495 -0.0144652 0.712647
-0.0648048 -0.0147282 0.712945
-0.0635506 -0.0149876 0.713086
-0.062272 -0.0152361 0.712777
-0.0609781 -0.0154758 0.712133
-0.0596728 -0.0157073 0.711195
-0.0583554 -0.0159306 0.70995
-0.0570425 -0.0161532 0.708711
-0.0558165 -0.0164209 0.709252
-0.0547938 -0.0168112 0.714419
-0.0537921 -0.0172282 0.720459
-0.0527939 -0.0176629 0.727041
-0.0517606 -0.0180932 0.733275
-0.0506142 -0.0184578 0.737001
-0.0494137 -0.0187909 0.739535
-0.0482287 -0.0191451 0.74276
-0.0470469 -0.0195126 0.746368
-0.130446 0.000976839 0.681741
-0.129213 0.000722499 0.681863
-0.12797 0.000468425 0.681904
-0.126703 0.000215362 0.681775
-0.125487 -3.91425e-05 0.682
-0.124326 -0.000295947 0.68262
-0.123209 -0.000554879 0.683565
-0.122185 -0.00081848 0.685216
-0.121158 -0.00108318 0.686884
-0.120164 -0.00135077 0.688831
-0.11912 -0.00161718 0.69044
-0.117953 -0.00187771 0.691136
-0.116649 -0.0021304 0.690773
-0.115285 -0.00237877 0.689924
-0.113737 -0.00261352 0.687556
-0.112133 -0.00284211 0.684666
-0.110542 -0.00306875 0.6818
-0.109003 -0.00329659 0.679282
-0.107602 -0.00353328 0.677862
-0.106269 -0.00377442 0.676976
-0.104989 -0.00401919 0.67653
-0.103736 -0.00426603 0.676297
-0.102507 -0.00451478 0.676272
-0.101275 -0.00476287 0.676202
-0.100066 -0.00501322 0.676342
-0.0988571 -0.00526363 0.676488
-0.0976558 -0.00551479 0.676698
-0.0964611 -0.00576678 0.676974
-0.095274 -0.00601984 0.677326
-0.0940945 -0.00627402 0.67776
-0.0929084 -0.00652757 0.678134
-0.0917209 -0.00678121 0.678498
-0.0905437 -0.00703646 0.678978
-0.0893613 -0.00729129 0.67941
-0.0883137 -0.00756866 0.681328
-0.087401 -0.00787163 0.684816
-0.0865855 -0.00819611 0.689531
-0.0857516 -0.00852302 0.694206
-0.084898 -0.00885192 0.698821
-0.0838962 -0.00915661 0.701825
-0.0827736 -0.00943956 0.703455
-0.0815649 -0.00970565 0.704065
-0.0803542 -0.00997182 0.704664
-0.079158 -0.010242 0.70547
-0.0779515 -0.0105105 0.706164
-0.0767402 -0.0107784 0.706814
-0.0755258 -0.0110462 0.707439
-0.0743073 -0.0113136 0.708026
-0.0730624 -0.0115739 0.708245
-0.0718376 -0.0118401 0.708764
-0.070614 -0.0121073 0.709315
-0.0693997 -0.0123784 0.710038
-0.0681843 -0.0126493 0.710751
-0.0669644 -0.0129203 0.711439
-0.0657169 -0.0131816 0.711673
-0.0644645 -0.0134406 0.711809
-0.0631955 -0.013693 0.711647
-0.0619068 -0.0139364 0.711099
-0.0606034 -0.0141717 0.710223
-0.0593595 -0.0144319 0.710448
-0.0581009 -0.0146852 0.710374
-0.0568509 -0.0149425 0.710476
-0.055687 -0.0152454 0.712448
-0.0546698 -0.0156357 0.7179
-0.0525687 -0.0164173 0.728427
-0.0514944 -0.016814 0.733717
-0.0503115 -0.0171486 0.736537
-0.0490993 -0.0174704 0.738769
-0.0479054 -0.0178119 0.741715
-0.0467144 -0.018166 0.745028
-0.131392 0.00246446 0.681449
-0.130125 0.00221036 0.681336
-0.12888 0.00195614 0.68136
-0.127619 0.0017024 0.681272
-0.12637 0.00144855 0.681262
-0.125152 0.00119421 0.68147
-0.123944 0.000939552 0.681749
-0.122775 0.00068369 0.68231
-0.121685 0.000424989 0.683465
-0.120602 0.00016527 0.684695
-0.119565 -9.69574e-05 0.686297
-0.118514 -0.0003597 0.687825
-0.117374 -0.000619724 0.688698
-0.116113 -0.000874331 0.68864
-0.114769 -0.00112468 0.687922
-0.11329 -0.00136662 0.686075
-0.111761 -0.00160396 0.683774
-0.110238 -0.00183951 0.681456
-0.108756 -0.00207547 0.679405
-0.107347 -0.00231436 0.677914
-0.106017 -0.00255749 0.67705
-0.104746 -0.00280415 0.676678
-0.103499 -0.00305226 0.676508
-0.102263 -0.00330091 0.676415
-0.101035 -0.00355002 0.676395
-0.0998248 -0.00380053 0.676526
-0.0986157 -0.00405101 0.676669
-0.0974144 -0.00430236 0.676884
-0.0962266 -0.00455511 0.677231
-0.0950397 -0.00480809 0.677592
-0.0938673 -0.00506298 0.678104
-0.0926888 -0.00531751 0.678564
-0.0915015 -0.0055711 0.67894
-0.0903677 -0.00583222 0.679891
-0.0892479 -0.00609625 0.68102
-0.088257 -0.00638031 0.683599
-0.0873815 -0.0066852 0.68756
-0.0865865 -0.00700771 0.692582
-0.08571 -0.00732216 0.696839
-0.0847908 -0.00763429 0.700747
-0.0837254 -0.00792424 0.703033
-0.0825558 -0.00819694 0.704116
-0.0813214 -0.00845771 0.704419
-0.0800918 -0.00871969 0.704787
-0.0788837 -0.00898643 0.705443
-0.0776718 -0.00925303 0.706068
-0.0764603 -0.00952023 0.706718
-0.0752457 -0.00978736 0.707343
-0.0740271 -0.0100541 0.70793
-0.0727822 -0.0103143 0.708148
-0.0715523 -0.0105788 0.708591
-0.0703232 -0.0108438 0.709059
-0.0690943 -0.0111094 0.709546
-0.0678641 -0.0113746 0.710014
-0.0666305 -0.0116399 0.710459
-0.0653667 -0.0118946 0.710384
-0.0640939 -0.0121456 0.710135
-0.0628127 -0.0123924 0.709702
-0.061583 -0.0126585 0.710198
-0.0603452 -0.0129218 0.710555
-0.0591816 -0.0132175 0.712396
-0.0579601 -0.0134903 0.713159
-0.0567755 -0.0137825 0.714758
-0.0556218 -0.0140932 0.717135
-0.0545584 -0.0144573 0.721746
-0.0534502 -0.0148073 0.725637
-0.0523583 -0.0151758 0.730212
-0.0512364 -0.0155378 0.734391
-0.0500129 -0.0158435 0.736167
-0.0487858 -0.0161514 0.737986
-0.0475731 -0.0164748 0.740381
-0.0463628 -0.0168066 0.743053
-0.0455071 -0.0185154 0.748117
-0.131111 0.00369739 0.681311
-0.129849 0.00344282 0.681228
-0.128599 0.00318833 0.681219
-0.127334 0.00293397 0.681106
-0.126088 0.0026799 0.681111
-0.12485 0.00242571 0.681175
-0.123622 0.00217156 0.681307
-0.122404 0.0019172 0.681511
-0.121245 0.00166174 0.682146
-0.120109 0.00140545 0.682964
-0.119031 0.00114721 0.684239
-0.11795 0.000888099 0.685523
-0.116811 0.000630126 0.686377
-0.115572 0.000375081 0.686465
-0.11426 0.000122967 0.685964
-0.112808 -0.00012287 0.684309
-0.111329 -0.0003658 0.682388
-0.109859 -0.000607444 0.680478
-0.108433 -0.000849616 0.678881
-0.107063 -0.0010932 0.677706
-0.105771 -0.00134025 0.677176
-0.104509 -0.00158861 0.676884
-0.103271 -0.0018381 0.676795
-0.102027 -0.00208684 0.67664
-0.100798 -0.00233637 0.67661
-0.0995862 -0.00258697 0.676732
-0.0983769 -0.00283781 0.676877
-0.097176 -0.0030892 0.6771
-0.0959949 -0.00334265 0.677519
-0.0948143 -0.0035961 0.677949
-0.0936486 -0.00385149 0.678538
-0.0924762 -0.00410651 0.67907
-0.0912946 -0.00436076 0.679517
-0.0902263 -0.00462896 0.681181
-0.0891774 -0.00490104 0.683107
-0.0882528 -0.00519135 0.686468
-0.0874104 -0.00549645 0.690871
-0.0866004 -0.00581111 0.695805
-0.0856456 -0.00610932 0.699227
-0.0846451 -0.00640426 0.702232
-0.0835067 -0.00667991 0.703671
-0.082295 -0.00694432 0.704251
-0.0810595 -0.00720491 0.704544
-0.0798291 -0.00746658 0.704907
-0.0786157 -0.00773186 0.705501
-0.0774034 -0.00799782 0.706126
-0.076191 -0.00826434 0.706768
-0.0749706 -0.00852962 0.707317
-0.0737469 -0.00879461 0.707834
-0.0725021 -0.00905486 0.708052
-0.0712668 -0.00931765 0.708416
-0.0700275 -0.00957947 0.708725
-0.0687831 -0.00984012 0.708959
-0.0675341 -0.010099 0.709106
-0.0662832 -0.0103578 0.709231
-0.065007 -0.0106081 0.708914
-0.0637152 -0.0108521 0.708281
-0.0624983 -0.0111208 0.708964
-0.0613418 -0.0114131 0.710834
-0.0601791 -0.0117061 0.712684
-0.0590932 -0.0120335 0.716187
-0.0579626 -0.0123484 0.718974
-0.0567873 -0.012649 0.720991
-0.0556372 -0.0129657 0.723705
-0.0545121 -0.0132996 0.727159
-0.0533284 -0.0136113 0.729485
-0.0521635 -0.0139383 0.732441
-0.0509887 -0.0142658 0.735351
-0.0497216 -0.0145435 0.735995
-0.0484767 -0.0148371 0.737309
-0.0472425 -0.0151417 0.739061
-0.046013 -0.0154542 0.741109
-0.132118 0.00518587 0.681422
-0.130835 0.00493025 0.681204
-0.129571 0.00467507 0.681103
-0.128317 0.00442023 0.681071
-0.127039 0.00416542 0.68086
-0.125792 0.00391087 0.680863
-0.124545 0.00365661 0.680861
-0.123307 0.00340242 0.680916
-0.12207 0.00314823 0.680974
-0.120872 0.00289401 0.681323
-0.119688 0.0026394 0.681771
-0.11856 0.00238398 0.682656
-0.117442 0.00212787 0.683636
-0.116278 0.00187214 0.684269
-0.115041 0.00161751 0.68435
-0.113735 0.00136484 0.683863
-0.112337 0.00111527 0.682623
-0.11091 0.00086773 0.681092
-0.10949 0.000621384 0.67958
-0.108111 0.000374819 0.678366
-0.106789 0.000127047 0.677597
-0.105507 -0.000121642 0.677149
-0.104255 -0.0003712 0.676937
-0.103026 -0.000621719 0.676935
-0.101791 -0.000871593 0.676855
-0.100569 -0.00112216 0.676901
-0.0993561 -0.00137311 0.677018
-0.0981543 -0.00162456 0.677241
-0.0969603 -0.00187677 0.677539
-0.0957862 -0.00213061 0.678036
-0.0946179 -0.00238503 0.678599
