ply
format ascii 1.0
element vertex 1672
property float x
property float y
property float z
end_header
0.0470671 0.0692859 0.280461
0.0477634 0.0688865 0.28136
0.048469 0.0685048 0.28235
0.049179 0.0681278 0.28337
0.049898 0.0677631 0.284457
0.0506225 0.0674064 0.285592
0.0513584 0.0670661 0.286814
0.0520733 0.0666707 0.287787
0.0527943 0.0662835 0.288807
0.0535025 0.0658615 0.289673
0.0542178 0.065448 0.290586
0.0549207 0.0650038 0.291358
0.0556398 0.0645886 0.29228
0.0563672 0.0641857 0.293269
0.057114 0.0638137 0.294421
0.0579057 0.0635242 0.295995
0.058822 0.0634646 0.298729
0.0597524 0.0634142 0.301539
0.0606708 0.0633219 0.304171
0.0615688 0.0631767 0.306563
0.0623969 0.0628916 0.308265
0.0630924 0.062361 0.308727
0.0637931 0.0618372 0.309228
0.0644889 0.061304 0.309683
0.0651798 0.06076 0.310083
0.0658893 0.0602459 0.310647
0.066621 0.0597643 0.311386
0.0673453 0.0592685 0.312057
0.068091 0.0588035 0.312897
0.0688563 0.0583633 0.313881
0.069597 0.0578823 0.314654
0.0702284 0.0575567 0.319885
0.070318 0.0573674 0.315248
0.0126677 0.097796 0.261214
0.013283 0.0971749 0.261122
0.0138972 0.0965411 0.26098
0.0145027 0.0958045 0.260475
0.0151062 0.0950631 0.259946
0.0157021 0.0942575 0.259184
0.0162998 0.0934994 0.258582
0.016895 0.0927366 0.257957
0.0174875 0.0919677 0.257303
0.0180891 0.091311 0.25705
0.0186959 0.0907087 0.256989
0.0193033 0.090119 0.256973
0.0199206 0.0896192 0.257287
0.0205523 0.0892295 0.258008
0.0211949 0.0889122 0.259002
0.0218459 0.0886413 0.260178
0.0225021 0.0883869 0.261425
0.0231568 0.0880986 0.262552
0.0238299 0.0879165 0.264091
0.0244954 0.087658 0.265352
0.0251742 0.0874633 0.266867
0.0258588 0.0872793 0.268435
0.0265431 0.0870702 0.269919
0.0271947 0.0866544 0.270617
0.0278355 0.0861726 0.271064
0.0284595 0.0855978 0.271151
0.0290765 0.0849876 0.271099
0.0296915 0.0843709 0.27102
0.0303237 0.08384 0.271275
0.0309588 0.0833232 0.27159
0.0316006 0.0828325 0.272009
0.032235 0.0823067 0.27229
0.0328679 0.0817734 0.272543
0.0334864 0.0811776 0.272542
0.0341097 0.0806035 0.272628
0.0347254 0.0799998 0.272593
0.0353498 0.0794334 0.27271
0.0359777 0.07888 0.272879
0.0366118 0.0783493 0.273142
0.0372495 0.0778314 0.273461
0.0378919 0.0773281 0.273842
0.0385381 0.0768348 0.274266
0.0391873 0.0763499 0.274731
0.0398336 0.0758517 0.275141
0.0404699 0.0753189 0.275405
0.0411058 0.0747834 0.27566
0.0417382 0.0742361 0.275862
0.0423786 0.0737127 0.27617
0.0430246 0.0732049 0.276549
0.043676 0.0727105 0.276988
0.0443272 0.0722129 0.277416
0.0449817 0.0717218 0.277874
0.0456334 0.0712202 0.278288
0.0462986 0.0707536 0.278865
0.0469758 0.0703135 0.279563
0.0476634 0.0698962 0.280371
0.0483557 0.0694854 0.281216
0.0490585 0.0690942 0.282159
0.0497727 0.0687247 0.283209
0.0504915 0.0683591 0.284288
0.0512134 0.0679925 0.285372
0.0519493 0.067652 0.286587
0.0526655 0.0672576 0.287562
0.0533831 0.0668613 0.288534
0.0540885 0.0664314 0.289357
0.0547997 0.0660085 0.29022
0.0555021 0.0655632 0.290984
0.0562213 0.0651471 0.291897
0.0569498 0.064745 0.292885
0.0577175 0.0644149 0.294235
0.0585688 0.0642391 0.29636
0.0595231 0.0642464 0.299416
0.0604862 0.0642506 0.302488
0.0614261 0.0641925 0.305283
0.0623199 0.0640332 0.307598
0.0631083 0.0636699 0.308904
0.063785 0.0631033 0.309185
0.0644685 0.0625479 0.309525
0.0651536 0.0619928 0.309868
0.0658325 0.0614275 0.310161
0.0665365 0.0609022 0.310666
0.0672625 0.0604107 0.311351
0.0679937 0.0599242 0.312069
0.0687399 0.0594581 0.312903
0.0694988 0.0590074 0.313829
0.070233 0.0585144 0.314534
0.0709467 0.0579889 0.315069
0.0715584 0.0576157 0.320045
0.0716467 0.0574394 0.315478
0.0126079 0.0988074 0.260447
0.0132246 0.0982126 0.260447
0.0138392 0.097593 0.260358
0.0144513 0.0969463 0.260172
0.0150544 0.0961959 0.259619
0.0156553 0.0954415 0.259044
0.0162493 0.0946326 0.258271
0.0168442 0.0938611 0.257623
0.0174363 0.0930868 0.256959
0.0180286 0.0923327 0.256358
0.018628 0.0916645 0.256061
0.0192317 0.0910505 0.255958
0.0198352 0.0904374 0.255854
0.0204487 0.0899122 0.25607
0.0210732 0.0894723 0.2566
0.0217092 0.0891121 0.257427
0.0223505 0.0887754 0.258348
0.0229998 0.0884798 0.259429
0.023644 0.0881316 0.26032
0.0243073 0.0878947 0.261638
0.0249641 0.0875957 0.262731
0.0256581 0.0875054 0.264624
0.0263628 0.0874477 0.266658
0.0270734 0.0873919 0.268715
0.0277491 0.0871144 0.269938
0.0284153 0.0867694 0.270911
0.0290436 0.0862149 0.271077
0.0296607 0.0856047 0.271027
0.0302759 0.0849887 0.270952
0.0309058 0.0844449 0.271158
0.0315357 0.0839008 0.271364
0.0321689 0.0833711 0.271628
0.0328023 0.0828416 0.271895
0.0334367 0.0823145 0.272171
0.0340619 0.0817475 0.272287
0.0346891 0.0811893 0.272439
0.0353077 0.0805966 0.272449
0.035929 0.0800168 0.272511
0.0365534 0.0794499 0.272626
0.0371813 0.078896 0.272793
0.0378156 0.0783658 0.27306
0.0384537 0.0778472 0.273375
0.0390965 0.0773426 0.27375
0.0397424 0.0768466 0.274165
0.0403888 0.0763496 0.274578
0.0410255 0.0758183 0.274846
0.0416615 0.0752844 0.275105
0.0422968 0.0747478 0.275354
0.0429413 0.0742372 0.275715
0.0435951 0.0737522 0.27619
0.0442548 0.0732816 0.276731
0.0449148 0.0728076 0.277261
0.0455742 0.0723293 0.277777
0.0462346 0.0718501 0.27829
0.0469019 0.0713864 0.278879
0.0475797 0.0709458 0.279574
0.0482684 0.0705283 0.280378
0.048957 0.0701059 0.281169
0.049652 0.0696934 0.28201
0.0503622 0.069312 0.283002
0.0510729 0.0689246 0.283977
0.0517906 0.0685479 0.285007
0.0525278 0.0682082 0.28622
0.053245 0.0678152 0.287196
0.0539638 0.0674203 0.288171
0.0546745 0.0670013 0.28904
0.0553858 0.0665786 0.289901
0.0560939 0.066143 0.290709
0.0568143 0.0657292 0.291628
0.0575489 0.0653381 0.292663
0.0583204 0.0650139 0.294037
0.059218 0.0649241 0.296572
0.0601952 0.0649717 0.299809
0.0611777 0.065007 0.303024
0.0621214 0.0649499 0.305813
0.0630227 0.0647984 0.308159
0.0637788 0.0643746 0.309157
0.0644505 0.0637967 0.309384
0.0651343 0.0632398 0.30972
0.0658134 0.0626729 0.310007
0.0664877 0.0620981 0.310252
0.0671864 0.0615628 0.310704
0.0679066 0.0610605 0.311332
0.0686315 0.0605626 0.311987
0.069371 0.0600849 0.312757
0.0701234 0.0596231 0.313619
0.0708503 0.0591188 0.314262
0.0715583 0.0585833 0.314743
0.0722575 0.0580334 0.315149
0.0728832 0.0576661 0.320157
0.0729566 0.0574822 0.31555
0.0131661 0.0992471 0.259764
0.013782 0.0986477 0.259746
0.0143955 0.0980227 0.259638
0.0150039 0.0973411 0.25933
0.015604 0.0965751 0.258724
0.0162004 0.0957898 0.258043
0.0167911 0.0949641 0.257211
0.0173819 0.0941707 0.256486
0.0179727 0.0933987 0.255828
0.0185656 0.092672 0.255327
0.0191652 0.0920201 0.255088
0.0197685 0.0914092 0.254993
0.0203702 0.0907932 0.254878
0.0209807 0.0902526 0.255035
0.0215996 0.0897737 0.255416
0.0222247 0.0893381 0.25596
0.0228551 0.0889325 0.256618
0.0234924 0.0885628 0.257413
0.0241221 0.0881295 0.257976
0.0247712 0.0878139 0.258984
0.0254167 0.087461 0.25986
0.0261019 0.0873309 0.261583
0.026827 0.0874037 0.264089
0.0275632 0.0874997 0.266706
0.028269 0.0873909 0.268561
0.0289672 0.0872173 0.270182
0.0296259 0.0868217 0.270961
0.0302408 0.0862004 0.27087
0.0308562 0.085584 0.270794
0.0314806 0.0850148 0.270903
0.032105 0.084445 0.271008
0.0327378 0.0839125 0.271259
0.0333746 0.083397 0.271579
0.0340122 0.0828834 0.271909
0.0346472 0.0823566 0.272187
0.0352782 0.0818122 0.272395
0.0358937 0.0812067 0.272357
0.0365114 0.0806125 0.272362
0.0371317 0.0800296 0.272412
0.0377466 0.0794283 0.272386
0.0383706 0.0788607 0.272496
0.0390009 0.0783162 0.272701
0.0396388 0.0777969 0.273014
0.0402786 0.0772822 0.273346
0.0409325 0.0768119 0.273868
0.0415801 0.0763168 0.274286
0.0422272 0.0758184 0.274694
0.0428712 0.0753076 0.275052
0.0435268 0.0748302 0.275556
0.0441855 0.0743581 0.276085
0.0448501 0.0738993 0.276678
0.0455115 0.0734276 0.277216
0.0461725 0.0729514 0.27774
0.0468339 0.0724731 0.278258
0.0475015 0.0720078 0.278838
0.0481764 0.0715578 0.279489
0.0488649 0.0711379 0.280281
0.0495501 0.0707051 0.281023
0.0502405 0.07028 0.281804
0.0509472 0.0698882 0.282744
0.051654 0.0694899 0.283664
0.0523681 0.0691037 0.284645
0.0531069 0.0687657 0.285861
0.0538245 0.0683728 0.286832
0.0545442 0.0679795 0.287809
0.0552602 0.0675709 0.288724
0.0559678 0.0671393 0.289539
0.0566666 0.0666843 0.29025
0.0573823 0.0662603 0.291113
0.058108 0.0658506 0.292056
0.0589351 0.0656349 0.293943
0.0599027 0.0656787 0.297115
0.0609118 0.0657794 0.300601
0.0619098 0.0658369 0.303912
0.0628718 0.0658067 0.306825
0.0637154 0.0655451 0.308617
0.0644143 0.0650153 0.309084
0.0650862 0.0644371 0.309312
0.0657705 0.06388 0.309646
0.0664445 0.0633038 0.309884
0.0671246 0.0627379 0.310177
0.0678297 0.062212 0.310678
0.068544 0.0616992 0.31125
0.069263 0.0611909 0.311851
0.069996 0.0607024 0.312558
0.0707426 0.0602303 0.313365
0.0714631 0.0597165 0.313953
0.0721708 0.0591799 0.314425
0.0728693 0.0586292 0.314824
0.0735681 0.058077 0.31522
0.0742168 0.0577258 0.32032
0.0742691 0.0575272 0.315631
0.0137256 0.0997201 0.259199
0.0143409 0.099121 0.259182
0.0149527 0.0984832 0.25903
0.0155573 0.0977656 0.258598
0.0161536 0.0969687 0.257885
0.0167459 0.0961535 0.2571
0.0173319 0.0953003 0.256174
0.0179207 0.0945061 0.255447
0.018511 0.0937503 0.254849
0.0191057 0.0930522 0.254448
0.0197044 0.0924028 0.254216
0.0203051 0.0917813 0.254083
0.0209024 0.0911387 0.253871
0.0215072 0.0905592 0.253883
0.0221176 0.0900287 0.254073
0.022733 0.0895296 0.254377
0.0233543 0.0890693 0.254825
0.0239795 0.0886307 0.255357
0.0245961 0.0881275 0.255652
0.0252298 0.0877291 0.256338
0.0258624 0.0873154 0.256973
0.0265299 0.0870948 0.258336
0.0272419 0.0871055 0.260583
0.0280017 0.0873437 0.263713
0.028739 0.0874148 0.266231
0.0294726 0.0874323 0.268569
0.0301705 0.0872376 0.270109
0.0308196 0.0867878 0.27068
0.0314349 0.0861716 0.270607
0.0320614 0.0856101 0.270745
0.0326831 0.0850278 0.270801
0.033316 0.0844954 0.271054
0.0339589 0.084005 0.271474
0.0346007 0.0835055 0.271859
0.0352365 0.0829807 0.272146
0.0358677 0.0824349 0.27235
0.0364797 0.0818154 0.272257
0.0370901 0.0811933 0.272151
0.0377069 0.0805969 0.272147
0.0383085 0.0799482 0.271927
0.0389207 0.0793412 0.271876
0.039545 0.0787778 0.272003
0.0401792 0.078247 0.272263
0.0408196 0.0777361 0.272607
0.041485 0.0773036 0.273283
0.0421477 0.0768574 0.273906
0.0428038 0.0763858 0.274427
0.0434564 0.0759009 0.274895
0.0441177 0.0754383 0.27546
0.044778 0.074969 0.276
0.0454431 0.0745098 0.276589
0.0461052 0.0740383 0.277129
0.0467664 0.0735608 0.277645
0.0474286 0.0730828 0.278164
0.0480964 0.0726164 0.278737
0.0487714 0.0721649 0.279381
0.049456 0.0717336 0.28012
0.0501379 0.0712905 0.280812
0.0508245 0.0708546 0.281542
0.0515274 0.0704524 0.28243
0.0522299 0.0700438 0.283299
0.0529448 0.0696573 0.284275
0.0536794 0.0693099 0.28544
0.0543983 0.068919 0.286416
0.0551237 0.0685369 0.287439
0.0558411 0.0681298 0.288357
0.0565494 0.0676992 0.289172
0.0572485 0.0672446 0.289881
0.0579644 0.0668202 0.290739
0.0586795 0.0663893 0.291575
0.0595008 0.0661602 0.293387
0.0605326 0.066325 0.297125
0.0615606 0.0664565 0.300742
0.0625716 0.0665329 0.304131
0.0635527 0.0665335 0.30718
0.0644078 0.0662884 0.309051
0.0650516 0.0656598 0.309026
0.0657309 0.0650937 0.309314
0.0664227 0.0645479 0.309706
0.0671033 0.063982 0.309999
0.0677908 0.0634262 0.310345
0.0684971 0.0629005 0.310849
0.0691993 0.0623668 0.311313
0.069912 0.0618467 0.311852
0.070639 0.0613471 0.312503
0.0713733 0.0608555 0.313203
0.0720887 0.0603329 0.313741
0.0727958 0.0597948 0.314208
0.0734873 0.0592336 0.31455
0.0741853 0.0586804 0.314937
0.0748867 0.05813 0.315344
0.0755334 0.0577603 0.320344
0.0755975 0.0575923 0.315821
0.0142795 0.100121 0.258391
0.014894 0.0995248 0.258382
0.0155046 0.0988794 0.258202
0.0161067 0.0981515 0.257736
0.0167 0.0973388 0.25697
0.0172889 0.0965068 0.256128
0.0178727 0.0956525 0.2552
0.0184597 0.0948609 0.254484
0.01905 0.0941184 0.253932
0.0196461 0.0934452 0.253619
0.0202452 0.0928106 0.253441
0.0208434 0.092177 0.253264
0.021438 0.0915215 0.253004
0.0220376 0.0909118 0.252906
0.0226435 0.0903539 0.252993
0.0232509 0.0898065 0.253118
0.0238621 0.0892861 0.253341
0.0244745 0.088773 0.253592
0.0250752 0.0881831 0.25356
0.025688 0.0876692 0.253807
0.026302 0.0871635 0.254087
0.0269507 0.0868515 0.255092
0.0276443 0.0867736 0.256983
0.028425 0.0871346 0.260546
0.0291985 0.0874037 0.263789
0.0299728 0.0876327 0.266912
0.0307164 0.0876663 0.269313
0.0314091 0.0874251 0.270679
0.0320241 0.0868069 0.270602
0.0326507 0.0862437 0.270735
0.033275 0.0856712 0.270832
0.0339037 0.0851188 0.271008
0.0345479 0.0846306 0.271435
0.0351905 0.0841327 0.271828
0.0358262 0.0836043 0.272101
0.0364513 0.0830334 0.272205
0.0370623 0.0824097 0.272096
0.037669 0.0817732 0.271935
0.0382727 0.0811307 0.271747
0.0388629 0.0804433 0.271372
0.0394638 0.0797982 0.271163
0.0400825 0.0792185 0.271221
0.0407123 0.078676 0.27143
0.0413632 0.0782019 0.271926
0.0420381 0.0777989 0.272718
0.0427126 0.0773895 0.273492
0.0433773 0.0769443 0.274122
0.0440392 0.0764855 0.274696
0.0447024 0.0760273 0.275279
0.045367 0.0755683 0.275862
0.0460323 0.0751084 0.276447
0.0466901 0.0746235 0.276927
0.047347 0.0741336 0.277389
0.0480129 0.0736644 0.277944
0.0486777 0.0731889 0.278475
0.0493576 0.0727485 0.279165
0.0500388 0.0723072 0.279858
0.0507202 0.0718623 0.28054
0.0514035 0.0714172 0.281225
0.0521022 0.0710039 0.282062
0.0528004 0.0705852 0.282878
0.0535159 0.0701985 0.28385
0.0542463 0.0698405 0.28496
0.0549613 0.0694407 0.285888
0.0556874 0.0690598 0.28691
0.0564054 0.0686549 0.287833
0.0571152 0.0682259 0.288651
0.0578139 0.0677714 0.289355
0.0585287 0.0673439 0.290195
0.0592364 0.0668986 0.290956
0.0600466 0.0666481 0.292654
0.0610924 0.0668365 0.296485
0.0621383 0.066999 0.300228
0.0631627 0.0670989 0.303709
0.0641711 0.0671455 0.306967
0.0650522 0.0669454 0.309047
0.0657022 0.0663265 0.309076
0.0663946 0.0657811 0.309469
0.0670876 0.0652359 0.309867
0.0677645 0.064662 0.31012
0.0684466 0.0640964 0.310418
0.0691475 0.0635605 0.310868
0.0698372 0.0630051 0.311222
0.0705493 0.062483 0.311751
0.0712758 0.0619822 0.312393
0.0720047 0.0614808 0.313039
0.0727138 0.0609482 0.313525
0.0734205 0.0604098 0.313986
0.0741055 0.0598382 0.314273
0.0747968 0.0592751 0.314607
0.075498 0.0587248 0.315012
0.076209 0.058187 0.315488
0.0154498 0.0999728 0.257736
0.0160587 0.0993186 0.257526
0.0166593 0.098583 0.257034
0.0172506 0.0977688 0.256266
0.0178365 0.0969222 0.255377
0.0184172 0.0960574 0.254416
0.0190032 0.0952672 0.253705
0.0195919 0.0945255 0.253158
0.0201869 0.0938521 0.252845
0.0207852 0.0932179 0.252667
0.0213807 0.0925718 0.252445
0.0219722 0.0919017 0.252133
0.022567 0.0912649 0.251936
0.0231685 0.0906817 0.251929
0.0237706 0.0901081 0.251957
0.0243789 0.0895767 0.252136
0.0249889 0.089054 0.252347
0.0255917 0.0884879 0.252399
0.0261898 0.0878952 0.252352
0.0267875 0.0873038 0.252309
0.0274063 0.0868328 0.252711
0.0280669 0.0865847 0.253948
0.0303785 0.0873768 0.263539
0.031172 0.0876636 0.266879
0.0319167 0.0876761 0.269199
0.0325781 0.0872783 0.269964
0.0332469 0.0869061 0.270833
0.0338691 0.086321 0.270883
0.0344958 0.0857572 0.271015
0.0351375 0.0852566 0.271395
0.0357774 0.0847451 0.271733
0.0364099 0.0842029 0.271953
0.0370253 0.0835937 0.271906
0.0376167 0.0828983 0.271515
0.0382029 0.0821896 0.271064
0.0387918 0.0814965 0.270669
0.0393663 0.0807614 0.270101
0.0399617 0.0801042 0.269842
0.0405928 0.0795709 0.270083
0.0412359 0.0790763 0.270486
0.0419027 0.0786545 0.27119
0.042592 0.0782985 0.272175
0.043279 0.0779267 0.273099
0.0439516 0.0775045 0.273822
0.0446218 0.0770695 0.274496
0.0452856 0.0766115 0.275078
0.0459542 0.0761626 0.275702
0.0466158 0.0756906 0.276232
0.0472645 0.0751799 0.276601
0.0479172 0.0746782 0.277012
0.0485792 0.0741986 0.277519
0.0492366 0.0737041 0.277964
0.0499171 0.0732653 0.278659
0.0505987 0.0728247 0.279349
0.0512808 0.0723811 0.280032
0.0519682 0.0719461 0.28076
0.0526676 0.0715343 0.281596
0.053362 0.0711051 0.282362
0.0540759 0.0707163 0.283317
0.0548025 0.0703478 0.284373
0.0555174 0.0699482 0.285297
0.056244 0.0695684 0.28632
0.0569684 0.0691761 0.287294
0.0576829 0.0687587 0.288161
0.0583825 0.0683047 0.288863
0.0590921 0.0678679 0.289653
0.0597937 0.0674099 0.290352
0.0605793 0.0671109 0.291808
0.06157 0.067193 0.295103
0.062614 0.0673522 0.298804
0.0636628 0.0674968 0.302476
0.0647001 0.0675962 0.305967
0.065626 0.0674762 0.308424
0.0663401 0.0669697 0.309005
0.067039 0.0664361 0.309455
0.0677333 0.065891 0.309854
0.0684105 0.065317 0.310109
0.0690997 0.0647616 0.310459
0.0698012 0.064225 0.310907
0.0704842 0.0636579 0.311203
0.0711884 0.0631227 0.311663
0.0719079 0.0626094 0.312238
0.0726238 0.0620876 0.312778
0.0733256 0.0615436 0.313205
0.0740323 0.0610049 0.313662
0.0747167 0.0604326 0.313943
0.075409 0.0598706 0.314282
0.0761112 0.0593212 0.314693
0.0768237 0.0587856 0.315177
0.0774991 0.058438 0.32027
0.0775439 0.0582578 0.315709
0.0153941 0.101051 0.257218
0.0160077 0.100456 0.257213
0.0166128 0.0997688 0.256892
0.0172115 0.099025 0.256374
0.0178026 0.0982224 0.255648
0.0183859 0.0973664 0.25473
0.0189639 0.0964892 0.253729
0.019547 0.0956855 0.252973
0.020134 0.0949431 0.252426
0.0207264 0.0942569 0.252068
0.021322 0.0936103 0.251847
0.0219153 0.0929526 0.251581
0.022505 0.0922809 0.251264
0.0230971 0.0916315 0.251021
0.0236951 0.0910348 0.250965
0.0242966 0.0904615 0.250989
0.0249039 0.0899304 0.251167
0.0255111 0.0893961 0.251333
0.026115 0.0888442 0.251435
0.0267123 0.0882536 0.251394
0.0273095 0.0876649 0.251357
0.0279022 0.0870557 0.251244
0.028531 0.0866431 0.25186
0.0288114 0.0867598 0.256784
0.0292404 0.0866369 0.253996
0.0295688 0.0869584 0.259732
0.0299645 0.0866755 0.256319
0.0315816 0.0874609 0.263709
0.0323746 0.0877067 0.266891
0.0330842 0.087538 0.26852
0.0337983 0.0873672 0.270153
0.0344615 0.0869621 0.270898
0.0350877 0.0863943 0.271016
0.0357267 0.0858791 0.271339
0.0363629 0.0853511 0.271614
0.0369891 0.0847824 0.271729
0.0375974 0.0841472 0.271582
0.0381691 0.08338 0.270907
0.0387355 0.0826038 0.27019
0.0393034 0.0818426 0.269523
0.0398651 0.0810682 0.268794
0.0404454 0.0803676 0.268357
0.0410848 0.0798674 0.268728
0.0417466 0.0794377 0.269388
0.0424293 0.0790699 0.270309
0.0431349 0.078765 0.271496
0.0438376 0.0784406 0.272611
0.0445249 0.0780618 0.273511
0.0451956 0.0776276 0.274186
0.0458638 0.0771806 0.274811
0.0465325 0.0767314 0.275433
0.0471896 0.0762459 0.275905
0.0478305 0.075714 0.276181
0.0484782 0.0751987 0.27653
0.0491359 0.0747082 0.276988
0.0497893 0.074204 0.277389
0.0504707 0.0737673 0.278087
0.0511523 0.0733272 0.278776
0.0518392 0.0728951 0.279506
0.0525316 0.0724722 0.280282
0.0532326 0.0720633 0.281128
0.0539271 0.0716341 0.281891
0.054641 0.0712443 0.282836
0.0553571 0.0708541 0.283786
0.0560674 0.0704428 0.284652
0.0567948 0.0700649 0.285675
0.0575189 0.0696732 0.286647
0.0582298 0.0692482 0.287471
0.0589297 0.068796 0.288179
0.0596396 0.0683604 0.288968
0.0603318 0.0678844 0.289576
0.0611133 0.0675779 0.290989
0.0620671 0.0675877 0.293918
0.0631297 0.0677814 0.297759
0.064201 0.0679664 0.301598
0.0652727 0.0681269 0.305361
0.0662255 0.0680533 0.308029
0.0670051 0.0676606 0.309163
0.0677057 0.0671272 0.309617
0.0684005 0.0665822 0.310017
0.0690838 0.0660162 0.310315
0.0697795 0.0654698 0.310713
0.0704755 0.0649222 0.311106
0.0711522 0.0643433 0.311343
0.0718494 0.0637956 0.311742
0.0725553 0.0632596 0.312203
0.073257 0.0627159 0.312626
0.0739515 0.0621599 0.312989
0.0746574 0.0616205 0.31344
0.0753423 0.0610477 0.313721
0.076043 0.0604978 0.314123
0.0767468 0.0599503 0.314543
0.0774601 0.0594147 0.315028
0.0781805 0.0588866 0.315558
0.0159609 0.101645 0.257071
0.016568 0.100972 0.256802
0.0171683 0.10024 0.256332
0.0177651 0.0994863 0.255782
0.0183565 0.0986989 0.25511
0.0189382 0.0978419 0.254192
0.0195142 0.096961 0.253182
0.0200939 0.0961426 0.252381
0.0206783 0.0953842 0.251778
0.0212679 0.0946854 0.251378
0.0218611 0.0940266 0.251113
0.0224513 0.0933547 0.250798
0.02304 0.0926824 0.250479
0.0236292 0.0920224 0.250198
0.0242234 0.091405 0.250067
0.0248235 0.0908309 0.250087
0.0254279 0.0902861 0.250213
0.0260341 0.089752 0.250375
0.0266394 0.0892139 0.250525
0.0272384 0.0886389 0.250539
0.0278367 0.0880633 0.25055
0.0284329 0.0874771 0.25052
0.0290325 0.0869134 0.250572
0.0297064 0.0867267 0.252024
0.0303905 0.0865716 0.253607
0.0327666 0.0874549 0.263535
0.0335244 0.0875144 0.266011
0.0342873 0.0875634 0.268466
0.0349989 0.0873675 0.270002
0.0356593 0.0869442 0.270676
0.0362945 0.0864138 0.27094
0.0369211 0.085848 0.271065
0.0375338 0.0852298 0.270987
0.0381187 0.0845109 0.27051
0.038676 0.0836984 0.269658
0.0392248 0.0828664 0.268717
0.0397796 0.0820684 0.267903
0.0403405 0.0813021 0.267207
0.0409303 0.0806409 0.266925
0.0415744 0.0801621 0.267375
0.0422555 0.0797982 0.268296
0.0429617 0.0795057 0.269516
0.0436821 0.0792459 0.270879
0.0444014 0.0789718 0.272198
0.0451091 0.0786515 0.273334
0.0457807 0.078218 0.27401
0.0464421 0.0777502 0.274546
0.0471072 0.0772895 0.275117
0.047756 0.0767809 0.275489
0.0483884 0.0762263 0.275668
0.0490313 0.0756991 0.275964
0.0496885 0.0752078 0.276416
0.0503368 0.0746913 0.276761
0.0510214 0.0742635 0.277494
0.0517035 0.0738244 0.278182
0.0523955 0.0734052 0.278965
0.0530904 0.0729871 0.279759
0.0537969 0.0725918 0.280658
0.0544873 0.0721532 0.281374
0.055201 0.0717623 0.28231
0.055907 0.0713497 0.283154
0.0566172 0.0709389 0.284015
0.057345 0.0705611 0.285035
0.0580704 0.0701722 0.286011
0.0587813 0.0697472 0.286832
0.0594912 0.0693162 0.287631
0.0602082 0.0688947 0.288479
0.0609071 0.0684326 0.289148
0.0616368 0.0680251 0.29008
0.0625316 0.0679236 0.292466
0.0635888 0.0681072 0.296229
0.0646664 0.0683039 0.300097
0.0657683 0.0685194 0.304097
0.0668158 0.0686137 0.307555
0.0676823 0.0683718 0.309416
0.0683975 0.0678603 0.309979
0.0690936 0.0673152 0.310379
0.0697769 0.0667473 0.310671
0.0704666 0.0661891 0.311012
0.0711504 0.0656203 0.311301
0.071822 0.0650313 0.311491
0.0725126 0.0644713 0.311829
0.0732037 0.0639115 0.312169
0.0738906 0.0633444 0.312473
0.0745767 0.0627757 0.312771
0.075283 0.0622354 0.313219
0.0759695 0.0616651 0.31351
0.076679 0.0611263 0.313974
0.0773908 0.0605904 0.31445
0.0781044 0.060054 0.31493
0.0788247 0.0595255 0.315456
0.0159354 0.103102 0.257816
0.0165369 0.102341 0.257263
0.0171373 0.101593 0.256746
0.0177316 0.100799 0.256071
0.0183223 0.0999933 0.255347
0.0189113 0.0991925 0.254633
0.0194888 0.0983086 0.253627
0.0200616 0.0974129 0.252571
0.0206377 0.0965753 0.251706
0.0212189 0.0958024 0.251056
0.0218056 0.0950903 0.25061
0.0223976 0.09443 0.250339
0.0229883 0.0937704 0.250068
0.0235757 0.0930979 0.249749
0.0241642 0.0924405 0.249478
0.0247576 0.0918232 0.249345
0.0253553 0.0912368 0.24932
0.0259565 0.0906782 0.249394
0.0265618 0.0901436 0.249554
0.0271667 0.0896072 0.249706
0.0277673 0.0890464 0.24977
0.0283675 0.0884844 0.249829
0.0289668 0.0879205 0.249881
0.0295711 0.0873833 0.250029
0.0302137 0.0870366 0.250882
0.0308614 0.0867051 0.251799
0.0311302 0.0866609 0.256119
0.0315596 0.0865997 0.253565
0.0319292 0.0869936 0.259568
0.0323154 0.0867368 0.256256
0.0338953 0.0872054 0.262442
0.0346796 0.0873592 0.26527
0.0354323 0.0873475 0.267491
0.0361269 0.0870745 0.268728
0.0367829 0.0866351 0.269333
0.0374247 0.0861364 0.269714
0.0380393 0.0855328 0.269689
0.0386108 0.0847717 0.269045
0.0391546 0.0839197 0.268036
0.0396961 0.0830731 0.267039
0.0402479 0.082275 0.266222
0.0408166 0.0815444 0.265665
0.0414125 0.0809111 0.265491
0.0420595 0.0804469 0.265994
0.0427583 0.080143 0.267148
0.0434801 0.0799006 0.268561
0.0442155 0.0796869 0.270104
0.0449498 0.0794565 0.271592
0.0456831 0.0792104 0.273028
0.0463564 0.0787803 0.273715
0.0470179 0.0783128 0.274253
0.0476827 0.07785 0.274812
0.0483265 0.0773277 0.275126
0.0489502 0.07675 0.275206
0.0495883 0.0762111 0.275452
0.0502451 0.0757187 0.275895
0.0508837 0.0751783 0.276136
0.0515677 0.0747497 0.276862
0.0522497 0.0743112 0.277548
0.0529432 0.0738954 0.278339
0.0536392 0.0734803 0.279141
0.0543561 0.0731081 0.280138
0.0550467 0.0726708 0.280855
0.0557611 0.0722816 0.281792
0.0564674 0.071868 0.282628
0.0571774 0.0714573 0.283484
0.0578999 0.0710693 0.28445
0.0586261 0.0706813 0.285426
0.0593424 0.0702685 0.286295
0.060059 0.0698495 0.287146
0.0607817 0.0694391 0.288043
0.0614882 0.0689907 0.288772
0.0622249 0.0685976 0.289764
0.0630566 0.0683752 0.291569
0.0640579 0.0684551 0.294818
0.0651365 0.0686535 0.298667
0.0662574 0.068902 0.302796
0.0673298 0.0690404 0.306439
0.0682862 0.068955 0.309043
0.0690643 0.0685507 0.310122
0.0697619 0.0680061 0.310528
0.070439 0.067427 0.310766
0.0711228 0.0668572 0.311052
0.0718003 0.0662768 0.311286
0.0724715 0.0656862 0.311469
0.073155 0.0651146 0.311749
0.073839 0.0645435 0.31203
0.0745169 0.0639625 0.312265
0.0751953 0.0633813 0.312499
0.0759019 0.0628415 0.312946
0.0765973 0.0622837 0.313304
0.0773096 0.0617484 0.313783
0.0780222 0.0612125 0.31426
0.0787342 0.060673 0.314723
0.0794534 0.0601431 0.31524
0.0159147 0.104628 0.258769
0.0165127 0.1038 0.258005
0.0171107 0.103003 0.257338
0.0177067 0.102208 0.256669
0.0182955 0.101364 0.25583
0.0188825 0.100528 0.255007
0.0194685 0.0997108 0.254241
0.0200425 0.0988094 0.253182
0.0206107 0.0978861 0.252036
0.0211838 0.0970331 0.25112
0.0217635 0.0962586 0.250467
0.0223475 0.0955326 0.249974
0.0229366 0.0948608 0.249666
0.0235281 0.0942135 0.249437
0.0241166 0.0935536 0.249162
0.0247063 0.0929096 0.248939
0.0252991 0.0922921 0.248807
0.0258957 0.0917037 0.248774
0.0264941 0.0911299 0.248794
0.0270968 0.0905826 0.248905
0.0276995 0.0900361 0.24902
0.0283016 0.0894884 0.249131
0.0289036 0.0889397 0.249237
0.0295077 0.0884028 0.249386
0.030117 0.0878926 0.249633
0.0307255 0.0873761 0.249857
0.0313369 0.0868728 0.25013
0.0319951 0.0865854 0.251207
0.0327083 0.0865338 0.253173
0.0350619 0.0871338 0.262022
0.0358387 0.0872319 0.264636
0.0365581 0.08707 0.26628
0.0372308 0.0867079 0.267171
0.0378847 0.0862658 0.267759
0.0385003 0.0856754 0.267778
0.0390694 0.0849173 0.267142
0.0396094 0.084065 0.266132
0.0401487 0.0832234 0.265152
0.0407126 0.082477 0.264537
0.0412954 0.0818031 0.264202
0.0419019 0.0812113 0.264188
0.0425506 0.0807571 0.264726
0.0432691 0.0805168 0.266124
0.0439986 0.0802989 0.267628
0.0447487 0.0801291 0.269338
0.0455019 0.0799544 0.271045
0.0462611 0.0797817 0.272775
0.0469409 0.0793681 0.273526
0.0476073 0.078913 0.274114
0.0482713 0.0784464 0.274655
0.0489059 0.0778984 0.274862
0.0495197 0.0772944 0.274832
0.0501452 0.0767229 0.274939
0.0507927 0.0762077 0.275285
0.0514216 0.0756446 0.275427
0.0521055 0.0752162 0.276147
0.0527919 0.0747888 0.276877
0.0534916 0.074388 0.277727
0.0541923 0.0739849 0.278575
0.054919 0.0736343 0.279662
0.0556093 0.0731967 0.280374
0.0563256 0.0728106 0.281319
0.0570328 0.0723991 0.282159
0.0577477 0.071999 0.28306
0.0584716 0.0716118 0.284023
0.0591987 0.071225 0.285
0.0599108 0.070803 0.285824
0.0606331 0.0703957 0.286722
0.0613515 0.0699769 0.287574
0.0620585 0.0695295 0.288304
0.0628063 0.0691568 0.289387
0.063576 0.0688181 0.290637
0.0645125 0.0687776 0.293301
0.0655965 0.0689857 0.297168
0.066725 0.0692489 0.301336
0.0678198 0.069427 0.305142
0.0688739 0.0695102 0.308535
0.069732 0.0692422 0.310266
0.0704369 0.0687082 0.310725
0.0711212 0.0681383 0.311012
0.0718051 0.0675671 0.311292
0.0724828 0.0669851 0.311521
0.0731543 0.066393 0.3117
0.073831 0.0658096 0.311925
0.0745016 0.065216 0.312096
0.0751722 0.0646222 0.312267
0.0758429 0.0640291 0.312442
0.0765431 0.0634795 0.312839
0.0772404 0.0629233 0.313206
0.0779539 0.0623896 0.31369
0.0786598 0.0618427 0.31411
0.0793633 0.0612914 0.314511
0.0800822 0.06076 0.315018
0.0158789 0.105971 0.259098
0.0164864 0.105242 0.258672
0.0170854 0.104439 0.257994
0.0176817 0.103627 0.257284
0.018273 0.102789 0.256477
0.0188565 0.101901 0.255493
0.0194389 0.101031 0.254563
0.0200231 0.100209 0.253783
0.0205941 0.0992925 0.252677
0.0211604 0.0983677 0.251531
0.0217321 0.0975153 0.250622
0.0223108 0.0967396 0.249966
0.0228921 0.0960021 0.249437
0.0234805 0.0953307 0.249131
0.024073 0.0946953 0.248944
0.0246631 0.0940505 0.248723
0.0252543 0.0934206 0.248551
0.025849 0.0928162 0.248464
0.0264449 0.0922262 0.248428
0.0270407 0.0916381 0.248396
0.0276404 0.091076 0.248456
0.0282404 0.0905163 0.248523
0.0288407 0.0899587 0.248596
0.0294445 0.0894227 0.248749
0.0300536 0.0889127 0.248994
0.0306686 0.0884301 0.24934
0.0312852 0.0879523 0.249705
0.0319063 0.0874938 0.250145
0.0325304 0.0870441 0.250619
0.0332029 0.0868054 0.251878
0.0334738 0.0866881 0.255926
0.033926 0.0867722 0.253915
0.0342559 0.086879 0.258841
0.0346669 0.0867898 0.256159
0.0354355 0.0868946 0.258751
0.0362273 0.0870633 0.261607
0.0369675 0.0869943 0.263583
0.0376552 0.0867024 0.264728
0.038319 0.0863087 0.265489
0.0389391 0.0857471 0.265611
0.0395156 0.0850286 0.265124
0.0400739 0.0842539 0.264413
0.0406384 0.0835094 0.263811
0.0412241 0.0828452 0.263518
0.0418266 0.0822407 0.263455
0.042444 0.0816876 0.263595
0.0431069 0.0812783 0.264306
0.0438345 0.0810642 0.265803
0.04457 0.0808613 0.267361
0.0453299 0.0807171 0.269167
0.0460963 0.0805765 0.271004
0.0468515 0.0803875 0.272661
0.047533 0.0799771 0.273424
0.048205 0.0795347 0.274061
0.0488651 0.0790563 0.274555
0.0494989 0.0785051 0.274748
0.0501075 0.0778868 0.274661
0.0507234 0.0772904 0.274664
0.0513618 0.0767516 0.274907
0.0519849 0.0761749 0.274993
0.0526605 0.0757255 0.275619
0.0533432 0.0752894 0.276308
0.0540432 0.0748899 0.27716
0.0547445 0.0744872 0.278005
0.0554761 0.0741478 0.279133
0.0561726 0.0737234 0.279898
0.0568953 0.073351 0.280899
0.057604 0.0729422 0.281748
0.0583196 0.0725434 0.282648
0.0590387 0.0721451 0.283559
0.059766 0.0717589 0.284531
0.060474 0.0713285 0.285312
0.0612024 0.0709329 0.286259
0.0619274 0.0705259 0.287162
0.0626391 0.0700887 0.287933
0.0633821 0.0697051 0.288961
0.0641508 0.0693641 0.290192
0.0650227 0.0692034 0.29228
0.0660481 0.0693065 0.295627
0.0671755 0.0695676 0.299756
0.0683025 0.0698021 0.303802
0.0693914 0.0699462 0.30746
0.0703448 0.0698397 0.309953
0.0711213 0.0694235 0.310979
0.0718127 0.0688636 0.311318
0.0724905 0.0682802 0.311541
0.0731608 0.0676857 0.31171
0.0738253 0.0670809 0.311831
0.0744965 0.0664868 0.312004
0.0751601 0.0658818 0.312121
0.0758298 0.0652867 0.312288
0.0765007 0.0646923 0.312459
0.0771947 0.0641321 0.312801
0.0778919 0.0635747 0.313164
0.0785986 0.06303 0.313592
0.079296 0.0624711 0.313949
0.0799913 0.0619083 0.314289
0.0807024 0.0613664 0.314739
0.0814239 0.0610556 0.319921
0.0814261 0.0608387 0.31527
0.0164447 0.106505 0.258733
0.0170523 0.105789 0.258352
0.0176516 0.104994 0.257707
0.0182475 0.104187 0.257012
0.0188335 0.103307 0.256071
0.0194151 0.102415 0.25508
0.0199959 0.101543 0.254146
0.0205775 0.100705 0.253318
0.0211468 0.0997891 0.252219
0.0217116 0.0988649 0.251081
0.0222822 0.0980128 0.250176
0.0228595 0.0972368 0.249524
0.0234401 0.0964995 0.248996
0.0240281 0.0958285 0.248692
0.0246219 0.0952059 0.248552
0.0252134 0.0945748 0.24838
0.0258048 0.0939479 0.24822
0.0264014 0.0933593 0.24819
0.0269955 0.0927578 0.248114
0.0275887 0.092155 0.24803
0.0281874 0.0915892 0.248077
0.0287872 0.091028 0.248138
0.0293892 0.0904819 0.248254
0.0299981 0.089972 0.248499
0.0306125 0.0894875 0.248837
0.0312283 0.0890066 0.249189
0.0318449 0.0885278 0.24955
0.0324664 0.0880687 0.249987
0.0330938 0.0876318 0.250507
0.0337314 0.087235 0.251178
0.0344222 0.0870584 0.252672
0.0351299 0.0869349 0.254374
0.0358636 0.0868994 0.256423
0.0366185 0.0869231 0.25871
0.0373687 0.0869039 0.260856
0.0380626 0.0866464 0.262113
0.0387319 0.0862846 0.262984
0.0393582 0.0857578 0.263228
0.0399453 0.0850906 0.262932
0.0405264 0.0844083 0.262574
0.0411156 0.0837586 0.262337
0.0417336 0.0832099 0.262492
0.042386 0.0827732 0.263086
0.0430487 0.082365 0.263796
0.0437353 0.0820268 0.26479
0.0444751 0.0818428 0.266403
0.0452127 0.0816382 0.26795
0.0459474 0.0814113 0.26942
0.046695 0.0812101 0.271008
0.0474385 0.0809827 0.272501
0.0481206 0.0805725 0.273264
0.0487943 0.0801331 0.273911
0.0494562 0.0796581 0.274417
0.0500945 0.0791174 0.274654
0.0506984 0.0784872 0.27452
0.0513083 0.0778746 0.274457
0.0519363 0.0773096 0.274593
0.0525537 0.0767186 0.274616
0.0532198 0.0762458 0.27514
0.0538983 0.0757997 0.275783
0.0545895 0.0753794 0.27654
0.0552861 0.0749666 0.277338
0.0560223 0.0746385 0.278506
0.0567252 0.074228 0.279328
0.0574549 0.0738708 0.28039
0.0581754 0.0734868 0.281342
0.0589018 0.0731097 0.282333
0.0596162 0.0727006 0.283193
0.0603432 0.0723143 0.284159
0.0610519 0.0718832 0.284935
0.0617807 0.0714891 0.285883
0.0625069 0.071083 0.286786
0.0632255 0.0706581 0.28761
0.0639635 0.0702643 0.288584
0.0647269 0.0699125 0.289762
0.0655365 0.069638 0.291308
0.066499 0.069627 0.294099
0.0675653 0.0697816 0.297698
0.0687117 0.0700515 0.30188
0.0698329 0.0702534 0.305782
0.0708793 0.0703059 0.309015
0.0717373 0.0700263 0.310687
0.0725013 0.0695837 0.31159
0.0731794 0.0689994 0.311812
0.0738503 0.0684033 0.31198
0.0745147 0.0677973 0.312097
0.07518 0.067192 0.312218
0.0758362 0.0665746 0.312277
0.0764994 0.0659673 0.312385
0.0771619 0.0653602 0.312493
0.0778423 0.0647786 0.312731
0.0785309 0.0642086 0.31303
0.079228 0.0636501 0.313384
0.0799165 0.0630779 0.313676
0.0806043 0.0625045 0.313959
0.0813154 0.0619626 0.314408
0.0820319 0.0614253 0.314886
0.0170129 0.10707 0.258471
0.017621 0.106361 0.258116
0.0182163 0.105535 0.257372
0.018809 0.104707 0.256613
0.01939 0.103787 0.255543
0.0199704 0.102899 0.254569
0.0205527 0.102053 0.253727
0.0211317 0.101205 0.252868
0.0216999 0.100291 0.25178
0.022265 0.0993803 0.250692
0.0228373 0.0985528 0.249877
0.0234139 0.0977767 0.249228
0.0239955 0.0970514 0.248744
0.0245831 0.0963795 0.248439
0.0251765 0.0957556 0.248296
0.0257676 0.0951246 0.248126
0.0263611 0.0945117 0.248016
0.0269602 0.0939381 0.24804
0.0275567 0.0933501 0.248011
0.0281516 0.0927588 0.247972
0.0287504 0.0921908 0.248012
0.0293502 0.0916287 0.248071
0.0299524 0.0910826 0.248189
0.0305622 0.0905743 0.248441
0.0311774 0.0900906 0.24878
0.0317909 0.0895975 0.249089
0.032405 0.0891039 0.249396
0.0330269 0.0886433 0.249826
0.0336579 0.08822 0.250394
0.0343029 0.087853 0.251175
0.0349663 0.0875534 0.252208
0.0356443 0.0873037 0.253435
0.0363458 0.0871355 0.254976
0.0370638 0.0870147 0.256708
0.0377788 0.0868628 0.258335
0.0384772 0.0866314 0.259676
0.0391587 0.0863249 0.260743
0.0398 0.0858629 0.261225
0.0404137 0.0853011 0.261329
0.0410207 0.0847153 0.261338
0.0416379 0.084167 0.261492
0.0422924 0.0837411 0.26212
0.0429845 0.0834325 0.263212
0.0436794 0.0831223 0.264305
0.0443996 0.0828816 0.265682
0.0451483 0.082716 0.267369
0.0458709 0.0824579 0.268702
0.0465778 0.0821414 0.269812
0.0472956 0.0818473 0.271021
0.0480095 0.0815326 0.272157
0.048687 0.0811083 0.272859
0.0493612 0.0806699 0.273508
0.0500248 0.0801988 0.274027
0.0506731 0.0796848 0.274375
0.0512856 0.0790772 0.274336
0.0518961 0.0784662 0.274282
0.0525188 0.0778871 0.274358
0.0531343 0.0772914 0.274363
0.0537845 0.0767804 0.274726
0.0544486 0.0762995 0.275216
0.0551287 0.0758538 0.275861
0.0558248 0.0754402 0.276648
0.0565583 0.0751048 0.27778
0.0572723 0.0747199 0.278706
0.0580138 0.0743886 0.279874
0.0587458 0.0740292 0.280928
0.0594738 0.0736545 0.281925
0.0601874 0.0732445 0.282775
0.0609149 0.0728568 0.283732
0.0616223 0.0724247 0.284498
0.0623539 0.0720339 0.285455
0.0630811 0.0716296 0.286363
0.0638061 0.0712173 0.287239
0.0645405 0.0708157 0.288173
0.0652991 0.0704547 0.289302
0.0660569 0.0700847 0.290401
0.0669568 0.0699621 0.292655
0.0679489 0.0699869 0.295622
0.0701804 0.0704035 0.303381
0.0713185 0.0706133 0.307329
0.0722803 0.0705072 0.309814
0.0731425 0.0702263 0.311483
0.0739063 0.0697784 0.312366
0.0745715 0.0691704 0.312479
0.0752292 0.0685514 0.312538
0.075887 0.0679324 0.312597
0.0765361 0.0673017 0.312595
0.0771914 0.0666815 0.312645
0.0778475 0.066063 0.3127
0.0785118 0.0654568 0.312816
0.0791844 0.0648628 0.312994
0.0798647 0.0642793 0.313225
0.0805372 0.0636851 0.313402
0.081217 0.0631004 0.313628
0.0819288 0.0625592 0.314077
0.0826457 0.0620223 0.314555
0.0833832 0.0617154 0.31973
0.0833822 0.0615097 0.315163
0.0181827 0.106859 0.257637
0.0187743 0.106008 0.256814
0.0193626 0.105147 0.255951
0.0199404 0.104217 0.254851
0.0205231 0.103362 0.253992
0.0211102 0.102571 0.253333
0.021693 0.101763 0.252613
0.0222617 0.100864 0.251582
0.0228269 0.0999645 0.250537
0.0234001 0.0991482 0.249764
0.0239761 0.098371 0.249115
0.0245572 0.0976463 0.248638
0.0251463 0.0969854 0.248373
0.0257395 0.0963598 0.248226
0.0263323 0.0957389 0.248093
0.026928 0.0951381 0.248026
0.0275273 0.0945648 0.248054
0.0281241 0.0939773 0.248031
0.0287197 0.0933864 0.247993
0.0293166 0.0928067 0.247995
0.0299146 0.0922338 0.248018
0.0305177 0.0916898 0.248143
0.031128 0.0911817 0.248396
0.0317408 0.0906846 0.248689
0.0323516 0.0901761 0.248942
0.032965 0.0896785 0.249236
0.033587 0.0892171 0.249662
0.0342244 0.0888191 0.250322
0.034877 0.0884792 0.251198
0.035542 0.088181 0.252233
0.0362208 0.087929 0.253449
0.036914 0.0877209 0.254836
0.0376022 0.087478 0.256106
0.0382876 0.087211 0.257294
0.038964 0.0868994 0.258325
0.0396312 0.0865438 0.259197
0.0402727 0.0860882 0.259695
0.0409036 0.0855932 0.260048
0.0415348 0.0850963 0.260395
0.0421984 0.0847056 0.261152
0.0428902 0.0844011 0.262248
0.0436198 0.0842068 0.26378
0.0443522 0.0840083 0.26531
0.0451027 0.0838512 0.267015
0.0458326 0.0836168 0.268429
0.0465323 0.0832814 0.269457
0.0472159 0.0828899 0.270269
0.0479068 0.0825137 0.271149
0.0485914 0.0821126 0.271935
0.0492637 0.0816728 0.272571
0.0499339 0.0812227 0.273171
0.050598 0.0807525 0.273693
0.0512528 0.0802551 0.274106
0.0518756 0.0796739 0.274178
0.0524878 0.0790671 0.274143
0.0531063 0.0784769 0.274173
0.0537162 0.0778674 0.274123
0.054351 0.0773186 0.274324
0.0549982 0.076799 0.274652
0.0556717 0.0763381 0.275228
0.056362 0.0759119 0.275957
0.0570905 0.0755665 0.277036
0.0578113 0.0751957 0.278018
0.0585602 0.0748801 0.279247
0.0592991 0.0745359 0.28036
0.0600337 0.0741742 0.281409
0.0607476 0.0737648 0.282257
0.0614805 0.0733881 0.283255
0.0621885 0.0729565 0.284019
0.0629207 0.0725675 0.284981
0.0636495 0.0721661 0.285895
0.0643815 0.0717652 0.28682
0.0651219 0.0713761 0.287803
0.0658886 0.0710284 0.288988
0.0666426 0.0706511 0.290046
0.0674843 0.0704236 0.291806
0.0683964 0.0703082 0.294104
0.0690264 0.070141 0.299226
0.069382 0.0703051 0.296947
0.0717271 0.0708718 0.305428
0.0727983 0.0709491 0.308761
0.073772 0.0708488 0.311281
0.0746375 0.0705616 0.31293
0.075296 0.0699409 0.312989
0.0759536 0.0693193 0.31304
0.0766036 0.0686864 0.313036
0.0772454 0.0680422 0.312974
0.0778928 0.0674081 0.312959
0.0785481 0.0667869 0.313004
0.0791969 0.0661571 0.313007
0.0798611 0.0655494 0.313119
0.0805323 0.0649522 0.313282
0.0811968 0.0643457 0.313399
0.0818693 0.0637506 0.313573
0.0825743 0.0631986 0.31397
0.0832912 0.0626614 0.314443
0.0840204 0.0621382 0.314995
0.0187439 0.107355 0.257153
0.0204885 0.104632 0.254114
0.0210772 0.103845 0.253482
0.0216691 0.103104 0.252992
0.0222531 0.102314 0.252335
0.0228239 0.10144 0.251392
0.0233915 0.100564 0.25043
0.0239637 0.0997469 0.24966
0.0245393 0.0989712 0.249021
0.0251222 0.0982588 0.248588
0.0257106 0.0975963 0.248322
0.0263039 0.0969707 0.248177
0.0268967 0.0963475 0.248039
0.0274921 0.0957455 0.24797
0.028094 0.095183 0.248035
0.0286907 0.0945955 0.248015
0.0292866 0.0940047 0.24798
0.0298839 0.0934261 0.247987
0.030482 0.0928522 0.248009
0.0310827 0.092295 0.24809
0.0316932 0.0917851 0.248336
0.0323061 0.0912863 0.248624
0.0329171 0.0907759 0.248871
0.0335337 0.0902898 0.249205
0.0341589 0.0898405 0.249675
0.0348006 0.089457 0.250386
0.035452 0.089107 0.251224
0.0361146 0.0887946 0.252206
0.0367853 0.0885037 0.253273
0.0374665 0.0882433 0.254462
0.0381426 0.0879508 0.255541
0.0388181 0.0876456 0.256582
0.0394853 0.0872993 0.257477
0.0401453 0.0869191 0.258251
0.0407895 0.0864763 0.258794
0.0414246 0.0859978 0.259204
0.0420671 0.0855414 0.259702
0.0427658 0.0852674 0.260902
0.0434969 0.0850861 0.262466
0.0442609 0.0849956 0.264396
0.0450271 0.0848939 0.2663
0.0458008 0.0847974 0.268239
0.0465116 0.0844957 0.269391
0.0471895 0.0840878 0.270135
0.047851 0.083627 0.270674
0.0485169 0.0831749 0.271251
0.0491739 0.0826944 0.271719
0.049841 0.0822392 0.272292
0.0505101 0.0817851 0.272873
0.0511703 0.0813041 0.27335
0.0518347 0.0808309 0.27386
0.052473 0.0802882 0.274089
0.053092 0.0796977 0.274123
0.0537074 0.0790993 0.274123
0.0543163 0.0784865 0.27406
0.0549307 0.0778891 0.274062
0.0555573 0.077321 0.274183
0.0562145 0.0768228 0.2746
0.0568938 0.0763723 0.27522
0.0576182 0.0760169 0.276251
0.058344 0.0756589 0.277281
0.0590987 0.0753566 0.278557
0.0598502 0.0750378 0.279775
0.060591 0.0746901 0.280877
0.0613013 0.0742723 0.281683
0.0620391 0.0739058 0.282721
0.0627543 0.0734877 0.283541
0.063488 0.0731023 0.284512
0.0642237 0.0727139 0.28548
0.0649672 0.072334 0.286494
0.065708 0.0719441 0.28747
0.0664825 0.0716105 0.28871
0.0672384 0.071235 0.289773
0.0680201 0.0709002 0.291031
0.0688537 0.0706483 0.292685
0.0697461 0.0704867 0.294772
0.0731946 0.0711927 0.306779
0.0742852 0.0712842 0.310188
0.0752625 0.0711767 0.312681
0.0760151 0.0707024 0.313441
0.0766658 0.0700671 0.313433
0.0773065 0.0694191 0.313359
0.0779482 0.0687725 0.313293
0.0785899 0.068128 0.31323
0.079238 0.0674948 0.313221
0.0798781 0.0668508 0.313158
0.080533 0.0662283 0.313201
0.0811895 0.0656094 0.313256
0.0818613 0.0650128 0.313424
0.0825352 0.0644177 0.313602
0.0832327 0.0638554 0.313944
0.0839414 0.0633064 0.314358
0.0846687 0.0627801 0.314894
0.0853957 0.0624421 0.319884
0.0854069 0.0622658 0.315496
0.0216699 0.104659 0.254055
0.0222597 0.103894 0.253494
0.0228121 0.102853 0.252016
0.023388 0.102028 0.251239
0.0239601 0.101191 0.250416
0.0245353 0.100398 0.24973
0.0251109 0.0996239 0.2491
0.025695 0.0989219 0.248709
0.0262841 0.09826 0.248446
0.0268754 0.0976208 0.248259
0.0274686 0.0969985 0.248126
0.0280662 0.0964078 0.2481
0.0286662 0.0958328 0.248125
0.0292612 0.0952321 0.24806
0.0298566 0.094637 0.248013
0.0304514 0.0940433 0.24797
0.0310468 0.0934551 0.247943
0.0316477 0.0928961 0.248018
0.0322557 0.0923729 0.248219
0.0328662 0.0918613 0.248461
0.0334774 0.091351 0.248709
0.0340951 0.0908678 0.249054
0.0347218 0.0904225 0.249537
0.0353679 0.0900546 0.250303
0.0360227 0.0897149 0.251175
0.0366838 0.0893911 0.252112
0.0373511 0.0890832 0.253115
0.0380237 0.0887848 0.25416
0.0386933 0.0884654 0.255136
0.0393597 0.0881242 0.256038
0.0400206 0.0877538 0.256838
0.0406745 0.0873514 0.257523
0.0413181 0.0869084 0.258063
0.0419533 0.0864313 0.258475
0.0426033 0.0860011 0.259068
0.0433132 0.0857628 0.260397
0.0440782 0.0856883 0.262364
0.0448797 0.0857096 0.264715
0.0456747 0.0856891 0.266926
0.0464467 0.0855788 0.268808
0.0471541 0.0852608 0.269896
0.0478063 0.0847726 0.270326
0.0484444 0.0842414 0.270587
0.0490875 0.0837246 0.270909
0.0497455 0.083246 0.271382
0.0504087 0.082779 0.271905
0.0510766 0.0823214 0.272469
0.0517365 0.0818396 0.272941
0.0524017 0.081368 0.273454
0.05305 0.0808511 0.273789
0.0536732 0.0802714 0.273869
0.054289 0.0796736 0.273871
0.0548972 0.0790593 0.273804
0.0555061 0.0784486 0.273751
0.056122 0.0778557 0.273769
0.0567732 0.0773443 0.274128
0.0574416 0.0768698 0.274645
0.0581606 0.0765031 0.275621
0.0588861 0.0761445 0.276641
0.0596373 0.0758331 0.277873
0.060389 0.0755155 0.279088
0.0611305 0.0751692 0.280189
0.0618418 0.0747538 0.281
0.0625807 0.0743903 0.282044
0.0633076 0.0739959 0.282962
0.064049 0.0736244 0.28399
0.0647914 0.0732492 0.28501
0.0655412 0.0728817 0.286073
0.0662886 0.0725025 0.287093
0.0670646 0.0721702 0.288335
0.0678214 0.0717962 0.289399
0.0686043 0.0714625 0.290654
0.0693685 0.0710891 0.291743
0.0701732 0.070779 0.293129
0.0708166 0.0706132 0.298225
0.0711501 0.0707498 0.295835
0.0735807 0.0714215 0.30475
0.0747863 0.0717012 0.309016
0.0758852 0.0717872 0.312409
0.0767481 0.0714843 0.313985
0.0773984 0.0708465 0.313969
0.0780403 0.0701972 0.313895
0.0786838 0.0695515 0.313837
0.0793184 0.0688937 0.31372
0.0799597 0.0682477 0.313654
0.080592 0.0675904 0.313531
0.0812399 0.0669564 0.313519
0.0818887 0.0663256 0.313522
0.0825625 0.0657295 0.313696
0.0832374 0.0651346 0.313876
0.0839281 0.0645603 0.314162
0.0846275 0.0639982 0.31451
0.085338 0.063448 0.314924
0.0860673 0.0629213 0.315461
0.0861283 0.0617275 0.315978
0.0867889 0.0623834 0.315944
0.0874676 0.0619571 0.320508
0.087493 0.0618213 0.316303
0.0234791 0.104217 0.254409
0.0240243 0.103144 0.252828
0.0245687 0.102099 0.251325
0.0251124 0.101083 0.249909
0.0256956 0.100359 0.249453
0.0262838 0.0996804 0.249143
0.0268726 0.0990148 0.248875
0.0274625 0.0983621 0.248647
0.0280563 0.0977399 0.248518
0.0286552 0.0971493 0.248494
0.0292537 0.0965617 0.248481
0.0298509 0.0959694 0.248449
0.0304491 0.0953851 0.248443
0.0310418 0.0947753 0.248348
0.0316351 0.0941716 0.248271
0.0322355 0.0936075 0.248332
0.032839 0.0930582 0.248443
0.0334454 0.0925229 0.248603
0.0340576 0.092014 0.248857
0.0346793 0.0915455 0.249256
0.0353082 0.0911037 0.249752
0.0359561 0.0907381 0.250525
0.0366095 0.0903868 0.251355
0.0372684 0.0900485 0.252238
0.0379281 0.0897051 0.25311
0.0385955 0.0893825 0.254063
0.0392592 0.089037 0.25494
0.0399198 0.0886706 0.255745
0.0405741 0.0882753 0.25645
0.0412242 0.0878585 0.257079
0.0418642 0.0874021 0.257565
0.0424986 0.0869235 0.25797
0.0431528 0.0865073 0.258613
0.0438714 0.0862942 0.260031
0.044661 0.0862942 0.262274
0.0454662 0.0863207 0.264635
0.0462652 0.086306 0.266859
0.047039 0.0861953 0.268731
0.0477431 0.0858639 0.269763
0.0483797 0.0853303 0.270016
0.0490266 0.084824 0.270375
0.0496754 0.0843216 0.270752
0.0503302 0.0838333 0.271186
0.0509933 0.0833649 0.271703
0.0516573 0.0828957 0.272219
0.0523139 0.082404 0.272649
0.052975 0.0819219 0.27312
0.0536321 0.0814266 0.27354
0.0542597 0.0808574 0.273663
0.0548753 0.0802588 0.273663
0.0554829 0.0796432 0.273593
0.0560863 0.07902 0.27349
0.0566916 0.0784031 0.27341
0.0573378 0.0778797 0.273716
0.0580059 0.0774044 0.274228
0.0587207 0.0770273 0.275156
0.0594464 0.0766696 0.276175
0.0601977 0.076357 0.277393
0.0609441 0.0760274 0.278551
0.0616754 0.0756605 0.279556
0.0623856 0.0752442 0.280358
0.063125 0.0748813 0.281399
0.0638588 0.0744995 0.282368
0.0646022 0.0741333 0.283412
0.0653526 0.0737719 0.284487
0.0661037 0.0734069 0.285554
0.0668572 0.0730395 0.286621
0.0676288 0.0726988 0.287817
0.0683864 0.0723265 0.288881
0.0691701 0.0719928 0.290132
0.0699341 0.071619 0.291212
0.070662 0.0711774 0.291989
0.0715458 0.070994 0.293962
0.0751424 0.0718875 0.306774
0.0763579 0.0721605 0.311017
0.0773434 0.0720511 0.313495
0.0780966 0.0715717 0.314237
0.078748 0.0709342 0.314227
0.0794002 0.0702997 0.314227
0.0800366 0.0696438 0.314122
0.0806778 0.0689956 0.314052
0.0813086 0.0683341 0.313914
0.0819487 0.0676873 0.313844
0.0825911 0.0670446 0.313794
0.0832664 0.0664493 0.313974
0.0839419 0.0658538 0.314155
0.0846256 0.065269 0.314391
0.0853162 0.0646926 0.314669
0.0860166 0.0641292 0.315015
0.0867363 0.0635889 0.315482
0.0874517 0.0630418 0.315918
0.0881657 0.062491 0.316338
0.0252743 0.103664 0.254398
0.0257827 0.102388 0.252136
0.0263325 0.101428 0.25091
0.0268843 0.100505 0.249794
0.0274757 0.0998477 0.249558
0.0280683 0.0992062 0.249374
0.0286635 0.0985835 0.249249
0.0292606 0.0979775 0.24918
0.0298579 0.0973749 0.249118
0.0304512 0.0967551 0.248997
0.0310476 0.0961558 0.248944
0.0316387 0.0955337 0.248811
0.0322326 0.0949288 0.248735
0.0328341 0.0943629 0.248792
0.0334352 0.0937982 0.248853
0.0340394 0.093248 0.248964
0.0346525 0.0927377 0.249215
0.035275 0.0922673 0.249609
0.0359055 0.0918271 0.250112
0.0365545 0.0914598 0.250879
0.0372068 0.0910971 0.251668
0.0378638 0.090746 0.252505
0.0385223 0.090392 0.253336
0.0391848 0.0900452 0.254201
0.0398437 0.089676 0.254988
0.0404973 0.0892811 0.255688
0.0411446 0.088858 0.256289
0.0417842 0.088403 0.256776
0.0424202 0.0879322 0.257207
0.0430543 0.0874521 0.257605
0.0437234 0.0870828 0.25842
0.0444573 0.0869155 0.260006
0.0452577 0.0869423 0.26234
0.0460636 0.0869632 0.264671
0.0468668 0.0869553 0.266914
0.0476281 0.0868019 0.268614
0.0483203 0.0864332 0.269499
0.0489577 0.0859008 0.269755
0.0496095 0.0854075 0.270164
0.0502636 0.0849184 0.270592
0.050919 0.0844307 0.271029
