ply
format ascii 1.0
element vertex 1795
property float x
property float y
property float z
end_header
-0.585887 0.10779 1.39197
-0.525176 0.234993 1.31369
-0.525202 0.233485 1.31362
-0.52514 0.231951 1.31341
-0.524878 0.230358 1.3129
-0.524322 0.228677 1.31194
-0.52369 0.226979 1.31087
-0.522908 0.225241 1.30958
-0.522233 0.223541 1.30844
-0.521623 0.221866 1.30741
-0.52117 0.22024 1.30661
-0.520976 0.218693 1.3062
-0.520925 0.217189 1.30602
-0.520855 0.215681 1.3058
-0.521054 0.214249 1.30599
-0.521476 0.212878 1.30652
-0.522059 0.21155 1.30729
-0.522757 0.210249 1.30823
-0.52359 0.208981 1.30938
-0.524192 0.207649 1.31018
-0.525237 0.206429 1.31165
-0.526151 0.205169 1.31292
-0.527907 0.204117 1.31546
-0.530441 0.203249 1.31918
-0.533086 0.202394 1.32306
-0.534973 0.20134 1.3258
-0.536629 0.20022 1.32819
-0.537448 0.198894 1.32931
-0.537402 0.197362 1.32913
-0.53737 0.195836 1.32897
-0.537524 0.194353 1.32909
-0.537673 0.192869 1.3292
-0.537966 0.191417 1.32953
-0.538329 0.18998 1.32996
-0.538702 0.188544 1.33041
-0.539022 0.187096 1.33078
-0.539274 0.185633 1.33105
-0.53928 0.184119 1.33095
-0.53933 0.182615 1.33091
-0.539424 0.181121 1.33094
-0.539442 0.179613 1.33085
-0.539595 0.178132 1.33097
-0.539844 0.17667 1.33123
-0.5402 0.175227 1.33165
-0.540574 0.173787 1.33211
-0.541139 0.17238 1.33284
-0.541599 0.170952 1.33342
-0.542049 0.169522 1.33399
-0.54245 0.16808 1.33448
-0.542997 0.166663 1.33519
-0.543568 0.165248 1.33594
-0.544203 0.16384 1.33678
-0.544783 0.162422 1.33754
-0.54535 0.160999 1.33828
-0.545911 0.159573 1.33901
-0.546533 0.158153 1.33983
-0.547226 0.156742 1.34076
-0.548059 0.155349 1.3419
-0.548844 0.153944 1.34297
-0.549668 0.152542 1.34409
-0.550649 0.151157 1.34545
-0.551611 0.149765 1.34679
-0.552633 0.148376 1.34821
-0.55389 0.147012 1.34998
-0.554904 0.145612 1.35139
-0.555923 0.144208 1.35281
-0.556881 0.142791 1.35413
-0.557738 0.141359 1.35531
-0.558493 0.139911 1.35633
-0.5594 0.138476 1.35757
-0.560385 0.137046 1.35894
-0.562313 0.135708 1.36171
-0.565524 0.134487 1.36642
-0.569049 0.133279 1.37159
-0.5724 0.132034 1.3765
-0.575354 0.130735 1.38081
-0.57719 0.129322 1.38345
-0.577701 0.127787 1.3841
-0.577976 0.12623 1.38439
-0.578355 0.124682 1.38484
-0.57864 0.123126 1.38515
-0.578978 0.121573 1.38554
-0.579525 0.120034 1.38624
-0.580144 0.118498 1.38705
-0.580791 0.116962 1.3879
-0.581543 0.115429 1.38891
-0.582396 0.113899 1.39007
-0.58303 0.112353 1.3909
-0.583548 0.110799 1.39156
-0.583994 0.109239 1.3921
-0.584436 0.107678 1.39265
-0.590711 0.106417 1.39904
-0.584894 0.106117 1.39321
-0.523579 0.234808 1.31393
-0.523607 0.233301 1.31386
-0.523501 0.231755 1.31358
-0.523119 0.230125 1.31288
-0.522457 0.228413 1.31176
-0.521724 0.226685 1.31054
-0.520851 0.224922 1.30909
-0.520175 0.223223 1.30795
-0.519627 0.221567 1.30701
-0.519274 0.219973 1.30636
-0.519089 0.21843 1.30596
-0.519001 0.216917 1.30572
-0.518835 0.215384 1.30535
-0.518889 0.213914 1.30533
-0.519123 0.212494 1.30557
-0.519467 0.211104 1.30598
-0.519955 0.209752 1.30661
-0.520526 0.208419 1.30736
-0.520861 0.207023 1.30776
-0.521585 0.205727 1.30875
-0.522259 0.204414 1.30966
-0.523654 0.20328 1.31166
-0.525926 0.202356 1.31499
-0.529074 0.201635 1.31966
-0.531615 0.200749 1.3234
-0.533978 0.199806 1.32687
-0.53555 0.198662 1.32914
-0.536162 0.197285 1.32995
-0.536134 0.195759 1.32979
-0.536315 0.194282 1.32995
-0.536416 0.192787 1.32999
-0.536712 0.191335 1.33032
-0.537173 0.189919 1.33091
-0.5376 0.188494 1.33144
-0.537931 0.187048 1.33182
-0.538177 0.185583 1.33208
-0.53813 0.184057 1.3319
-0.53807 0.182531 1.33169
-0.53811 0.181025 1.33164
-0.537936 0.179479 1.33126
-0.53793 0.177968 1.33114
-0.538101 0.176492 1.33128
-0.538403 0.17504 1.33163
-0.53879 0.173604 1.3321
-0.539506 0.172226 1.33307
-0.54017 0.170835 1.33396
-0.540731 0.169424 1.33469
-0.541241 0.168002 1.33535
-0.541848 0.166594 1.33615
-0.542429 0.16518 1.33691
-0.54306 0.163771 1.33775
-0.543641 0.162352 1.33852
-0.544199 0.160927 1.33924
-0.544759 0.1595 1.33998
-0.545374 0.15808 1.34079
-0.546059 0.156667 1.34171
-0.546839 0.155265 1.34277
-0.547573 0.153853 1.34376
-0.548343 0.152443 1.34481
-0.549272 0.151051 1.3461
-0.550181 0.149652 1.34735
-0.551198 0.148263 1.34877
-0.552401 0.146893 1.35047
-0.553418 0.145493 1.35189
-0.554482 0.144095 1.35338
-0.55544 0.142678 1.35471
-0.556298 0.141246 1.35588
-0.557048 0.139798 1.3569
-0.557948 0.138363 1.35814
-0.558826 0.136921 1.35935
-0.560676 0.135575 1.36202
-0.564444 0.134412 1.36757
-0.568092 0.133214 1.37295
-0.571514 0.131974 1.37798
-0.574598 0.130686 1.38251
-0.576509 0.129277 1.38526
-0.57653 0.127699 1.38518
-0.576865 0.126147 1.38556
-0.577301 0.124602 1.3861
-0.577641 0.123049 1.38649
-0.578032 0.121498 1.38696
-0.578581 0.119958 1.38766
-0.579091 0.118414 1.38831
-0.579675 0.116872 1.38907
-0.58037 0.115335 1.39
-0.581116 0.113797 1.391
-0.581699 0.112249 1.39175
-0.582212 0.110693 1.3924
-0.582601 0.109131 1.39287
-0.583033 0.107569 1.3934
-0.583486 0.106006 1.39396
-0.589651 0.104727 1.40021
-0.584009 0.104446 1.39462
-0.521744 0.234546 1.3138
-0.52178 0.233044 1.31374
-0.521646 0.23149 1.31342
-0.521232 0.229851 1.31267
-0.52052 0.228125 1.31147
-0.519732 0.226383 1.31015
-0.51886 0.224621 1.3087
-0.518197 0.222927 1.30758
-0.517696 0.221287 1.3067
-0.517431 0.21972 1.30618
-0.517299 0.218194 1.30587
-0.517168 0.21667 1.30555
-0.516956 0.215125 1.30512
-0.516903 0.213627 1.30492
-0.517033 0.212181 1.30501
-0.5172 0.210746 1.30515
-0.517465 0.209336 1.30544
-0.517757 0.207934 1.30577
-0.517769 0.206458 1.30568
-0.518057 0.205054 1.30601
-0.518378 0.203658 1.30638
-0.519416 0.202443 1.30785
-0.521331 0.201441 1.31065
-0.524901 0.200835 1.31597
-0.528154 0.200132 1.32081
-0.53129 0.199381 1.32547
-0.533711 0.198443 1.32904
-0.535108 0.197252 1.33105
-0.535077 0.195724 1.33088
-0.535255 0.194245 1.33104
-0.535395 0.192758 1.33114
-0.535615 0.191288 1.33135
-0.536083 0.189873 1.33195
-0.536517 0.188449 1.33249
-0.536833 0.186999 1.33286
-0.536981 0.185512 1.33297
-0.536918 0.183983 1.33276
-0.536803 0.182445 1.33247
-0.536663 0.180903 1.33214
-0.536335 0.179327 1.33153
-0.536173 0.177786 1.33117
-0.536275 0.176298 1.33121
-0.536528 0.174839 1.33147
-0.537064 0.173431 1.33217
-0.537894 0.172075 1.33332
-0.538707 0.170712 1.33443
-0.539376 0.16932 1.33533
-0.539991 0.167916 1.33615
-0.540614 0.166511 1.33698
-0.541237 0.165103 1.33781
-0.541863 0.163694 1.33864
-0.542383 0.162264 1.33932
-0.542887 0.160831 1.33997
-0.543483 0.159409 1.34075
-0.544055 0.157982 1.34151
-0.544785 0.156576 1.3425
-0.545518 0.155167 1.34349
-0.54624 0.153753 1.34447
-0.546964 0.152337 1.34545
-0.547841 0.150938 1.34666
-0.548697 0.149532 1.34784
-0.549707 0.148142 1.34925
-0.550855 0.146765 1.35087
-0.551822 0.14536 1.35222
-0.552882 0.143963 1.35371
-0.553844 0.142547 1.35505
-0.554702 0.141115 1.35623
-0.555448 0.139668 1.35724
-0.556328 0.138231 1.35845
-0.55713 0.136782 1.35955
-0.558863 0.135426 1.36205
-0.562716 0.134271 1.36776
-0.566483 0.133086 1.37333
-0.56999 0.131856 1.37851
-0.573274 0.130585 1.38335
-0.575389 0.129195 1.38642
-0.575466 0.12762 1.38642
-0.575904 0.126075 1.38696
-0.576347 0.124529 1.38751
-0.576645 0.122971 1.38784
-0.576989 0.121417 1.38824
-0.577483 0.119871 1.38886
-0.577884 0.118318 1.38934
-0.578456 0.116774 1.39009
-0.579143 0.115237 1.391
-0.579833 0.113695 1.39192
-0.580364 0.112143 1.3926
-0.58087 0.110587 1.39325
-0.581202 0.109022 1.39363
-0.581582 0.107457 1.39408
-0.582033 0.105895 1.39464
-0.582554 0.104335 1.3953
-0.520107 0.232835 1.31385
-0.519944 0.231273 1.31348
-0.519505 0.229627 1.31269
-0.518793 0.227902 1.31149
-0.517961 0.226146 1.3101
-0.517059 0.224376 1.3086
-0.516403 0.222686 1.30748
-0.515908 0.221048 1.3066
-0.515644 0.219482 1.30609
-0.515513 0.217958 1.30577
-0.515339 0.216423 1.30539
-0.515075 0.214865 1.30487
-0.514925 0.213342 1.30453
-0.514962 0.211872 1.30447
-0.515034 0.210413 1.30447
-0.515255 0.208995 1.30469
-0.515507 0.207585 1.30496
-0.515603 0.206133 1.305
-0.515601 0.204657 1.30488
-0.515602 0.203183 1.30477
-0.516043 0.201822 1.30533
-0.517309 0.200665 1.30715
-0.526913 0.198549 1.32148
-0.530256 0.197841 1.32647
-0.532593 0.196877 1.32992
-0.533394 0.195544 1.33103
-0.534299 0.194232 1.33229
-0.534393 0.192733 1.33232
-0.534569 0.191253 1.33247
-0.53499 0.189827 1.33299
-0.53537 0.18839 1.33346
-0.535633 0.186928 1.33374
-0.535631 0.18541 1.33362
-0.535291 0.183823 1.33298
-0.53489 0.182227 1.33226
-0.534544 0.180646 1.33162
-0.534029 0.179035 1.33071
-0.533817 0.177488 1.33027
-0.534101 0.176037 1.33059
-0.534545 0.174616 1.33115
-0.535286 0.173249 1.33216
-0.536305 0.171929 1.3336
-0.537265 0.170593 1.33495
-0.538025 0.169217 1.33599
-0.538737 0.16783 1.33696
-0.53936 0.166425 1.33779
-0.540022 0.165023 1.33868
-0.540592 0.163604 1.33943
-0.541002 0.162157 1.33994
-0.541455 0.160715 1.34051
-0.542003 0.159287 1.34122
-0.542489 0.157847 1.34185
-0.543222 0.156442 1.34284
-0.543951 0.155033 1.34384
-0.544673 0.15362 1.34482
-0.54544 0.15221 1.34587
-0.546314 0.150812 1.34708
-0.547118 0.149399 1.34818
-0.54811 0.148008 1.34957
-0.549202 0.146625 1.35111
-0.550163 0.14522 1.35245
-0.551223 0.143823 1.35395
-0.552235 0.142414 1.35536
-0.55314 0.140989 1.35662
-0.553882 0.139541 1.35763
-0.554711 0.1381 1.35877
-0.55545 0.136645 1.35977
-0.55694 0.135264 1.36191
-0.560254 0.134058 1.36682
-0.563971 0.132872 1.37234
-0.56766 0.131662 1.37781
-0.57117 0.130414 1.38301
-0.573656 0.129058 1.38666
-0.574279 0.12753 1.38748
-0.574774 0.12599 1.38811
-0.575217 0.124443 1.38866
-0.575518 0.122885 1.38899
-0.575913 0.121332 1.38947
-0.576405 0.119785 1.39009
-0.576746 0.118228 1.39049
-0.577251 0.116679 1.39113
-0.577869 0.115136 1.39194
-0.578452 0.113587 1.3927
-0.578925 0.112032 1.3933
-0.579426 0.110476 1.39393
-0.579753 0.10891 1.39431
-0.580138 0.107346 1.39477
-0.580593 0.105783 1.39533
-0.581122 0.104223 1.39601
-0.587363 0.102932 1.40242
-0.581697 0.102662 1.39676
-0.518514 0.234163 1.3142
-0.518555 0.232664 1.31414
-0.518285 0.231069 1.31361
-0.517821 0.229416 1.31278
-0.517152 0.227704 1.31163
-0.516294 0.225941 1.3102
-0.515355 0.22416 1.30864
-0.514656 0.222458 1.30745
-0.514164 0.220822 1.30657
-0.513855 0.219244 1.30598
-0.513683 0.217709 1.3056
-0.513466 0.216163 1.30515
-0.513199 0.214606 1.30463
-0.513003 0.213072 1.30421
-0.512994 0.211591 1.30408
-0.513062 0.210133 1.30407
-0.513282 0.208716 1.3043
-0.513489 0.207296 1.3045
-0.513634 0.20586 1.30461
-0.513638 0.204387 1.3045
-0.513646 0.202917 1.3044
-0.513579 0.201429 1.30418
-0.51423 0.200122 1.30506
-0.520153 0.19989 1.31138
-0.516379 0.199183 1.30825
-0.523108 0.199126 1.31578
-0.518713 0.198276 1.31171
-0.526085 0.197066 1.32278
-0.529266 0.19631 1.32754
-0.530918 0.195181 1.32995
-0.532573 0.194044 1.33237
-0.533353 0.192701 1.33344
-0.533516 0.191217 1.33357
-0.53388 0.189777 1.33401
-0.534197 0.188326 1.33438
-0.534356 0.186841 1.33451
-0.534257 0.185302 1.33424
-0.533637 0.183657 1.33317
-0.532975 0.182009 1.33204
-0.532363 0.180376 1.33099
-0.531689 0.178737 1.32984
-0.531304 0.177158 1.32913
-0.531715 0.175736 1.32964
-0.532411 0.174365 1.33059
-0.533366 0.17304 1.33193
-0.534583 0.171758 1.33368
-0.535729 0.170457 1.33531
-0.536664 0.169112 1.33662
-0.537376 0.167725 1.33759
-0.538039 0.166327 1.33849
-0.538699 0.164925 1.33938
-0.539211 0.163496 1.34004
-0.53953 0.162035 1.34041
-0.53992 0.160583 1.34089
-0.540418 0.159148 1.34153
-0.540861 0.157702 1.34209
-0.541596 0.156298 1.3431
-0.542323 0.15489 1.34409
-0.543089 0.153484 1.34514
-0.543903 0.152082 1.34626
-0.544785 0.150685 1.34749
-0.545585 0.149272 1.34859
-0.546566 0.14788 1.34997
-0.547551 0.146485 1.35135
-0.548453 0.145073 1.35261
-0.549511 0.143676 1.3541
-0.550519 0.142269 1.35552
-0.55138 0.14084 1.35671
-0.552127 0.139393 1.35773
-0.552954 0.137953 1.35887
-0.553602 0.136489 1.35973
-0.555047 0.135106 1.36181
-0.557991 0.133864 1.36618
-0.561839 0.132693 1.37191
-0.565687 0.131501 1.37765
-0.569459 0.130279 1.38326
-0.572148 0.128942 1.38723
-0.573319 0.12746 1.38889
-0.573816 0.125918 1.38952
-0.57426 0.124371 1.39007
-0.574604 0.122814 1.39047
-0.575045 0.121263 1.39102
-0.575482 0.119711 1.39156
-0.575765 0.118147 1.39187
-0.576209 0.116593 1.39242
-0.576713 0.115042 1.39306
-0.57718 0.113486 1.39365
-0.577588 0.111926 1.39415
-0.578084 0.110371 1.39478
-0.57841 0.108804 1.39515
-0.578857 0.107242 1.3957
-0.579322 0.10568 1.39628
-0.579849 0.104119 1.39696
-0.580423 0.102557 1.39771
-0.517332 0.234109 1.31506
-0.517115 0.232528 1.31461
-0.5167 0.230887 1.31385
-0.516205 0.229225 1.31296
-0.515591 0.227531 1.3119
-0.514736 0.225768 1.31046
-0.513791 0.223986 1.30888
-0.51305 0.222271 1.30762
-0.512503 0.22062 1.30666
-0.512155 0.219031 1.30601
-0.51194 0.217484 1.30556
-0.511676 0.215926 1.30504
-0.511407 0.21437 1.30451
-0.511177 0.212827 1.30404
-0.511092 0.211327 1.30379
-0.511157 0.20987 1.30377
-0.511325 0.208442 1.30392
-0.511529 0.207023 1.30412
-0.511722 0.205601 1.3043
-0.51178 0.204144 1.30427
-0.511836 0.202688 1.30424
-0.51185 0.201222 1.30415
-0.511947 0.199777 1.30418
-0.513418 0.198674 1.30633
-0.51502 0.197595 1.30868
-0.524918 0.195501 1.32356
-0.527398 0.194575 1.32725
-0.529859 0.193629 1.33092
-0.531416 0.192466 1.3332
-0.532126 0.191105 1.33417
-0.532432 0.189653 1.33452
-0.532601 0.188171 1.33466
-0.532571 0.186646 1.33449
-0.532147 0.18504 1.33372
-0.531354 0.183361 1.33239
-0.530474 0.181671 1.33092
-0.529719 0.180013 1.32964
-0.529079 0.178384 1.32854
-0.528847 0.176839 1.32806
-0.529336 0.175435 1.3287
-0.530288 0.174116 1.33004
-0.531535 0.172847 1.33184
-0.532924 0.171598 1.33385
-0.534269 0.170334 1.33579
-0.535435 0.169031 1.33746
-0.536147 0.167644 1.33843
-0.536721 0.16623 1.3392
-0.537329 0.164819 1.34001
-0.537743 0.163374 1.34052
-0.537965 0.161897 1.34075
-0.538303 0.160439 1.34115
-0.538795 0.159003 1.34178
-0.539181 0.15755 1.34225
-0.539949 0.156152 1.34331
-0.540674 0.154744 1.3443
-0.541492 0.153347 1.34544
-0.542322 0.151947 1.34659
-0.543254 0.150558 1.34789
-0.544007 0.14914 1.34893
-0.544978 0.147747 1.35029
-0.545857 0.146339 1.35152
-0.546752 0.144927 1.35277
-0.547805 0.143531 1.35426
-0.548815 0.142125 1.35568
-0.549673 0.140696 1.35687
-0.550508 0.139261 1.35803
-0.551392 0.137828 1.35926
-0.552099 0.136371 1.36022
-0.553066 0.134938 1.36158
-0.555469 0.133644 1.36513
-0.559232 0.132469 1.37076
-0.563099 0.131282 1.37654
-0.567098 0.130085 1.38252
-0.570563 0.128818 1.38769
-0.57245 0.127398 1.39044
-0.573054 0.125862 1.39124
-0.573498 0.124313 1.39179
-0.573835 0.122754 1.39218
-0.574221 0.121197 1.39265
-0.574555 0.119636 1.39303
-0.57479 0.118068 1.39327
-0.575173 0.116508 1.39373
-0.575557 0.114948 1.39419
-0.575906 0.113385 1.3946
-0.57625 0.111821 1.395
-0.576741 0.110264 1.39562
-0.577077 0.108698 1.39601
-0.577585 0.107138 1.39666
-0.578104 0.105579 1.39732
-0.578627 0.104016 1.398
-0.579196 0.102454 1.39874
-0.516977 0.235839 1.31733
-0.516482 0.234163 1.31644
-0.516022 0.232502 1.31561
-0.515408 0.230797 1.31454
-0.514745 0.229082 1.31339
-0.514091 0.227376 1.31226
-0.513152 0.225588 1.31068
-0.512164 0.223792 1.30903
-0.511363 0.22206 1.30767
-0.510771 0.220396 1.30664
-0.51038 0.218796 1.30592
-0.510159 0.217249 1.30546
-0.509939 0.215704 1.305
-0.509672 0.214149 1.30447
-0.509452 0.21261 1.30401
-0.509367 0.211112 1.30376
-0.509387 0.209644 1.30368
-0.509505 0.208203 1.30374
-0.509706 0.206785 1.30394
-0.509901 0.205365 1.30412
-0.510009 0.203923 1.30417
-0.510111 0.20248 1.30421
-0.510207 0.201036 1.30425
-0.510397 0.199616 1.30442
-0.511279 0.198368 1.30567
-0.512224 0.197131 1.30701
-0.517534 0.196727 1.31243
-0.514002 0.196091 1.30964
-0.520971 0.196064 1.3176
-0.516687 0.195257 1.31367
-0.522848 0.193727 1.32295
-0.525671 0.192875 1.32718
-0.527897 0.191873 1.3305
-0.529157 0.190642 1.33232
-0.529798 0.189268 1.33319
-0.530218 0.187844 1.33372
-0.53024 0.186334 1.33363
-0.529654 0.184696 1.33261
-0.528709 0.18299 1.33103
-0.527775 0.181292 1.32947
-0.527019 0.179638 1.32819
-0.526519 0.17804 1.3273
-0.526393 0.176519 1.32699
-0.526933 0.175128 1.3277
-0.528113 0.173856 1.3294
-0.529548 0.172625 1.33149
-0.53111 0.17141 1.33378
-0.532619 0.170177 1.33598
-0.534077 0.168927 1.3381
-0.534799 0.167541 1.3391
-0.535375 0.166128 1.33986
-0.53597 0.164715 1.34066
-0.536327 0.163261 1.34108
-0.536451 0.161768 1.34116
-0.53674 0.160302 1.34148
-0.537222 0.158866 1.3421
-0.537505 0.157397 1.34242
-0.538266 0.155999 1.34347
-0.538988 0.154593 1.34446
-0.539813 0.153197 1.3456
-0.540649 0.151799 1.34677
-0.541676 0.150424 1.34823
-0.542429 0.149007 1.34926
-0.543397 0.147615 1.35063
-0.544267 0.146205 1.35184
-0.545157 0.144794 1.35309
-0.546156 0.143393 1.3545
-0.547164 0.141987 1.35593
-0.548067 0.140565 1.35719
-0.548951 0.139135 1.35843
-0.549883 0.137708 1.35973
-0.550647 0.136257 1.36079
-0.551673 0.134831 1.36224
-0.553498 0.133479 1.36491
-0.556747 0.132257 1.36977
-0.560588 0.13107 1.37553
-0.564706 0.129887 1.38172
-0.568345 0.128639 1.38717
-0.570961 0.127283 1.39105
-0.572074 0.125789 1.39263
-0.572523 0.124238 1.39319
-0.572806 0.122674 1.3935
-0.573137 0.121112 1.39388
-0.573417 0.119546 1.39419
-0.573646 0.117976 1.39441
-0.573972 0.116412 1.39478
-0.574297 0.114849 1.39516
-0.574577 0.113281 1.39546
-0.574858 0.111713 1.39576
-0.575348 0.110156 1.39639
-0.575749 0.108593 1.39687
-0.576272 0.107033 1.39755
-0.57679 0.105473 1.39822
-0.577297 0.103909 1.39886
-0.577856 0.102347 1.39959
-0.516819 0.237643 1.31992
-0.516119 0.235893 1.31871
-0.515515 0.234179 1.31764
-0.514908 0.23247 1.31658
-0.514136 0.230714 1.31526
-0.513377 0.228968 1.31396
-0.512676 0.227247 1.31274
-0.511687 0.225443 1.31109
-0.510613 0.223621 1.3093
-0.509764 0.221874 1.30786
-0.509172 0.220211 1.30682
-0.508736 0.218598 1.30602
-0.50848 0.217041 1.30551
-0.508302 0.21551 1.30511
-0.508079 0.213969 1.30465
-0.507907 0.212444 1.30426
-0.507822 0.210946 1.30401
-0.507836 0.209477 1.30392
-0.507901 0.208022 1.3039
-0.508055 0.206593 1.30402
-0.508212 0.205164 1.30415
-0.508366 0.203735 1.30427
-0.508515 0.202305 1.30438
-0.508706 0.200886 1.30456
-0.508994 0.199491 1.30489
-0.509257 0.19809 1.30518
-0.50957 0.196701 1.30555
-0.51067 0.195501 1.30713
-0.51264 0.194504 1.31007
-0.521442 0.19211 1.32335
-0.52405 0.191203 1.32727
-0.525706 0.19007 1.32971
-0.526625 0.188764 1.33101
-0.527249 0.18739 1.33186
-0.527313 0.185893 1.33184
-0.526737 0.184263 1.33083
-0.525794 0.182561 1.32925
-0.52488 0.180872 1.32771
-0.524322 0.179262 1.32673
-0.52404 0.177711 1.32617
-0.524072 0.176225 1.32611
-0.524647 0.174844 1.32687
-0.526063 0.17362 1.32894
-0.527584 0.172407 1.33117
-0.529308 0.171224 1.33372
-0.531029 0.170031 1.33626
-0.532773 0.168832 1.33883
-0.533555 0.167457 1.33992
-0.53418 0.166051 1.34076
-0.534757 0.164635 1.34153
-0.535008 0.163163 1.3418
-0.535024 0.161653 1.3417
-0.535176 0.160166 1.34181
-0.535562 0.158715 1.34229
-0.535749 0.157233 1.34246
-0.536502 0.155835 1.3435
-0.537266 0.154436 1.34455
-0.538147 0.15305 1.34579
-0.539027 0.151659 1.34703
-0.540142 0.150296 1.34862
-0.540888 0.14888 1.34965
-0.541863 0.147489 1.35103
-0.542736 0.14608 1.35226
-0.543668 0.144675 1.35357
-0.544661 0.143273 1.35498
-0.545669 0.141867 1.35641
-0.546526 0.14044 1.35761
-0.547456 0.139016 1.35892
-0.548341 0.137584 1.36016
-0.549106 0.136134 1.36121
-0.550218 0.134718 1.3628
-0.551495 0.133312 1.36464
-0.554162 0.132034 1.36862
-0.558013 0.130852 1.37442
-0.562161 0.129676 1.38067
-0.565954 0.128445 1.38638
-0.569339 0.127156 1.39146
-0.571092 0.125717 1.39403
-0.571593 0.124168 1.39467
-0.571925 0.122606 1.39505
-0.57225 0.121042 1.39542
-0.572524 0.119474 1.39572
-0.572749 0.117902 1.39594
-0.57302 0.116333 1.39623
-0.573238 0.114761 1.39643
-0.573455 0.113188 1.39664
-0.573677 0.111616 1.39685
-0.574117 0.110056 1.3974
-0.574528 0.108492 1.39791
-0.575053 0.106933 1.39859
-0.575515 0.105368 1.39917
-0.575961 0.103802 1.39972
-0.576509 0.102238 1.40044
-0.516046 0.239253 1.32156
-0.515679 0.237606 1.32086
-0.515066 0.235883 1.31978
-0.514421 0.234155 1.31865
-0.513681 0.232402 1.31737
-0.512769 0.230601 1.31583
-0.51191 0.228823 1.31437
-0.511196 0.227097 1.31313
-0.510164 0.22528 1.3114
-0.509093 0.223459 1.30961
-0.508253 0.221715 1.30817
-0.507659 0.220051 1.30713
-0.507189 0.218428 1.30628
-0.506937 0.216873 1.30576
-0.506801 0.215355 1.30543
-0.506631 0.213829 1.30505
-0.506509 0.212318 1.30474
-0.506469 0.210833 1.30456
-0.50648 0.209363 1.30445
-0.506495 0.207895 1.30436
-0.506599 0.206452 1.3044
-0.50671 0.205012 1.30446
-0.506826 0.203574 1.30452
-0.507022 0.202156 1.3047
-0.507307 0.200762 1.30503
-0.50769 0.199392 1.30551
-0.508092 0.198025 1.30602
-0.508567 0.196675 1.30664
-0.509076 0.195331 1.30731
-0.510351 0.19417 1.30917
-0.515382 0.193678 1.3142
-0.512388 0.193181 1.31222
-0.518282 0.192872 1.31857
-0.514626 0.192228 1.31558
-0.517204 0.19134 1.31947
-0.520043 0.190496 1.32376
-0.522021 0.189443 1.32672
-0.523186 0.188199 1.3284
-0.523978 0.186868 1.32951
-0.524143 0.1854 1.32965
-0.523713 0.183805 1.32886
-0.523066 0.18217 1.32773
-0.522524 0.180561 1.32677
-0.522283 0.179018 1.32628
-0.522268 0.177522 1.32613
-0.522451 0.176067 1.3263
-0.523194 0.174719 1.32733
-0.524705 0.173513 1.32955
-0.526275 0.172311 1.33187
-0.528089 0.171144 1.33456
-0.529935 0.169973 1.3373
-0.531603 0.168761 1.33976
-0.532397 0.167388 1.34087
-0.533068 0.165989 1.34179
-0.533599 0.164565 1.34249
-0.533836 0.16309 1.34273
-0.533796 0.16157 1.34255
-0.533847 0.160067 1.34251
-0.534132 0.1586 1.34283
-0.534263 0.15711 1.34291
-0.534924 0.155699 1.34381
-0.535646 0.154294 1.3448
-0.536528 0.152909 1.34605
-0.537403 0.151518 1.34728
-0.538555 0.150162 1.34894
-0.539353 0.148752 1.35005
-0.540381 0.147369 1.35152
-0.541262 0.145961 1.35276
-0.542191 0.144557 1.35407
-0.543131 0.143148 1.3554
-0.544132 0.141743 1.35683
-0.544945 0.140311 1.35796
-0.545922 0.138893 1.35934
-0.546857 0.137466 1.36066
-0.54766 0.136022 1.36178
-0.548717 0.134599 1.36329
-0.549972 0.133192 1.3651
-0.552069 0.131859 1.36822
-0.555402 0.130632 1.37324
-0.559503 0.129454 1.37944
-0.563523 0.128247 1.38552
-0.567163 0.126983 1.39101
-0.56966 0.125607 1.39473
-0.570717 0.124102 1.39623
-0.571099 0.122541 1.39669
-0.571368 0.120971 1.39698
-0.571584 0.119398 1.39718
-0.571752 0.11782 1.39732
-0.571972 0.116246 1.39753
-0.572136 0.11467 1.39765
-0.57235 0.113097 1.39785
-0.572567 0.111523 1.39806
-0.572953 0.109959 1.39853
-0.57336 0.108394 1.39902
-0.573829 0.106831 1.39962
-0.57423 0.105263 1.40011
-0.574614 0.103694 1.40057
-0.575106 0.102129 1.4012
-0.581389 0.100819 1.40779
-0.575677 0.100563 1.40195
-0.514643 0.23913 1.3221
-0.514321 0.237498 1.32147
-0.513742 0.235786 1.32044
-0.513113 0.234062 1.31933
-0.512245 0.232267 1.31785
-0.511329 0.230464 1.31629
-0.510468 0.228686 1.31481
-0.509709 0.226946 1.3135
-0.508687 0.225131 1.31178
-0.507627 0.223313 1.31
-0.506793 0.221571 1.30857
-0.506205 0.219909 1.30753
-0.505738 0.218287 1.30668
-0.505488 0.216733 1.30616
-0.505398 0.215228 1.3059
-0.505277 0.213715 1.30559
-0.505167 0.212208 1.3053
-0.505184 0.210739 1.30521
-0.505156 0.209258 1.30504
-0.505121 0.207776 1.30487
-0.505213 0.206331 1.30489
-0.505317 0.204889 1.30494
-0.505476 0.203462 1.30506
-0.505761 0.202068 1.30539
-0.506136 0.200696 1.30586
-0.506525 0.199327 1.30634
-0.506923 0.197959 1.30685
-0.507395 0.196608 1.30746
-0.507948 0.195275 1.30821
-0.508648 0.193975 1.30918
-0.51015 0.192862 1.3114
-0.511856 0.191788 1.31395
-0.5139 0.190782 1.31701
-0.516176 0.189818 1.32045
-0.518316 0.18881 1.32366
-0.519589 0.187598 1.32552
-0.520485 0.186297 1.3268
-0.52077 0.184861 1.32712
-0.520528 0.183312 1.32662
-0.520226 0.181754 1.32603
-0.520041 0.180223 1.32562
-0.520239 0.178772 1.32581
-0.520865 0.177406 1.32666
-0.521605 0.17606 1.32769
-0.522623 0.174764 1.32915
-0.524244 0.173578 1.33156
-0.525802 0.17237 1.33386
-0.527285 0.171141 1.33605
-0.528883 0.169924 1.33841
-0.530388 0.168682 1.34063
-0.531181 0.167308 1.34174
-0.531861 0.165911 1.34267
-0.532403 0.164488 1.34339
-0.532681 0.16302 1.3437
-0.532598 0.161492 1.34345
-0.532583 0.159978 1.3433
-0.532764 0.158495 1.34346
-0.532835 0.156995 1.34345
-0.533394 0.155569 1.34419
-0.53407 0.154158 1.34512
-0.534857 0.15276 1.34622
-0.535685 0.151364 1.34738
-0.536876 0.150015 1.34911
-0.537727 0.148613 1.3503
-0.538813 0.147238 1.35187
-0.539792 0.145844 1.35326
-0.54081 0.144451 1.35472
-0.541698 0.143035 1.35597
-0.542692 0.14163 1.35739
-0.5435 0.140197 1.35852
-0.544476 0.13878 1.35991
-0.545407 0.137353 1.36122
-0.546262 0.135914 1.36243
-0.547263 0.134486 1.36385
-0.548465 0.133073 1.36559
-0.550028 0.131689 1.36789
-0.552808 0.130412 1.37207
-0.556382 0.129191 1.37748
-0.560527 0.127999 1.38377
-0.564398 0.12676 1.38964
-0.567616 0.125446 1.39449
-0.569302 0.123993 1.39697
-0.570238 0.122474 1.39829
-0.570506 0.120903 1.39857
-0.57072 0.119327 1.39877
-0.570885 0.117748 1.3989
-0.571054 0.116169 1.39903
-0.571162 0.114588 1.39907
-0.571317 0.113009 1.39918
-0.571473 0.111431 1.39929
-0.571756 0.10986 1.3996
-0.5721 0.108291 1.4
-0.572497 0.106725 1.40049
-0.572834 0.105154 1.40088
-0.57316 0.103582 1.40125
-0.573652 0.102017 1.40188
-0.57417 0.10045 1.40255
-0.513341 0.239041 1.3228
-0.513045 0.237417 1.32221
-0.512371 0.235673 1.32102
-0.511683 0.23393 1.31982
-0.510692 0.232095 1.31813
-0.509795 0.230298 1.3166
-0.509024 0.228548 1.31526
-0.508239 0.226799 1.3139
-0.50723 0.224989 1.31219
-0.506221 0.223185 1.31048
-0.505476 0.22147 1.30919
-0.504893 0.219808 1.30815
-0.50447 0.218199 1.30736
-0.50422 0.216645 1.30685
-0.504128 0.215138 1.30658
-0.50401 0.213627 1.30627
-0.503949 0.212133 1.30606
-0.504019 0.210678 1.30605
-0.504037 0.209209 1.30595
-0.504046 0.207739 1.30585
-0.504132 0.206291 1.30586
-0.504235 0.204848 1.3059
-0.504396 0.203421 1.30603
-0.504687 0.202028 1.30637
-0.505062 0.200656 1.30684
-0.50541 0.199276 1.30726
-0.505754 0.197894 1.30768
-0.506218 0.19654 1.30828
-0.506818 0.195218 1.3091
-0.507623 0.193943 1.31024
-0.508674 0.192722 1.31177
-0.509915 0.191541 1.31359
-0.511461 0.190423 1.31589
-0.513192 0.189339 1.31848
-0.514822 0.188222 1.32091
-0.516174 0.187035 1.3229
-0.517259 0.185783 1.32448
-0.517775 0.184402 1.32517
-0.517924 0.182941 1.32527
-0.51798 0.181462 1.32524
-0.518177 0.180012 1.32542
-0.518836 0.178656 1.32633
-0.519947 0.177387 1.32795
-0.521058 0.176113 1.32956
-0.522447 0.174886 1.33161
-0.524138 0.17371 1.33413
-0.525484 0.172459 1.33611
-0.526613 0.171162 1.33775
-0.527839 0.169876 1.33954
-0.528993 0.168572 1.34122
-0.529726 0.167187 1.34223
-0.530405 0.165791 1.34317
-0.530959 0.16437 1.34391
-0.531346 0.16292 1.34439
-0.531356 0.161407 1.34428
-0.531352 0.159894 1.34415
-0.531473 0.158401 1.34421
-0.531526 0.156898 1.34417
-0.531928 0.155449 1.34468
-0.532453 0.154016 1.34537
-0.53313 0.152604 1.3463
-0.533947 0.151207 1.34745
-0.535099 0.149853 1.34912
-0.53605 0.148466 1.35048
-0.537239 0.147106 1.3522
-0.538316 0.145726 1.35376
-0.539337 0.144333 1.35522
-0.540215 0.142917 1.35646
-0.541198 0.14151 1.35787
-0.541994 0.140077 1.35898
-0.542977 0.138661 1.36039
-0.543912 0.137235 1.36172
-0.544817 0.135802 1.363
-0.545777 0.134369 1.36436
-0.546929 0.132952 1.36603
-0.548051 0.131525 1.36765
-0.550302 0.1302 1.37102
-0.55325 0.128925 1.37548
-0.560933 0.126478 1.38716
-0.564842 0.125227 1.3931
-0.567322 0.123839 1.39683
-0.569004 0.122379 1.39931
-0.569917 0.120854 1.4006
-0.570078 0.119272 1.40072
-0.570187 0.117687 1.40075
-0.570295 0.116101 1.40079
-0.570343 0.114514 1.40074
-0.570442 0.112931 1.40076
-0.570547 0.111348 1.40079
-0.570711 0.109769 1.40091
-0.570935 0.108194 1.40113
-0.571211 0.10662 1.40143
-0.571435 0.105045 1.40164
-0.571707 0.103471 1.40193
-0.572197 0.101905 1.40256
-0.572714 0.100338 1.40324
-0.578973 0.0990119 1.40984
-0.57336 0.098773 1.40411
-0.511533 0.237259 1.32258
-0.510785 0.23549 1.32127
-0.509997 0.233714 1.3199
-0.508981 0.231872 1.31816
-0.508197 0.230111 1.3168
-0.507607 0.228418 1.31574
-0.506957 0.226711 1.3146
-0.506006 0.224917 1.31297
-0.505042 0.223127 1.31132
-0.50434 0.221423 1.31009
-0.503758 0.219761 1.30905
-0.503343 0.218153 1.30827
-0.503133 0.21661 1.30782
-0.503038 0.215102 1.30755
-0.502957 0.2136 1.30729
-0.502938 0.212117 1.30714
-0.503013 0.210662 1.30714
-0.503036 0.209194 1.30705
-0.503047 0.207723 1.30695
-0.503095 0.206263 1.3069
-0.503164 0.204811 1.30689
-0.503332 0.203384 1.30703
-0.503624 0.201991 1.30737
-0.503955 0.200607 1.30776
-0.504247 0.199212 1.3081
-0.504579 0.197826 1.3085
-0.50504 0.196472 1.3091
-0.505726 0.195171 1.31006
-0.506623 0.193917 1.31135
-0.507674 0.192696 1.31288
-0.508901 0.191511 1.31469
-0.510295 0.190357 1.31676
-0.511575 0.18917 1.31864
-0.512775 0.187959 1.32041
-0.513824 0.186707 1.32193
-0.514718 0.185416 1.32321
-0.515249 0.184043 1.32392
-0.515639 0.182637 1.32441
-0.516023 0.181229 1.32489
-0.516806 0.179902 1.326
-0.517919 0.178638 1.32762
-0.519454 0.177454 1.32991
-0.520989 0.17626 1.33219
-0.522694 0.175091 1.33474
-0.524117 0.173859 1.33684
-0.525164 0.172549 1.33836
-0.526002 0.171195 1.33955
-0.526905 0.169849 1.34084
-0.527717 0.168482 1.34199
-0.528384 0.167086 1.34291
-0.529015 0.165681 1.34377
-0.529571 0.164261 1.34452
-0.530021 0.162821 1.34509
-0.53014 0.161326 1.34515
-0.530154 0.159815 1.34505
-0.530231 0.158315 1.34505
-0.53023 0.156804 1.34492
-0.530474 0.155331 1.34518
-0.530842 0.153875 1.34562
-0.531451 0.152453 1.34645
-0.532209 0.15105 1.34751
-0.533308 0.14969 1.34911
-0.534311 0.148312 1.35055
-0.535557 0.14696 1.35237
-0.536689 0.145588 1.35402
-0.537759 0.144202 1.35556
-0.538635 0.142787 1.3568
-0.539655 0.141385 1.35827
-0.540449 0.139952 1.35938
-0.541435 0.138537 1.3608
-0.542374 0.137112 1.36214
-0.543324 0.135683 1.36349
-0.544331 0.134257 1.36494
-0.545535 0.132845 1.36669
-0.546616 0.131414 1.36825
-0.548381 0.130043 1.37088
-0.550671 0.12871 1.37432
-0.556822 0.127689 1.3809
-0.553493 0.127412 1.37859
-0.561865 0.12499 1.39139
-0.565167 0.123672 1.39641
-0.567675 0.122276 1.40019
-0.569335 0.120805 1.40264
-0.569444 0.119216 1.40268
-0.569545 0.117628 1.4027
-0.569592 0.116037 1.40264
-0.569582 0.114444 1.4025
-0.569618 0.112854 1.40242
-0.569713 0.11127 1.40244
-0.569767 0.109684 1.40239
-0.569927 0.108104 1.4025
-0.570136 0.106526 1.4027
-0.570302 0.104947 1.40282
-0.570522 0.10337 1.40303
-0.570961 0.101801 1.40358
-0.571474 0.100233 1.40425
-0.572064 0.0986656 1.40504
-0.510016 0.237098 1.32293
-0.507228 0.231634 1.31813
-0.506665 0.229945 1.31711
-0.50624 0.228304 1.31631
-0.505653 0.226616 1.31525
-0.50479 0.224849 1.31376
-0.503908 0.223082 1.31224
-0.503212 0.221379 1.31101
-0.502641 0.219719 1.30998
-0.50227 0.218124 1.30927
-0.502061 0.216579 1.30881
-0.501968 0.215071 1.30854
-0.501881 0.213566 1.30828
-0.501862 0.212083 1.30813
-0.501972 0.210637 1.30818
-0.501999 0.209168 1.3081
-0.502013 0.207697 1.30799
-0.502067 0.206239 1.30796
-0.502135 0.204785 1.30794
-0.502261 0.203346 1.30801
-0.502546 0.20195 1.30834
-0.502871 0.200564 1.30873
-0.503157 0.199167 1.30906
-0.503528 0.19779 1.30952
-0.50403 0.196446 1.31019
-0.504766 0.195156 1.31123
-0.505624 0.193892 1.31246
-0.506622 0.192658 1.31392
-0.507703 0.191438 1.3155
-0.508902 0.190239 1.31726
-0.509994 0.18901 1.31886
-0.511051 0.187767 1.32041
-0.511965 0.186487 1.32172
-0.512763 0.185177 1.32286
-0.513336 0.183815 1.32363
-0.513782 0.182423 1.32421
-0.514311 0.181047 1.32492
-0.515523 0.17981 1.32671
-0.517086 0.178638 1.32904
-0.519005 0.177529 1.33194
-0.5209 0.176404 1.3348
-0.522829 0.175275 1.33771
-0.523995 0.173989 1.33942
-0.524764 0.172624 1.3405
-0.525335 0.171218 1.34128
-0.525943 0.169816 1.34211
-0.526446 0.168393 1.34277
-0.527052 0.166987 1.34359
-0.527664 0.165579 1.34443
-0.528175 0.164151 1.34511
-0.528719 0.162727 1.34583
-0.528989 0.161256 1.34613
-0.52907 0.159755 1.34613
-0.529119 0.15825 1.34608
-0.529106 0.156736 1.34594
-0.529157 0.155233 1.34589
-0.529324 0.153748 1.34602
-0.529776 0.152304 1.34661
-0.530427 0.150887 1.3475
-0.531478 0.149521 1.34903
-0.532527 0.14815 1.35055
-0.533816 0.146807 1.35244
-0.535047 0.145448 1.35425
-0.536168 0.144069 1.35588
-0.537 0.142649 1.35706
-0.538058 0.141253 1.35859
-0.538904 0.139826 1.35978
-0.539897 0.138414 1.36121
-0.540887 0.136995 1.36264
-0.541924 0.135575 1.36413
-0.542922 0.134148 1.36557
-0.544176 0.132741 1.36741
-0.54526 0.131311 1.36898
-0.546534 0.129894 1.37084
-0.548193 0.128505 1.37331
-0.550273 0.127144 1.37644
-0.56211 0.123435 1.39457
-0.56548 0.122108 1.39971
-0.567958 0.120699 1.40345
-0.568749 0.119158 1.40456
-0.568792 0.117563 1.40449
-0.568772 0.115966 1.40432
-0.568759 0.11437 1.40417
-0.568749 0.112776 1.40402
-0.568791 0.111187 1.40395
-0.568781 0.109596 1.4038
-0.568874 0.108011 1.40381
-0.568979 0.106427 1.40385
-0.569194 0.10485 1.40405
-0.569418 0.103271 1.40426
-0.569803 0.1017 1.40473
-0.570257 0.100129 1.40531
-0.570831 0.0985605 1.40607
-0.576891 0.0972124 1.41241
-0.571469 0.0969917 1.40693
-0.506179 0.230112 1.31908
-0.505686 0.228447 1.31817
-0.504309 0.226509 1.31585
-0.503609 0.224791 1.31461
-0.502863 0.223065 1.3133
-0.502251 0.221386 1.3122
-0.50169 0.219728 1.31118
-0.501361 0.218143 1.31053
-0.501156 0.216598 1.31008
-0.501023 0.215076 1.30974
-0.500942 0.213572 1.30949
-0.500964 0.212099 1.3094
-0.501036 0.210641 1.30939
-0.50102 0.209159 1.30924
-0.501023 0.207684 1.30912
-0.501028 0.206211 1.309
-0.50105 0.204744 1.30891
-0.50117 0.203303 1.30897
-0.501411 0.201895 1.30923
-0.501693 0.200497 1.30955
-0.501979 0.1991 1.30988
-0.502359 0.197725 1.31036
-0.502874 0.196383 1.31105
-0.503661 0.195106 1.31218
-0.504552 0.19385 1.31346
-0.505504 0.192604 1.31485
-0.506521 0.191368 1.31633
-0.507578 0.190137 1.31788
-0.50857 0.188885 1.31933
-0.50949 0.187612 1.32066
-0.510311 0.186312 1.32183
-0.511021 0.184985 1.32283
-0.511591 0.183623 1.3236
-0.512037 0.182233 1.32418
-0.512658 0.180878 1.32504
-0.513992 0.179667 1.32703
-0.515942 0.178575 1.32998
-0.518266 0.177547 1.33353
-0.520453 0.176478 1.33686
-0.522323 0.175335 1.33969
-0.523425 0.174035 1.3413
-0.523889 0.17261 1.3419
-0.524191 0.171153 1.34225
-0.524552 0.169706 1.34269
-0.525059 0.168284 1.34337
-0.525614 0.166869 1.34412
-0.526209 0.165458 1.34493
-0.526715 0.16403 1.3456
-0.52726 0.162606 1.34633
-0.527633 0.161153 1.34679
-0.52776 0.159659 1.34686
-0.527811 0.158153 1.34681
-0.527795 0.156639 1.34666
-0.527793 0.155128 1.34653
-0.527858 0.153628 1.34651
-0.528255 0.152176 1.347
-0.528806 0.150746 1.34774
-0.5298 0.149374 1.34918
-0.530838 0.148003 1.35069
-0.532081 0.146653 1.35252
-0.533308 0.145295 1.35432
-0.534426 0.143918 1.35595
-0.535261 0.142499 1.35714
-0.536323 0.141105 1.35868
-0.537263 0.139691 1.36003
-0.53831 0.138284 1.36155
-0.539349 0.136871 1.36305
-0.54043 0.135458 1.36463
-0.54147 0.134034 1.36613
-0.542724 0.132628 1.36797
-0.543807 0.131198 1.36955
-0.545074 0.12978 1.37141
-0.546182 0.128341 1.37302
-0.547578 0.126923 1.37508
-0.553683 0.125885 1.38164
-0.550255 0.125605 1.37916
-0.559015 0.123193 1.39265
-0.56321 0.121935 1.3991
-0.566558 0.120591 1.40423
-0.568141 0.119104 1.40657
-0.568177 0.117507 1.4065
-0.568157 0.115907 1.40633
-0.568152 0.11431 1.40619
-0.568091 0.11271 1.40596
-0.568078 0.111115 1.4058
-0.56801 0.109519 1.40556
-0.56805 0.107929 1.40549
-0.568104 0.106342 1.40544
-0.568325 0.104762 1.40565
-0.568551 0.103183 1.40587
-0.568881 0.101606 1.40625
-0.56927 0.100033 1.40673
-0.569726 0.0984582 1.40731
-0.570299 0.0968865 1.40807
-0.57199 0.0954167 1.40761
-0.57082 0.0953119 1.40875
-0.576459 0.0939242 1.41445
-0.571221 0.093732 1.40925
-0.505574 0.227221 1.32061
-0.504103 0.225254 1.31813
-0.502706 0.223321 1.31577
-0.501392 0.221425 1.31355
-0.501002 0.219815 1.3128
-0.500751 0.218252 1.31227
-0.500542 0.216703 1.31181
-0.50037 0.215168 1.31141
-0.500295 0.213663 1.31116
-0.500319 0.212188 1.31108
-0.500355 0.210717 1.31101
-0.500372 0.209243 1.31091
-0.500414 0.207776 1.31085
-0.50037 0.206287 1.31065
-0.500343 0.204805 1.31048
-0.500451 0.203359 1.31053
-0.500605 0.201926 1.31065
-0.500808 0.200506 1.31084
-0.5011 0.199109 1.31118
-0.501532 0.197746 1.31175
-0.502057 0.196405 1.31246
-0.50285 0.195128 1.31359
-0.503699 0.19386 1.31481
-0.504597 0.192601 1.31612
-0.505486 0.191334 1.3174
-0.506453 0.190081 1.31881
-0.507347 0.188807 1.32011
-0.508171 0.187512 1.32129
-0.5089 0.186192 1.32232
-0.509554 0.184852 1.32324
-0.510072 0.18348 1.32393
-0.51051 0.182089 1.3245
-0.511179 0.180744 1.32543
-0.512596 0.179552 1.32756
-0.514809 0.178514 1.33094
-0.517138 0.177487 1.33451
-0.519333 0.17642 1.33786
-0.521189 0.175274 1.34068
-0.522236 0.173963 1.34221
-0.522529 0.172505 1.34254
-0.522924 0.171066 1.34304
-0.523338 0.169628 1.34357
-0.523807 0.168199 1.34418
-0.524356 0.166782 1.34492
-0.524903 0.165363 1.34566
-0.525368 0.163928 1.34627
-0.525873 0.162498 1.34694
-0.526327 0.161057 1.34753
-0.526495 0.15957 1.34766
-0.526545 0.158064 1.34761
-0.526526 0.156549 1.34745
-0.526476 0.15503 1.34724
-0.526448 0.153516 1.34707
-0.526792 0.152057 1.34749
-0.527337 0.150626 1.34822
-0.528283 0.149248 1.34959
-0.529318 0.147877 1.35109
-0.530546 0.146526 1.35291
-0.531716 0.145162 1.35463
-0.532737 0.143773 1.35611
-0.533564 0.142355 1.35729
-0.534621 0.140961 1.35883
-0.535608 0.139552 1.36025
-0.536669 0.138149 1.3618
-0.537759 0.136742 1.36339
-0.538842 0.13533 1.36497
-0.539925 0.133912 1.36655
-0.541133 0.132501 1.36832
-0.542214 0.131072 1.3699
-0.543476 0.129654 1.37176
-0.544573 0.128214 1.37335
-0.545375 0.126744 1.37449
-0.547337 0.125369 1.37745
-0.559907 0.121683 1.39686
-0.564072 0.120404 1.40329
-0.566526 0.118981 1.40702
-0.567298 0.117433 1.4081
-0.56734 0.115835 1.40803
-0.567393 0.114239 1.40798
-0.567343 0.112639 1.40776
-0.567327 0.111042 1.4076
-0.567245 0.109442 1.40733
-0.567229 0.107848 1.40717
-0.567233 0.106256 1.40704
-0.567459 0.104675 1.40726
-0.567687 0.103094 1.40749
-0.567967 0.101514 1.40779
-0.568289 0.0999355 1.40816
-0.568677 0.0983591 1.40864
-0.569182 0.0967843 1.40929
-0.569658 0.0952069 1.4099
-0.570117 0.0936273 1.41049
-0.504619 0.224217 1.32158
-0.502498 0.222062 1.31805
-0.501369 0.220222 1.31612
-0.500347 0.218422 1.31435
-0.500169 0.21688 1.31394
-0.500041 0.215354 1.3136
-0.499969 0.213847 1.31336
-0.499951 0.212356 1.3132
-0.49994 0.21087 1.31306
-0.499871 0.209368 1.31282
-0.49987 0.207887 1.31269
-0.49979 0.206385 1.31244
-0.499765 0.204901 1.31227
-0.499867 0.203451 1.31231
-0.499975 0.202004 1.31235
-0.500129 0.200569 1.31247
-0.500419 0.199169 1.31281
-0.500846 0.197803 1.31336
-0.501377 0.196462 1.31408
-0.502164 0.195182 1.31521
-0.502971 0.193902 1.31637
-0.503825 0.19263 1.31761
-0.504673 0.191352 1.31883
-0.505553 0.190078 1.32011
-0.506359 0.188782 1.32127
-0.507081 0.187463 1.32229
-0.507708 0.18612 1.32316
-0.508225 0.18475 1.32386
-0.508688 0.183366 1.32447
-0.50912 0.181973 1.32503
-0.509954 0.180664 1.32623
-0.511529 0.179505 1.32861
-0.513826 0.178484 1.33214
-0.51612 0.17745 1.33566
-0.51833 0.176385 1.33905
-0.520017 0.175206 1.34161
-0.520919 0.173867 1.34291
-0.521216 0.17241 1.34326
-0.521659 0.170979 1.34383
-0.522121 0.16955 1.34444
-0.522591 0.16812 1.34505
-0.523181 0.16671 1.34586
-0.523726 0.16529 1.3466
-0.52419 0.163855 1.3472
-0.524658 0.162418 1.34782
-0.525108 0.160976 1.3484
-0.525227 0.15948 1.34846
-0.525184 0.15796 1.34826
-0.525077 0.156431 1.34796
-0.524977 0.154905 1.34767
-0.524944 0.15339 1.34749
-0.525246 0.151926 1.34784
-0.52584 0.150502 1.34865
-0.526836 0.149132 1.3501
-0.527865 0.14776 1.3516
-0.529041 0.146404 1.35334
-0.530239 0.145043 1.35511
-0.531197 0.143646 1.3565
-0.531969 0.142222 1.35759
-0.533016 0.140828 1.35912
-0.534048 0.139426 1.36062
-0.535063 0.138017 1.3621
-0.53621 0.136618 1.36379
-0.537293 0.135206 1.36537
-0.538421 0.133794 1.36703
-0.539579 0.132378 1.36873
-0.540704 0.130953 1.37038
-0.541919 0.129532 1.37217
-0.543015 0.128092 1.37377
-0.543769 0.126618 1.37483
-0.545037 0.125185 1.3767
-0.551023 0.124123 1.38313
-0.547901 0.123874 1.3811
-0.561246 0.120193 1.40181
-0.564628 0.118839 1.40702
-0.566254 0.117349 1.40945
-0.566363 0.115753 1.40948
-0.566476 0.114161 1.40952
-0.566479 0.11256 1.40939
-0.566511 0.110964 1.4093
-0.566481 0.109366 1.40912
-0.566517 0.107772 1.40904
-0.56652 0.106177 1.40891
-0.566792 0.104596 1.4092
-0.566966 0.10301 1.40933
-0.567188 0.101427 1.40955
-0.567409 0.0998426 1.40976
-0.567731 0.0982619 1.41013
-0.568074 0.0966812 1.41053
-0.568481 0.0951006 1.41104
-0.572934 0.093603 1.41792
-0.516889 0.235758 1.3419
-0.52015 0.238732 1.35014
-0.51853 0.236633 1.3474
-0.517167 0.234629 1.34507
-0.503723 0.222739 1.32278
-0.501829 0.220659 1.31961
-0.500144 0.218655 1.31677
-0.500011 0.217121 1.31642
-0.499925 0.215604 1.31616
-0.499819 0.214082 1.31586
-0.499756 0.212575 1.31562
-0.499678 0.211066 1.31537
-0.499514 0.209534 1.31498
-0.499436 0.208028 1.31472
-0.499376 0.206529 1.3145
-0.4994 0.205055 1.31441
-0.499501 0.203602 1.31444
-0.499561 0.202139 1.31441
-0.499704 0.200698 1.31451
-0.499985 0.199293 1.31483
-0.500365 0.197913 1.31531
-0.500846 0.196556 1.31595
-0.501585 0.195262 1.31701
-0.502296 0.193957 1.31802
-0.503059 0.192662 1.31911
-0.503859 0.191371 1.32027
-0.504658 0.190076 1.32142
-0.505371 0.188758 1.32243
-0.505996 0.187416 1.3233
-0.506519 0.186049 1.32401
-0.5069 0.184649 1.32449
-0.507314 0.183254 1.32502
-0.507785 0.18187 1.32565
-0.508803 0.1806 1.32714
-0.51031 0.179427 1.32942
-0.512645 0.178414 1.33303
-0.51492 0.177376 1.33653
-0.517062 0.176298 1.33983
-0.51857 0.175084 1.3421
-0.519559 0.173762 1.34355
-0.519903 0.172314 1.34397
-0.520352 0.170884 1.34456
-0.520821 0.169456 1.34517
-0.521284 0.168025 1.34578
-0.521866 0.166614 1.34658
-0.522365 0.165186 1.34724
-0.522789 0.163743 1.34779
-0.523205 0.162298 1.34832
-0.523559 0.160841 1.34875
-0.523628 0.159338 1.34873
-0.52354 0.157811 1.34846
-0.523434 0.156283 1.34816
-0.523327 0.154757 1.34786
-0.523335 0.153249 1.34774
-0.523638 0.151786 1.34809
-0.524285 0.150371 1.34899
-0.525335 0.149007 1.35053
-0.526419 0.147645 1.35212
-0.527635 0.146293 1.35393
-0.528871 0.144938 1.35577
-0.529778 0.143535 1.35708
-0.530494 0.142105 1.35808
-0.531482 0.140703 1.35952
-0.532507 0.139301 1.36102
-0.533474 0.137888 1.36243
-0.534664 0.136494 1.36419
-0.535737 0.135081 1.36576
-0.536913 0.133674 1.3675
-0.538015 0.132253 1.36912
-0.53919 0.130834 1.37085
-0.54035 0.129408 1.37256
-0.541497 0.127975 1.37425
-0.542254 0.126501 1.37532
-0.54289 0.125013 1.37619
-0.54499 0.123644 1.37939
-0.556861 0.121451 1.39501
-0.5542 0.121247 1.39374
-0.558973 0.120021 1.40118
-0.563352 0.118739 1.408
-0.565129 0.117258 1.41067
-0.565296 0.115667 1.4108
-0.565466 0.114075 1.41093
-0.565527 0.112478 1.41089
-0.565569 0.11088 1.41082
-0.565597 0.109283 1.41072
-0.56564 0.107687 1.41065
-0.565594 0.106089 1.41044
-0.565805 0.104503 1.41063
-0.565916 0.102913 1.41067
-0.566132 0.101328 1.41087
-0.566252 0.0997405 1.41093
-0.56652 0.0981568 1.41121
-0.566797 0.0965733 1.41151
-0.571235 0.0950873 1.4184
-0.521092 0.240618 1.35179
-0.519304 0.240379 1.35181
-0.519619 0.238907 1.35217
-0.519055 0.237148 1.35113
-0.518669 0.235451 1.35036
-0.504953 0.223422 1.32755
-0.502334 0.221112 1.32319
-0.499988 0.218902 1.31927
-0.499943 0.217391 1.31907
-0.499916 0.215887 1.31889
-0.499814 0.214362 1.3186
-0.499698 0.212835 1.31828
-0.499514 0.211291 1.31785
-0.499285 0.209737 1.31735
-0.499163 0.208216 1.31702
-0.499073 0.206705 1.31675
-0.49915 0.205242 1.31674
-0.499254 0.203786 1.31678
-0.499269 0.202307 1.31667
-0.499328 0.200842 1.31664
-0.499555 0.19942 1.31687
-0.499851 0.198015 1.31722
-0.500281 0.196644 1.31778
-0.50097 0.195334 1.31876
-0.501674 0.194026 1.31976
-0.502382 0.192715 1.32077
-0.503133 0.191411 1.32185
-0.503836 0.190092 1.32285
-0.504457 0.188751 1.32371
-0.504985 0.187386 1.32443
-0.505498 0.186016 1.32513
-0.505877 0.184614 1.3256
-0.506337 0.183229 1.32621
-0.506818 0.181846 1.32685
-0.50794 0.180597 1.32852
-0.509353 0.179403 1.33066
-0.511582 0.178368 1.33411
-0.51371 0.1773 1.33739
-0.515751 0.176203 1.34053
-0.517101 0.174958 1.34256
-0.518109 0.17364 1.34405
-0.518545 0.17221 1.34461
-0.519042 0.170789 1.34528
-0.519513 0.169361 1.3459
-0.519972 0.16793 1.3465
-0.520505 0.16651 1.34722
-0.520905 0.165065 1.34773
-0.521276 0.163613 1.34819
-0.521595 0.162152 1.34857
-0.52185 0.16068 1.34884
-0.521908 0.159176 1.3488
-0.521773 0.157643 1.34845
-0.52162 0.156109 1.34808
-0.521513 0.154584 1.34777
-0.521522 0.153078 1.34766
-0.521825 0.151616 1.34801
-0.52257 0.150216 1.34907
-0.523715 0.148868 1.35076
-0.524949 0.147525 1.3526
-0.526311 0.146194 1.35465
-0.527604 0.144846 1.35658
-0.528513 0.143443 1.3579
-0.529227 0.142013 1.35891
-0.530113 0.140598 1.36019
-0.53108 0.13919 1.3616
-0.531989 0.137769 1.36292
-0.533173 0.136375 1.36467
-0.534195 0.134958 1.36617
-0.535411 0.133555 1.36798
-0.536509 0.132134 1.36959
-0.537731 0.13072 1.37141
-0.538888 0.129295 1.37312
-0.540079 0.127865 1.37488
-0.540829 0.126391 1.37595
-0.541476 0.124904 1.37684
-0.542755 0.123467 1.37874
-0.549475 0.122449 1.38638
-0.546395 0.12221 1.38441
-0.560411 0.118524 1.40632
-0.563092 0.117108 1.41045
-0.564047 0.115567 1.41183
-0.56432 0.113981 1.41213
-0.564441 0.112386 1.41218
-0.564548 0.110791 1.41221
-0.564649 0.109196 1.41223
-0.564751 0.107602 1.41225
-0.564705 0.106002 1.41203
-0.564859 0.104412 1.41214
-0.564951 0.10282 1.41215
-0.565168 0.101233 1.41235
-0.565232 0.099642 1.41231
-0.565402 0.0980548 1.41244
-0.569694 0.0965764 1.41912
-0.517192 0.241606 1.35142
-0.51749 0.24013 1.35177
-0.51781 0.238662 1.35215
-0.518101 0.237183 1.35248
-0.518607 0.235773 1.35316
-0.517314 0.23345 1.34804
-0.518279 0.234094 1.35249
-0.515672 0.231368 1.34525
-0.51775 0.232355 1.35149
-0.505888 0.224017 1.33186
-0.502558 0.221482 1.32634
-0.499542 0.219065 1.32132
-0.499549 0.217566 1.3212
-0.499574 0.216073 1.3211
-0.499482 0.214548 1.32082
-0.499364 0.213018 1.3205
-0.499206 0.211477 1.32011
-0.499005 0.209928 1.31966
-0.49888 0.208402 1.31932
-0.498826 0.206897 1.3191
-0.498941 0.20544 1.31915
-0.499007 0.203971 1.31913
-0.498982 0.202478 1.31896
-0.498997 0.200997 1.31885
-0.49918 0.199561 1.31901
-0.499433 0.198142 1.31929
-0.499824 0.196758 1.31979
-0.500468 0.195435 1.3207
-0.501082 0.194102 1.32156
-0.501702 0.192768 1.32243
-0.502317 0.19143 1.32329
-0.502963 0.190096 1.3242
-0.503493 0.188733 1.32492
-0.503974 0.187356 1.32557
-0.504448 0.185977 1.3262
-0.50483 0.184574 1.32668
-0.505386 0.183209 1.32745
-0.505922 0.181837 1.32818
-0.507183 0.180617 1.33008
-0.50878 0.179459 1.33252
-0.510917 0.178404 1.33583
-0.512811 0.177288 1.33875
-0.514675 0.176154 1.34161
-0.515816 0.174868 1.34332
-0.516604 0.173508 1.34445
-0.517136 0.172096 1.34517
-0.517685 0.170685 1.34592
-0.518199 0.169265 1.34662
-0.518656 0.167833 1.34722
-0.519179 0.166411 1.34792
-0.519485 0.16495 1.34828
-0.519795 0.163489 1.34864
-0.52001 0.162011 1.34885
-0.520161 0.160522 1.34896
-0.520121 0.159003 1.34876
-0.519931 0.157462 1.34833
-0.519741 0.155924 1.34789
-0.519601 0.154396 1.34753
-0.519567 0.152885 1.34734
-0.519864 0.151425 1.34768
-0.520604 0.150026 1.34874
-0.521893 0.148699 1.35067
-0.523368 0.147392 1.35291
-0.52503 0.146101 1.35544
-0.526487 0.144774 1.35764
-0.527538 0.143388 1.35919
-0.5282 0.141949 1.36012
-0.528979 0.140521 1.36123
-0.529753 0.13909 1.36234
-0.530558 0.137658 1.36349
-0.531686 0.136258 1.36517
-0.53266 0.134835 1.36659
-0.533874 0.133434 1.3684
-0.534975 0.132014 1.37003
-0.536239 0.130604 1.37191
-0.537351 0.129173 1.37356
-0.538581 0.127749 1.37539
-0.539331 0.126274 1.37645
-0.540019 0.124791 1.37742
-0.540486 0.123288 1.37803
-0.543285 0.121967 1.38237
-0.556522 0.118243 1.40312
-0.560217 0.116902 1.40888
-0.562067 0.115422 1.4117
-0.563125 0.113885 1.41325
-0.563252 0.112289 1.41331
-0.563418 0.110696 1.41343
-0.563529 0.109101 1.41347
-0.563637 0.107507 1.4135
-0.56359 0.105905 1.41328
-0.563738 0.104313 1.41337
-0.563778 0.102719 1.4133
-0.56399 0.101131 1.41349
-0.564006 0.0995376 1.41338
-0.568194 0.0980666 1.41991
-0.514984 0.23965 1.3506
-0.515328 0.238193 1.35102
-0.515644 0.236726 1.35139
