ply
format ascii 1.0
element vertex 1576
property float x
property float y
property float z
end_header
-0.00348105 -0.111174 0.844402
-0.00308692 -0.109859 0.845626
-0.00265729 -0.108596 0.847287
-0.00224686 -0.107298 0.848698
-0.00180312 -0.106045 0.850516
-0.00136909 -0.104772 0.852202
-0.00096604 -0.103445 0.853484
-0.00058783 -0.102079 0.854451
-0.0002042 -0.100718 0.855491
0.000139299 -0.099296 0.856021
0.000479584 -0.0978679 0.856501
0.000862613 -0.0964985 0.857514
0.00123221 -0.0951077 0.858356
0.00159551 -0.0937063 0.859114
0.00200069 -0.0923567 0.860375
0.00244736 -0.0910559 0.862131
0.00288885 -0.0897423 0.863807
0.0033385 -0.0884331 0.865574
0.00379682 -0.0871279 0.867429
0.00421697 -0.0857716 0.868816
0.00465603 -0.0844331 0.870426
0.00518808 -0.0831929 0.873115
0.00578868 -0.082018 0.876581
0.0063742 -0.0808155 0.879854
0.00699234 -0.0796343 0.883484
0.00755036 -0.0783791 0.886393
0.00802968 -0.0770342 0.888371
0.00845271 -0.0756272 0.88969
-0.0119236 -0.151538 0.856658
-0.0116496 -0.149938 0.856164
-0.0113766 -0.148339 0.855664
-0.0111391 -0.146658 0.854651
-0.010934 -0.144906 0.853191
-0.0107319 -0.143156 0.851703
-0.0104989 -0.141486 0.850674
-0.0102589 -0.139837 0.84975
-0.0100094 -0.138217 0.848986
-0.00975929 -0.136603 0.848234
-0.00950939 -0.134993 0.847485
-0.00925274 -0.133401 0.84683
-0.00899173 -0.131824 0.846257
-0.00873027 -0.130253 0.8457
-0.00846319 -0.128697 0.845231
-0.00818919 -0.127157 0.84485
-0.00792259 -0.125608 0.844393
-0.00765517 -0.124061 0.843933
-0.00740299 -0.12249 0.843284
-0.00714609 -0.120932 0.842708
-0.00689003 -0.119376 0.842133
-0.00661249 -0.117863 0.841846
-0.00632675 -0.116368 0.841673
-0.00602744 -0.114898 0.84168
-0.00571584 -0.113451 0.841854
-0.00537806 -0.112049 0.842371
-0.00501669 -0.110688 0.843204
-0.00463093 -0.109362 0.844333
-0.00421092 -0.10809 0.845908
-0.00380418 -0.106791 0.847304
-0.00337025 -0.10553 0.849038
-0.00293313 -0.104266 0.85079
-0.00253397 -0.102939 0.852057
-0.00215003 -0.101585 0.853111
-0.00175286 -0.100247 0.854338
-0.00139306 -0.0988519 0.855085
-0.00103713 -0.097449 0.85578
-0.000646167 -0.0960932 0.856908
-0.000262292 -0.0947233 0.857935
0.000107824 -0.093332 0.858784
0.000511088 -0.0919824 0.860045
0.000941392 -0.0906635 0.86163
0.00136582 -0.0893311 0.863123
0.00179581 -0.0880014 0.864684
0.0022366 -0.0866787 0.866358
0.00264695 -0.0853149 0.867657
0.00307638 -0.0839697 0.869186
0.00361742 -0.0827455 0.872029
0.00421171 -0.0815699 0.875487
0.00479086 -0.0803659 0.878743
0.00538754 -0.079169 0.882185
0.00593757 -0.0779099 0.885044
0.00639476 -0.0765472 0.886802
0.00681375 -0.0751408 0.888107
-0.0138416 -0.152372 0.85464
-0.0135113 -0.150917 0.854981
-0.0132247 -0.149352 0.854676
-0.0129541 -0.147746 0.85412
-0.0127221 -0.146051 0.85301
-0.0125204 -0.144287 0.851458
-0.012318 -0.142536 0.849946
-0.0120892 -0.140854 0.848824
-0.0118428 -0.139222 0.847981
-0.0115899 -0.137609 0.84724
-0.0113258 -0.136028 0.846678
-0.011061 -0.134449 0.846114
-0.0107967 -0.132877 0.845574
-0.0105274 -0.131319 0.845109
-0.0102576 -0.129765 0.844653
-0.00998253 -0.128224 0.844273
-0.00970003 -0.126702 0.844002
-0.00942466 -0.125169 0.843644
-0.00914451 -0.123648 0.84336
-0.00888432 -0.122091 0.842802
-0.00862626 -0.120534 0.842232
-0.00837399 -0.118969 0.841577
-0.00809678 -0.117455 0.841274
-0.00782328 -0.115936 0.840922
-0.00753132 -0.114455 0.840836
-0.00722747 -0.112996 0.840912
-0.0068973 -0.111583 0.841336
-0.00655081 -0.110198 0.841975
-0.00617519 -0.108861 0.843006
-0.00576533 -0.107577 0.844475
-0.00536634 -0.10627 0.845795
-0.00494265 -0.104999 0.84743
-0.00451635 -0.103725 0.849078
-0.00412045 -0.102398 0.850325
-0.00373388 -0.101054 0.851449
-0.00332309 -0.0997409 0.852869
-0.00294321 -0.0983794 0.853896
-0.00257184 -0.0970015 0.854798
-0.00216776 -0.0956671 0.856111
-0.0017638 -0.0943275 0.857406
-0.00138063 -0.0929566 0.858443
-0.000967507 -0.0916216 0.859841
-0.000539585 -0.0903026 0.86143
-0.000126879 -0.0889573 0.862802
0.000284466 -0.0876067 0.864158
0.000714869 -0.0862745 0.865733
0.00111835 -0.0849045 0.866965
0.00155299 -0.0835684 0.868582
0.00208922 -0.0823425 0.871415
0.00266785 -0.081155 0.874747
0.00322667 -0.079934 0.877817
0.00379304 -0.0787099 0.880961
0.00431394 -0.0774271 0.883533
0.00475865 -0.0760558 0.885178
0.00516789 -0.0746431 0.88638
0.00788017 -0.0743598 0.896935
0.00557638 -0.0732271 0.887576
-0.0154187 -0.151764 0.853049
-0.0151047 -0.15027 0.85315
-0.0148138 -0.148716 0.852893
-0.0145592 -0.147072 0.852091
-0.0143357 -0.145353 0.850818
-0.014137 -0.143582 0.849195
-0.0139266 -0.141848 0.847765
-0.0136963 -0.14017 0.84664
-0.0134425 -0.138557 0.845892
-0.0131878 -0.136949 0.845162
-0.0129111 -0.135399 0.844778
-0.0126379 -0.133842 0.844327
-0.0123656 -0.132288 0.843888
-0.0120888 -0.130747 0.843513
-0.011807 -0.12922 0.843226
-0.0115244 -0.127698 0.842953
-0.0112352 -0.126192 0.842781
-0.0109455 -0.124688 0.842609
-0.0106526 -0.123195 0.8425
-0.0103831 -0.121654 0.842054
-0.0101163 -0.120113 0.841585
-0.00985739 -0.118561 0.841017
-0.00957309 -0.117059 0.840796
-0.00929818 -0.115543 0.840456
-0.00900486 -0.114063 0.840375
-0.00870743 -0.112593 0.840358
-0.00838586 -0.111167 0.840674
-0.00805416 -0.109758 0.841128
-0.0076924 -0.1084 0.841982
-0.00729828 -0.107094 0.843272
-0.00690839 -0.105777 0.844493
-0.0065018 -0.104484 0.845942
-0.00609201 -0.103189 0.847405
-0.00569908 -0.101863 0.848638
-0.00531393 -0.100522 0.849769
-0.00489182 -0.0992318 0.851368
-0.00449245 -0.0979028 0.852663
-0.00410169 -0.0965568 0.853835
-0.00368658 -0.095242 0.855316
-0.00326467 -0.093932 0.85688
-0.00286702 -0.0925833 0.85812
-0.00244641 -0.091261 0.85964
-0.00201196 -0.0899519 0.861324
-0.00159618 -0.0886126 0.86276
-0.00118289 -0.0872661 0.864164
-0.000762239 -0.0859239 0.865645
-0.000352784 -0.0845633 0.866979
7.37463e-05 -0.0832187 0.868515
0.000584285 -0.0819675 0.871084
0.00113346 -0.0807509 0.874113
0.0016697 -0.0795092 0.876964
0.00220879 -0.0782605 0.879825
0.00271834 -0.0769699 0.882304
0.00316702 -0.0756061 0.884022
0.00357473 -0.0741954 0.885236
0.00398948 -0.0727884 0.886521
0.00595993 -0.0717823 0.888464
0.00438782 -0.0713617 0.887607
0.00697493 -0.0709304 0.896785
0.00476863 -0.0699144 0.888475
-0.0170001 -0.151131 0.85131
-0.0166976 -0.149609 0.851228
-0.0164182 -0.148026 0.850785
-0.0161826 -0.146333 0.849665
-0.0159614 -0.144608 0.84833
-0.0157549 -0.142856 0.846798
-0.0155445 -0.141121 0.845327
-0.0153129 -0.139449 0.844216
-0.015057 -0.137841 0.843475
-0.0147954 -0.136252 0.842837
-0.0145231 -0.134695 0.842383
-0.0142389 -0.133168 0.842105
-0.0139597 -0.131631 0.84175
-0.0136765 -0.130108 0.841473
-0.0133889 -0.128597 0.841264
-0.0130945 -0.127103 0.841161
-0.0127983 -0.125614 0.841083
-0.0124964 -0.124139 0.841096
-0.0121901 -0.122676 0.841181
-0.0119073 -0.121164 0.840923
-0.011626 -0.119651 0.840639
-0.0113529 -0.118126 0.840253
-0.0110615 -0.116639 0.840132
-0.0107799 -0.115135 0.839878
-0.0104792 -0.113669 0.839894
-0.0101814 -0.1122 0.839882
-0.00985914 -0.110775 0.840199
-0.00953468 -0.109355 0.840559
-0.00918236 -0.107983 0.841303
-0.00880285 -0.106655 0.842414
-0.00842336 -0.105325 0.843522
-0.00802398 -0.104022 0.844882
-0.00762376 -0.102717 0.846251
-0.00722763 -0.101401 0.847559
-0.00684402 -0.100061 0.848691
-0.00642319 -0.0987744 0.850308
-0.00602374 -0.0974492 0.851626
-0.00562333 -0.0961223 0.85296
-0.00520943 -0.0948092 0.854449
-0.00477008 -0.0935278 0.856268
-0.00434593 -0.0922193 0.857883
-0.00391142 -0.0909188 0.859612
-0.00347107 -0.0896204 0.861408
-0.00304614 -0.0882951 0.86299
-0.00263427 -0.0869474 0.864389
-0.00222778 -0.0855881 0.865708
-0.00181175 -0.0842365 0.86714
-0.00139351 -0.0828832 0.868597
-0.000910119 -0.0816027 0.870872
-0.000396437 -0.0803493 0.873502
0.00010964 -0.0790778 0.876026
0.000619846 -0.077803 0.878592
0.00111832 -0.0765043 0.880976
0.00157343 -0.0751529 0.882806
0.0019938 -0.0737586 0.8842
0.00242962 -0.0723753 0.885771
0.00286362 -0.0709863 0.887319
0.00326066 -0.0695562 0.888395
0.00581216 -0.0690823 0.897259
0.00364609 -0.0681113 0.889319
-0.0188991 -0.151963 0.849324
-0.0185896 -0.150461 0.849349
-0.0182986 -0.14891 0.849081
-0.0180294 -0.147304 0.848474
-0.0177992 -0.145595 0.847238
-0.0175768 -0.143874 0.845903
-0.0173596 -0.142148 0.844493
-0.0171348 -0.140447 0.843214
-0.0168953 -0.138795 0.842202
-0.0166438 -0.137178 0.841385
-0.0163816 -0.135593 0.840743
-0.016109 -0.134038 0.840281
-0.0158234 -0.132516 0.840009
-0.0155447 -0.130983 0.83966
-0.0152503 -0.129488 0.839548
-0.0149564 -0.127994 0.83943
-0.0146554 -0.126517 0.839424
-0.014353 -0.125045 0.839439
-0.0140393 -0.123598 0.839625
-0.0137263 -0.12215 0.839808
-0.0134303 -0.120668 0.839737
-0.0131368 -0.119183 0.839644
-0.0128445 -0.117696 0.839524
-0.0125396 -0.116235 0.839592
-0.0122443 -0.114758 0.839527
-0.0119362 -0.113305 0.839642
-0.0116314 -0.111849 0.839723
-0.0113144 -0.110414 0.839966
-0.010996 -0.108983 0.840239
-0.0106576 -0.107588 0.840799
-0.0102932 -0.106237 0.841718
-0.0099287 -0.104885 0.842641
-0.0095448 -0.103561 0.843819
-0.00915304 -0.102245 0.845093
-0.00875362 -0.10094 0.846482
-0.00836435 -0.0996129 0.847713
-0.00793817 -0.0983387 0.849431
-0.0075352 -0.0970235 0.85083
-0.00713565 -0.095698 0.85217
-0.00673069 -0.0943763 0.853576
-0.00629973 -0.0930869 0.855316
-0.00587005 -0.0917902 0.857032
-0.00542379 -0.0905103 0.858952
-0.00497081 -0.0892331 0.860951
-0.00452674 -0.0879365 0.862814
-0.00409489 -0.0866169 0.864498
-0.00368248 -0.0852669 0.86592
-0.00326167 -0.0839233 0.867449
-0.00283926 -0.0825754 0.868971
-0.00238163 -0.0812664 0.870957
-0.00189016 -0.0799895 0.873348
-0.00140706 -0.0786949 0.875629
-0.000921476 -0.0773945 0.87791
-0.000440864 -0.0760814 0.880119
1.92327e-05 -0.0747386 0.882053
0.000438668 -0.0733469 0.883463
0.000881574 -0.071973 0.885146
0.0013528 -0.0706235 0.88718
0.00179117 -0.0692351 0.888792
0.00222282 -0.0678348 0.890305
0.00487972 -0.0674463 0.900544
0.00268895 -0.0664614 0.892231
-0.0204828 -0.151291 0.847361
-0.0201794 -0.149776 0.847294
-0.0198938 -0.148212 0.846928
-0.0196363 -0.146573 0.846104
-0.0194053 -0.144866 0.844854
-0.0191758 -0.143165 0.843606
-0.0189489 -0.141462 0.842321
-0.0187166 -0.139782 0.841144
-0.0184699 -0.138148 0.840221
-0.0182193 -0.13653 0.839373
-0.0179609 -0.134935 0.838649
-0.0176871 -0.133385 0.838194
-0.0173973 -0.131879 0.838006
-0.0171173 -0.130349 0.837655
-0.016822 -0.12886 0.837555
-0.0165268 -0.127372 0.837461
-0.0162253 -0.125901 0.837471
-0.0159175 -0.124444 0.837576
-0.0155989 -0.123013 0.837849
-0.0152802 -0.121581 0.838122
-0.0149727 -0.120126 0.838227
-0.0146609 -0.11868 0.838397
-0.0143546 -0.117223 0.838485
-0.0140365 -0.11579 0.838744
-0.0137288 -0.114339 0.838861
-0.0134105 -0.112908 0.839135
-0.0130978 -0.111466 0.839319
-0.0127807 -0.110033 0.839577
-0.0124623 -0.108603 0.83985
-0.012131 -0.107195 0.840305
-0.0117764 -0.10583 0.841108
-0.0114193 -0.104466 0.841937
-0.0110366 -0.103143 0.843115
-0.0106532 -0.101819 0.844311
-0.0102497 -0.100524 0.845778
-0.00986193 -0.0991965 0.847002
-0.00944399 -0.0979144 0.848649
-0.00904903 -0.0965906 0.849967
-0.00865906 -0.0952543 0.851202
-0.00826402 -0.0939213 0.852497
-0.00784772 -0.092615 0.854068
-0.0074218 -0.0913188 0.855778
-0.00696525 -0.0900585 0.857874
-0.00648823 -0.0888203 0.860244
-0.00601014 -0.087574 0.8626
-0.0055446 -0.0863027 0.864774
-0.00510559 -0.084989 0.866579
-0.00467956 -0.083652 0.868192
-0.00426077 -0.0823003 0.869696
-0.00383953 -0.0809468 0.871223
-0.00338126 -0.0796325 0.873227
-0.00293114 -0.0783021 0.875113
-0.00246624 -0.0769828 0.877171
-0.00200971 -0.0756464 0.879117
-0.00154476 -0.0743121 0.881145
-0.00111868 -0.0729297 0.882661
-0.00065666 -0.0715805 0.884626
-0.000147862 -0.0702715 0.887173
0.000347451 -0.0689414 0.889538
0.000844259 -0.0676046 0.891904
-0.0223468 -0.152184 0.84576
-0.0220354 -0.150696 0.845832
-0.0217361 -0.149171 0.845688
-0.0214558 -0.147593 0.845225
-0.0212108 -0.145918 0.844177
-0.0209809 -0.144205 0.842865
-0.020748 -0.142511 0.84164
-0.0205128 -0.14083 0.840467
-0.020279 -0.139155 0.839295
-0.0200303 -0.137523 0.838367
-0.0197745 -0.13592 0.837593
-0.0195154 -0.134328 0.836866
-0.0192456 -0.132768 0.836332
-0.0189549 -0.131266 0.836146
-0.0186748 -0.129741 0.835806
-0.0183841 -0.128242 0.83563
-0.0180884 -0.126759 0.835543
-0.0177861 -0.125291 0.835556
-0.0174734 -0.123851 0.835748
-0.0171496 -0.122434 0.836106
-0.0168261 -0.121017 0.836467
-0.0165077 -0.119589 0.836746
-0.0161794 -0.118182 0.837178
-0.0158552 -0.116765 0.837543
-0.0155256 -0.11536 0.837999
-0.0152 -0.113945 0.83838
-0.0148705 -0.112537 0.838822
-0.0145518 -0.111106 0.839092
-0.0142347 -0.109675 0.839358
-0.0139164 -0.108244 0.839631
-0.0135921 -0.106825 0.839991
-0.0132445 -0.105448 0.840698
-0.0128888 -0.104084 0.84152
-0.0125128 -0.102752 0.842625
-0.0121308 -0.101428 0.843823
-0.0117236 -0.100142 0.845362
-0.0113374 -0.0988151 0.846591
-0.0109345 -0.0975134 0.848069
-0.0105478 -0.0961783 0.84928
-0.0101677 -0.0948294 0.850397
-0.00978871 -0.0934754 0.851492
-0.00938406 -0.0921566 0.85294
-0.00896803 -0.0908498 0.854537
-0.00850969 -0.0895989 0.856714
-0.00802126 -0.0883824 0.859286
-0.00751785 -0.0871784 0.862059
-0.00702429 -0.0859489 0.864654
-0.00655781 -0.084674 0.866862
-0.00612097 -0.0833529 0.868654
-0.0057041 -0.0819999 0.87016
-0.00530628 -0.0806178 0.871395
-0.00487128 -0.0792777 0.873122
-0.0044392 -0.0779274 0.874793
-0.00399808 -0.0765829 0.876578
-0.0035528 -0.0752378 0.878409
-0.0030994 -0.0738945 0.880327
-0.00267605 -0.0725119 0.881839
-0.00220235 -0.0711789 0.883996
-0.00163835 -0.069931 0.887307
-0.00108557 -0.0686609 0.89046
-0.000523417 -0.067389 0.893708
6.08897e-05 -0.0661266 0.897209
-0.0238946 -0.151588 0.844235
-0.0235836 -0.1501 0.844297
-0.0232895 -0.148564 0.844073
-0.0230158 -0.146967 0.843482
-0.0227619 -0.145314 0.842541
-0.0225251 -0.143621 0.841337
-0.0222916 -0.141923 0.840069
-0.02205 -0.140259 0.838977
-0.0218143 -0.138587 0.837809
-0.0215746 -0.13693 0.836706
-0.0213167 -0.135331 0.835942
-0.0210514 -0.133755 0.835298
-0.0207796 -0.132202 0.834784
-0.0204937 -0.13069 0.834526
-0.0202078 -0.129178 0.834256
-0.019919 -0.127679 0.834059
-0.019623 -0.126197 0.833964
-0.0193217 -0.124732 0.833973
-0.0190042 -0.123305 0.834245
-0.0186756 -0.121903 0.834692
-0.0183462 -0.120503 0.83515
-0.0180173 -0.119101 0.835606
-0.0176776 -0.117721 0.836226
-0.0173423 -0.116331 0.836774
-0.017006 -0.114942 0.837342
-0.0166699 -0.11355 0.837896
-0.0163347 -0.112156 0.838434
-0.0160104 -0.110737 0.838793
-0.0156875 -0.109317 0.839146
-0.0153692 -0.107887 0.839419
-0.0150509 -0.106457 0.839692
-0.0147044 -0.105079 0.840389
-0.0143436 -0.103725 0.841299
-0.0139682 -0.102396 0.842426
-0.0135865 -0.101073 0.843636
-0.013177 -0.0997952 0.845252
-0.0127935 -0.098466 0.846461
-0.0124092 -0.0971345 0.847678
-0.0120375 -0.0957782 0.8487
-0.0116686 -0.0944149 0.849683
-0.0113046 -0.0930399 0.850579
-0.0109214 -0.0916931 0.851757
-0.0105143 -0.0903767 0.853251
-0.0100676 -0.0891158 0.85532
-0.00957757 -0.087908 0.857966
-0.00906855 -0.0867188 0.860876
-0.00855711 -0.0855209 0.863782
-0.00807164 -0.0842776 0.866311
-0.00761768 -0.0829828 0.868379
-0.00719612 -0.0816378 0.869971
-0.00679415 -0.0802625 0.871279
-0.006369 -0.078912 0.872903
-0.00594779 -0.0775526 0.874468
-0.00551738 -0.0761973 0.876138
-0.00508175 -0.074843 0.87786
-0.00463868 -0.0734906 0.879678
-0.00421262 -0.0721149 0.881256
-0.00372821 -0.0707958 0.883598
-0.00313214 -0.0695874 0.887418
-0.00253924 -0.0683622 0.891159
-0.00192674 -0.0671431 0.895132
-0.00131501 -0.0659086 0.899065
0.000628588 -0.0648362 0.900479
-0.000740734 -0.0646241 0.902462
0.00188563 -0.0641658 0.912528
-0.00030042 -0.0632033 0.904093
-0.025417 -0.151062 0.8431
-0.0251112 -0.149559 0.843066
-0.0248195 -0.148014 0.842785
-0.0245566 -0.146381 0.841967
-0.0243011 -0.144735 0.841048
-0.0240615 -0.143047 0.839857
-0.0238265 -0.141352 0.838589
-0.0235843 -0.139686 0.83747
-0.0233418 -0.138029 0.836381
-0.0230944 -0.136391 0.83538
-0.0228293 -0.134812 0.834724
-0.0225575 -0.133253 0.834179
-0.0222753 -0.131727 0.83383
-0.021988 -0.130216 0.833565
-0.021703 -0.128706 0.833292
-0.021418 -0.127195 0.833008
-0.0211284 -0.125699 0.832806
-0.0208374 -0.12421 0.832638
-0.0205206 -0.122784 0.832904
-0.0201924 -0.121386 0.833368
-0.019852 -0.120014 0.834016
-0.0195118 -0.118641 0.834659
-0.0191626 -0.117287 0.835458
-0.0188223 -0.11591 0.836097
-0.0184803 -0.114533 0.836752
-0.0181445 -0.113144 0.837315
-0.0178097 -0.111751 0.837864
-0.0174848 -0.110334 0.838232
-0.017157 -0.108926 0.838672
-0.0168328 -0.107507 0.839031
-0.0165089 -0.106089 0.839393
-0.0161629 -0.104712 0.840096
-0.0157978 -0.103368 0.841089
-0.0154233 -0.10204 0.842225
-0.0150416 -0.100719 0.843452
-0.0146348 -0.0994402 0.845066
-0.0142484 -0.0981187 0.846347
-0.0138727 -0.0967754 0.847462
-0.0135094 -0.0954073 0.848382
-0.0131538 -0.0940237 0.849178
-0.0128027 -0.0926295 0.849891
-0.0124381 -0.0912558 0.850811
-0.0120519 -0.0899122 0.852039
-0.0116217 -0.0886319 0.85391
-0.0111331 -0.08743 0.856601
-0.0106301 -0.0862397 0.85949
-0.0101162 -0.0850529 0.862499
-0.00961043 -0.0838448 0.86538
-0.00913864 -0.0825789 0.867744
-0.008712 -0.0812444 0.869445
-0.0082979 -0.0798867 0.870948
-0.0078701 -0.0785424 0.87264
-0.00745108 -0.0771829 0.874207
-0.00702301 -0.0758269 0.87587
-0.00659642 -0.0744648 0.877509
-0.00616349 -0.0731039 0.879222
-0.00573325 -0.0717348 0.880884
-0.00524542 -0.0704232 0.883317
-0.00463847 -0.0692315 0.887359
-0.00401445 -0.0680419 0.891594
-0.00338291 -0.0668463 0.89591
-0.00277367 -0.0656115 0.89987
-0.00221611 -0.0643136 0.903124
-0.00179167 -0.0628774 0.904561
0.00011204 -0.0617527 0.90536
-0.001369 -0.0614361 0.905975
-0.026922 -0.150583 0.842238
-0.0266179 -0.149074 0.84216
-0.026328 -0.147523 0.841835
-0.0260646 -0.145891 0.841009
-0.0258121 -0.14423 0.839992
-0.0255747 -0.14253 0.838719
-0.0253433 -0.14082 0.837348
-0.0251045 -0.139141 0.836132
-0.0248602 -0.137485 0.835031
-0.024611 -0.135853 0.834053
-0.0243378 -0.134295 0.833513
-0.0240599 -0.132753 0.833062
-0.0237725 -0.131241 0.832797
-0.0234889 -0.129721 0.832462
-0.0232074 -0.128201 0.832107
-0.0229269 -0.126678 0.831724
-0.0226423 -0.12517 0.831434
-0.0223561 -0.12367 0.831178
-0.0220359 -0.122257 0.83152
-0.0217024 -0.120874 0.832069
-0.021358 -0.119518 0.832814
-0.0210079 -0.118172 0.833649
-0.0206488 -0.116844 0.834624
-0.0203039 -0.115479 0.83535
-0.0199592 -0.114113 0.836072
-0.0196199 -0.112734 0.836707
-0.0192849 -0.111342 0.837261
-0.0189607 -0.109927 0.837634
-0.0186273 -0.108531 0.838162
-0.0182973 -0.107125 0.838617
-0.017968 -0.105719 0.839079
-0.0176221 -0.104343 0.839791
-0.0172528 -0.103009 0.840861
-0.0168703 -0.101699 0.842154
-0.0164895 -0.10038 0.843399
-0.0160832 -0.0991021 0.845027
-0.015693 -0.0977896 0.84639
-0.0153246 -0.0964349 0.847411
-0.0149781 -0.0950387 0.848078
-0.0146294 -0.0936452 0.848783
-0.0142806 -0.0922503 0.84949
-0.0139223 -0.0908684 0.850331
-0.0135491 -0.089507 0.851385
-0.0131418 -0.0881958 0.852953
-0.0126667 -0.0869806 0.855511
-0.0121832 -0.0857683 0.858172
-0.0116804 -0.0845739 0.861096
-0.0111792 -0.0833655 0.863961
-0.0106933 -0.0821267 0.866597
-0.0102672 -0.0807953 0.868318
-0.00984698 -0.0794516 0.869956
-0.00941998 -0.0781099 0.871673
-0.00899054 -0.0767659 0.873413
-0.00856528 -0.0754112 0.875081
-0.00813328 -0.0740579 0.876818
-0.0077016 -0.0726993 0.878551
-0.00726109 -0.0713452 0.88039
-0.00676342 -0.0700487 0.883015
-0.00615487 -0.068864 0.887169
-0.00552349 -0.0676888 0.891591
-0.0048786 -0.0665107 0.896168
-0.00425537 -0.0652947 0.900414
-0.0036923 -0.0640034 0.903793
-0.00325405 -0.0625802 0.905442
-0.00281877 -0.0611506 0.907049
-0.0283953 -0.150206 0.841961
-0.0280946 -0.148684 0.841807
-0.0278065 -0.147125 0.841423
-0.0275461 -0.145477 0.840501
-0.0273049 -0.143773 0.83922
-0.0270755 -0.142043 0.837753
-0.0268564 -0.140289 0.8361
-0.0266205 -0.138597 0.83479
-0.0263746 -0.136946 0.833706
-0.0261126 -0.135347 0.832919
-0.0258327 -0.133806 0.832476
-0.0255449 -0.132293 0.832202
-0.0252565 -0.130783 0.831935
-0.0249778 -0.129251 0.831515
-0.0247036 -0.127708 0.831002
-0.0244275 -0.126175 0.830536
-0.0241475 -0.124656 0.830157
-0.0238664 -0.123144 0.829806
-0.0235507 -0.121723 0.830072
-0.0232141 -0.120353 0.8307
-0.0228608 -0.119022 0.831619
-0.0224963 -0.117714 0.832709
-0.0221273 -0.116413 0.833876
-0.0217738 -0.115073 0.834774
-0.021426 -0.113717 0.83557
-0.021088 -0.112336 0.83619
-0.0207594 -0.110932 0.836643
-0.0204358 -0.109517 0.837011
-0.0201023 -0.108122 0.837545
-0.0197731 -0.106718 0.838014
-0.0194419 -0.105316 0.838502
-0.0190968 -0.103942 0.839219
-0.0187299 -0.102607 0.840282
-0.0183386 -0.101316 0.841726
-0.0179538 -0.100008 0.843067
-0.0175432 -0.0987431 0.844807
-0.0171488 -0.0974412 0.846266
-0.0167763 -0.0960952 0.847366
-0.016431 -0.0946979 0.848027
-0.0160772 -0.0933139 0.848821
-0.0157283 -0.0919196 0.849537
-0.0153712 -0.0905365 0.850371
-0.0150065 -0.0891635 0.851322
-0.0146309 -0.0878049 0.852434
-0.0141796 -0.0865589 0.854687
-0.013724 -0.0853103 0.856979
-0.0132446 -0.0840889 0.859618
-0.0127612 -0.0828633 0.862292
-0.0122751 -0.0816316 0.864987
-0.0118561 -0.0802965 0.866649
-0.0114258 -0.0789715 0.868478
-0.0109884 -0.0776497 0.870391
-0.010542 -0.076333 0.872418
-0.0100995 -0.075003 0.874365
-0.00965064 -0.073675 0.876396
-0.0092077 -0.0723324 0.878325
-0.00876227 -0.0709863 0.88027
-0.0082736 -0.0696827 0.88282
-0.00768531 -0.0684816 0.886775
-0.00706944 -0.0672951 0.89108
-0.0064401 -0.0661071 0.895536
-0.00581594 -0.0648982 0.899877
-0.00523615 -0.0636281 0.903562
-0.00476406 -0.0622402 0.905722
-0.00429979 -0.0608373 0.907746
-0.00178139 -0.0602609 0.916768
-0.00376913 -0.0594896 0.910677
-0.0298663 -0.149832 0.841697
-0.0295674 -0.148305 0.841509
-0.029285 -0.146722 0.840988
-0.0290287 -0.145056 0.839953
-0.0287954 -0.143319 0.838463
-0.02856 -0.141601 0.837057
-0.0283476 -0.139819 0.835222
-0.0281145 -0.138114 0.833828
-0.0278651 -0.136466 0.832743
-0.0275968 -0.134885 0.832058
-0.0273202 -0.133334 0.83155
-0.027031 -0.131823 0.831277
-0.0267472 -0.1303 0.830914
-0.026477 -0.128744 0.830322
-0.0262071 -0.127188 0.82971
-0.0259356 -0.125643 0.829154
-0.025659 -0.124115 0.82869
-0.0253772 -0.122606 0.828345
-0.0250618 -0.121187 0.828609
-0.0247221 -0.11983 0.829316
-0.0243601 -0.118525 0.830402
-0.0239878 -0.117243 0.831676
-0.0236106 -0.115969 0.833026
-0.0232471 -0.114655 0.834116
-0.0228951 -0.113312 0.835003
-0.0225581 -0.111932 0.835621
-0.0222302 -0.110527 0.836062
-0.0219077 -0.109111 0.836421
-0.0215757 -0.107716 0.836949
-0.0212457 -0.106314 0.837418
-0.0209108 -0.104922 0.837985
-0.0205665 -0.103548 0.838708
-0.0202059 -0.102204 0.839685
-0.0198122 -0.100922 0.841212
-0.0194181 -0.0996354 0.842726
-0.0190073 -0.098375 0.844508
-0.0186088 -0.097084 0.846064
-0.018228 -0.0957564 0.847331
-0.0178787 -0.0943668 0.848065
-0.0175247 -0.092984 0.848875
-0.0171754 -0.0915909 0.849606
-0.0168251 -0.0901986 0.850358
-0.0164681 -0.0888138 0.851198
-0.0161171 -0.0874173 0.851942
-0.0156926 -0.0861331 0.853817
-0.015271 -0.0848394 0.855649
-0.014815 -0.0835904 0.857994
-0.0143583 -0.0823322 0.86031
-0.0138847 -0.0810912 0.862883
-0.0134657 -0.0797633 0.864594
-0.0130267 -0.0784574 0.866596
-0.0125797 -0.0771543 0.868705
-0.0120998 -0.0758868 0.871279
-0.0116286 -0.0746002 0.873715
-0.0111671 -0.0732916 0.875975
-0.010702 -0.0719796 0.878273
-0.0102408 -0.0706543 0.88049
-0.00976758 -0.0693355 0.882863
-0.00921718 -0.0680958 0.886337
-0.00862569 -0.0668899 0.890394
-0.00802007 -0.0656824 0.894606
-0.00740043 -0.0644756 0.89898
-0.00680859 -0.0632237 0.902916
-0.0062893 -0.0618861 0.905798
-0.00578998 -0.0605184 0.908354
-0.00521211 -0.0592168 0.912007
-0.031332 -0.149481 0.841565
-0.0310432 -0.147913 0.84114
-0.0307673 -0.146302 0.840447
-0.0305185 -0.144606 0.839224
-0.0302952 -0.142828 0.837484
-0.0300619 -0.141096 0.835979
-0.0298561 -0.139285 0.833953
-0.0296236 -0.137571 0.832478
-0.0293768 -0.135914 0.83133
-0.0291021 -0.13435 0.830734
-0.0288246 -0.132801 0.830223
-0.0285406 -0.131278 0.829857
-0.0282654 -0.12973 0.829314
-0.0279943 -0.128172 0.828694
-0.0277257 -0.126616 0.828062
-0.0274572 -0.125062 0.827426
-0.0271765 -0.123547 0.827031
-0.0268898 -0.122052 0.826766
-0.0265703 -0.120647 0.827108
-0.0262307 -0.119295 0.827836
-0.0258622 -0.118014 0.829081
-0.0254822 -0.11676 0.83054
-0.025092 -0.115524 0.832166
-0.0247194 -0.114238 0.833458
-0.0243574 -0.112921 0.834531
-0.0240159 -0.111552 0.835237
-0.0236888 -0.110147 0.835676
-0.0233713 -0.108721 0.835948
-0.023045 -0.107315 0.836386
-0.0227165 -0.105911 0.836841
-0.0223788 -0.104528 0.837469
-0.022035 -0.103155 0.838195
-0.0216804 -0.101802 0.839093
-0.0212839 -0.100531 0.840708
-0.0208826 -0.0992629 0.842387
-0.0204717 -0.0980063 0.844203
-0.0200643 -0.0967363 0.845945
-0.0196698 -0.0954365 0.847466
-0.0193156 -0.0940564 0.848291
-0.0189621 -0.0926744 0.849116
-0.0186124 -0.0912822 0.849864
-0.0182671 -0.0898797 0.850527
-0.0179231 -0.0884746 0.851177
-0.0175842 -0.0870577 0.851722
-0.0171868 -0.0857356 0.853224
-0.0167753 -0.0844285 0.854918
-0.0163466 -0.0831441 0.856895
-0.0159084 -0.0818655 0.858992
-0.0154511 -0.0806073 0.861369
-0.0150358 -0.0792789 0.863054
-0.0146128 -0.0779568 0.864865
-0.0141575 -0.0766719 0.867153
-0.0136624 -0.0754324 0.870032
-0.0131723 -0.0741759 0.872805
-0.0126935 -0.0728942 0.875383
-0.0122112 -0.071607 0.877982
-0.0117427 -0.0702954 0.880366
-0.0112859 -0.0689592 0.882536
-0.0107756 -0.0676784 0.885503
-0.010214 -0.0664452 0.8892
-0.00963134 -0.0652215 0.893173
-0.00901715 -0.064015 0.897561
-0.00839548 -0.0628019 0.902031
-0.00781555 -0.061531 0.905864
-0.00726839 -0.060213 0.909172
-0.00665308 -0.0589484 0.913439
-0.00412834 -0.0583614 0.922726
-0.00608137 -0.057628 0.917039
-0.032056 -0.143976 0.837425
-0.0318298 -0.142204 0.835696
-0.0315902 -0.140489 0.83427
-0.0313806 -0.138682 0.832248
-0.031146 -0.136971 0.830775
-0.0308938 -0.135329 0.829699
-0.0306227 -0.133754 0.829021
-0.0303485 -0.132196 0.828426
-0.0300643 -0.130672 0.828038
-0.0297898 -0.129124 0.827478
-0.0295187 -0.127568 0.826843
-0.0292492 -0.126015 0.826215
-0.0289751 -0.124478 0.825667
-0.0286891 -0.122979 0.825364
-0.0283932 -0.121511 0.825266
-0.0280742 -0.12011 0.825625
-0.0277269 -0.118784 0.826519
-0.0273589 -0.117508 0.82779
-0.0269772 -0.116266 0.829333
-0.026584 -0.115045 0.831057
-0.0261997 -0.113795 0.832603
-0.0258279 -0.112506 0.833882
-0.0254735 -0.111173 0.834852
-0.0251377 -0.109791 0.835465
-0.0248155 -0.108374 0.835816
-0.0244933 -0.106958 0.836168
-0.0241717 -0.105542 0.836527
-0.0238385 -0.104148 0.837063
-0.0234964 -0.102775 0.837785
-0.0231463 -0.101413 0.838617
-0.0227527 -0.100141 0.840222
-0.0223536 -0.0988738 0.841901
-0.0219415 -0.097625 0.843786
-0.0215352 -0.0963589 0.845565
-0.0211362 -0.0950706 0.847187
-0.0207726 -0.0937105 0.848196
-0.0204147 -0.0923376 0.849109
-0.0200654 -0.0909455 0.849859
-0.0197218 -0.0895415 0.850511
-0.0193786 -0.0881342 0.851142
-0.0190515 -0.0866992 0.851513
-0.0186723 -0.0853487 0.852733
-0.0182826 -0.0840124 0.854131
-0.0178699 -0.0827054 0.855867
-0.017458 -0.0813933 0.857603
-0.0170212 -0.0801113 0.859712
-0.0166155 -0.0787754 0.861296
-0.0162015 -0.0774469 0.863008
-0.0157546 -0.0761572 0.86522
-0.0152475 -0.0749429 0.868364
-0.0147365 -0.0737206 0.871533
-0.0142352 -0.0724755 0.874527
-0.0137326 -0.0712189 0.877504
-0.01325 -0.0699281 0.880155
-0.0128047 -0.0685833 0.882212
-0.0123312 -0.0672633 0.884677
-0.0117989 -0.066002 0.88801
-0.0112499 -0.0647474 0.89156
-0.010674 -0.0635092 0.895487
-0.0100195 -0.0623401 0.90056
-0.009369 -0.0611472 0.905523
-0.0087655 -0.0598897 0.909743
-0.00813109 -0.058648 0.914387
-0.00753664 -0.0573505 0.918391
-0.00504609 -0.0567122 0.927235
-0.00702189 -0.0559675 0.921205
-0.0336398 -0.143155 0.834472
-0.0334027 -0.14142 0.832934
-0.033149 -0.139754 0.83178
-0.0329247 -0.137995 0.830024
-0.0326755 -0.136329 0.828806
-0.0324138 -0.134719 0.827906
-0.0321417 -0.133148 0.827231
-0.0318669 -0.131589 0.826617
-0.0315916 -0.130042 0.826058
-0.0313231 -0.128473 0.825337
-0.0310507 -0.126923 0.824716
-0.0307706 -0.125403 0.824284
-0.0304938 -0.123875 0.823774
-0.0301988 -0.122406 0.823655
-0.029895 -0.120964 0.82372
-0.029575 -0.119568 0.8241
-0.0292291 -0.118246 0.825009
-0.0288549 -0.116994 0.826435
-0.0284717 -0.115763 0.828045
-0.0280772 -0.114554 0.829848
-0.0276864 -0.11333 0.831574
-0.0273036 -0.112076 0.833113
-0.0269393 -0.110769 0.834281
-0.0265947 -0.109412 0.835082
-0.0262635 -0.108018 0.835606
-0.0259423 -0.106601 0.835957
-0.0256248 -0.105175 0.836229
-0.0252974 -0.10377 0.836677
-0.0249557 -0.102396 0.837393
-0.0246111 -0.101026 0.838148
-0.0242291 -0.0997344 0.839581
-0.0238347 -0.0984634 0.841231
-0.0234225 -0.0972217 0.843176
-0.0230172 -0.0959577 0.844971
-0.0226142 -0.0946823 0.846709
-0.0222309 -0.0933621 0.848077
-0.0218638 -0.0920071 0.849159
-0.0215111 -0.0906228 0.849988
-0.0211681 -0.0892179 0.850637
-0.020826 -0.0878093 0.851262
-0.0205041 -0.0863648 0.851544
-0.0201422 -0.0849878 0.852503
-0.0197754 -0.0836161 0.853541
-0.0193835 -0.0822806 0.85498
-0.0189849 -0.0809511 0.856522
-0.0185732 -0.0796362 0.858267
-0.0181748 -0.0782951 0.859775
-0.0177639 -0.076967 0.861473
-0.0173237 -0.0756761 0.863649
-0.0168161 -0.0744702 0.86688
-0.0162833 -0.0732868 0.870489
-0.015767 -0.0720664 0.873787
-0.01525 -0.0708367 0.877079
-0.0147533 -0.0695681 0.880017
-0.0143159 -0.068215 0.881978
-0.013871 -0.0668644 0.884054
-0.0133709 -0.0655719 0.886971
-0.0128556 -0.0642844 0.890083
-0.0123198 -0.0630095 0.893493
-0.0116307 -0.0618873 0.899219
-0.0109311 -0.0607557 0.905058
-0.0102652 -0.0595674 0.910327
-0.00959185 -0.0583669 0.91565
-0.00896002 -0.0571081 0.920311
-0.0084726 -0.0556966 0.92275
-0.0352663 -0.142137 0.830327
-0.0349923 -0.140545 0.829608
-0.0347156 -0.138964 0.828941
-0.0344741 -0.137262 0.827504
-0.0342121 -0.135646 0.82657
-0.0339402 -0.134069 0.825856
-0.0336707 -0.13249 0.825105
-0.033395 -0.130936 0.824494
-0.0331225 -0.129379 0.823845
-0.032861 -0.12779 0.82297
-0.0325905 -0.126235 0.822291
-0.0323046 -0.124736 0.821967
-0.0320222 -0.123227 0.821569
-0.0317183 -0.121789 0.821636
-0.031402 -0.120389 0.821966
-0.0310716 -0.119029 0.822587
-0.0307184 -0.117733 0.823667
-0.0303433 -0.116493 0.825165
-0.0299629 -0.115263 0.82677
-0.0295686 -0.114062 0.828622
-0.0291763 -0.112849 0.830426
-0.0287868 -0.111621 0.832153
-0.0284094 -0.110352 0.833608
-0.0280517 -0.109031 0.834682
-0.0277117 -0.10766 0.835388
-0.0273855 -0.106255 0.835826
-0.027068 -0.104828 0.836098
-0.0267416 -0.103422 0.836536
-0.0264011 -0.102048 0.837246
-0.0260584 -0.100676 0.837992
-0.0256911 -0.0993551 0.839176
-0.0253013 -0.0980794 0.840787
-0.0248924 -0.096835 0.842707
-0.0244908 -0.0955705 0.844499
-0.0240879 -0.0943001 0.84628
-0.0236924 -0.0930078 0.847907
-0.0233261 -0.0916543 0.849005
-0.0229729 -0.0902713 0.849848
-0.02263 -0.0888666 0.850497
-0.0222884 -0.0874591 0.851135
-0.0219665 -0.0860147 0.851418
-0.0216154 -0.0846208 0.85221
-0.0212607 -0.0832304 0.853056
-0.0208878 -0.0818676 0.854208
-0.0205032 -0.0805186 0.855537
-0.0201045 -0.0791888 0.857112
-0.0197103 -0.0778468 0.858599
-0.0193021 -0.0765193 0.860292
-0.0188655 -0.0752284 0.86245
-0.0183651 -0.0740205 0.865652
-0.0178334 -0.0728437 0.869336
-0.0173152 -0.0716343 0.872754
-0.0167953 -0.070415 0.87618
-0.0162901 -0.0691631 0.87932
-0.0158502 -0.0678179 0.881381
-0.0154142 -0.0664602 0.883359
-0.0149364 -0.0651448 0.88598
-0.014453 -0.0638272 0.88867
-0.0139527 -0.0625206 0.891611
-0.0133042 -0.0613637 0.896842
-0.0125718 -0.0602792 0.903343
-0.0118398 -0.0591682 0.909771
-0.0111204 -0.0580221 0.915943
-0.0104453 -0.0568085 0.921359
-0.00991151 -0.0554423 0.924566
-0.00752848 -0.05469 0.931986
-0.00946073 -0.0539877 0.926477
-0.0368489 -0.141247 0.82693
-0.0365581 -0.139722 0.826585
-0.0362714 -0.138184 0.82615
-0.0360152 -0.136536 0.825014
-0.0357425 -0.134959 0.824299
-0.0354708 -0.133381 0.823547
-0.0352073 -0.131781 0.822643
-0.0349356 -0.130217 0.821942
-0.0346666 -0.12865 0.821199
-0.0344039 -0.127067 0.820329
-0.0341265 -0.125539 0.819801
-0.033829 -0.124078 0.819712
-0.0335344 -0.122612 0.819578
-0.0332222 -0.121205 0.819836
-0.0328975 -0.119832 0.82034
-0.0325601 -0.1185 0.821133
-0.0322085 -0.117206 0.822213
-0.0318366 -0.115968 0.823717
-0.0314551 -0.114749 0.825393
-0.0310602 -0.113561 0.82733
-0.0306623 -0.112371 0.829296
-0.0302668 -0.111166 0.831191
-0.0298788 -0.109933 0.832913
-0.0295128 -0.108638 0.834188
-0.0291638 -0.107292 0.835082
-0.0288336 -0.105899 0.835615
-0.0285123 -0.104482 0.835967
-0.0281862 -0.103075 0.836399
-0.0278463 -0.1017 0.837106
-0.0275042 -0.100328 0.837848
-0.0271444 -0.0989956 0.83894
-0.0267611 -0.0977082 0.840449
-0.0263609 -0.096452 0.842269
-0.025966 -0.0951781 0.843978
-0.0255652 -0.0939079 0.84576
-0.025171 -0.0926178 0.847405
-0.024806 -0.0912657 0.848513
-0.0244488 -0.0898926 0.849446
-0.0241012 -0.0884986 0.850198
-0.0237594 -0.0870929 0.850851
-0.0234331 -0.0856565 0.851211
-0.0230783 -0.0842701 0.85208
-0.0227258 -0.0828778 0.85291
-0.0223641 -0.0814974 0.85388
-0.0219834 -0.0801455 0.855178
-0.0215933 -0.078805 0.856639
-0.0212109 -0.0774476 0.857956
-0.0208152 -0.0761048 0.859474
-0.0203825 -0.0748129 0.861621
-0.0199035 -0.0735819 0.864552
-0.0193832 -0.072398 0.86814
-0.0188654 -0.0711951 0.871638
-0.018345 -0.0699848 0.875159
-0.0178391 -0.068741 0.878406
-0.0173845 -0.0674179 0.880746
-0.0169509 -0.0660611 0.882737
-0.0164888 -0.0647322 0.885169
-0.0160344 -0.0633853 0.88745
-0.015566 -0.0620462 0.88993
-0.0149658 -0.0608464 0.894522
-0.0142053 -0.0598047 0.901657
-0.013428 -0.0587541 0.908972
-0.0126587 -0.0576671 0.916084
-0.0119356 -0.0565081 0.922408
-0.0113492 -0.0551927 0.926503
-0.0109212 -0.0537157 0.928088
-0.00853726 -0.0529477 0.93554
-0.0104846 -0.0522406 0.929778
-0.0383848 -0.140506 0.824419
-0.0380876 -0.139011 0.824232
-0.0377967 -0.137493 0.823891
-0.0375298 -0.135883 0.822967
-0.0372552 -0.134313 0.822272
-0.0369877 -0.132723 0.821426
-0.0367239 -0.131122 0.820488
-0.0364577 -0.129536 0.819621
-0.0361871 -0.127975 0.818891
-0.035917 -0.126419 0.818175
-0.0356355 -0.124907 0.817729
-0.0353392 -0.123448 0.817627
-0.0350373 -0.122007 0.817642
-0.0347209 -0.120617 0.818
-0.0343934 -0.119263 0.818617
-0.0340528 -0.117946 0.819503
-0.033703 -0.116654 0.820577
-0.0333372 -0.115407 0.822001
-0.0329612 -0.114181 0.823609
-0.0325696 -0.112995 0.825552
-0.0321672 -0.11183 0.827687
-0.0317629 -0.110661 0.829844
-0.0313651 -0.109464 0.831829
-0.030984 -0.108214 0.833446
-0.0306247 -0.106902 0.834602
-0.0302859 -0.105531 0.835311
-0.0299603 -0.104126 0.835756
-0.0296301 -0.102729 0.836274
-0.0292915 -0.101355 0.836983
-0.0289459 -0.0999924 0.837809
-0.0285864 -0.0986596 0.838904
-0.0282088 -0.0973632 0.840341
-0.0278165 -0.0960952 0.842062
-0.0274327 -0.0948014 0.843594
-0.0270483 -0.093501 0.845102
-0.0266626 -0.0921999 0.846644
-0.026299 -0.0908478 0.847745
-0.0259425 -0.0894768 0.84869
-0.0255914 -0.0880932 0.849536
-0.0252413 -0.0867045 0.850348
-0.0249094 -0.085279 0.850811
-0.024551 -0.0839021 0.851774
-0.0242033 -0.0825026 0.852527
-0.0238446 -0.0811203 0.853478
-0.0234712 -0.0797591 0.854677
-0.0230888 -0.0784099 0.856041
-0.0227121 -0.0770459 0.85728
-0.0223148 -0.0757107 0.858874
-0.0218894 -0.0744118 0.860938
-0.0214204 -0.0731713 0.863765
-0.0209124 -0.071978 0.867242
-0.0204029 -0.0707722 0.870701
-0.0198873 -0.0695601 0.874213
-0.0193818 -0.0683241 0.877545
-0.0189202 -0.067016 0.880076
-0.0184829 -0.0656678 0.882173
-0.0180344 -0.0643265 0.884435
-0.0176068 -0.0629512 0.886325
-0.0171839 -0.0615634 0.888117
-0.0165717 -0.0603871 0.893026
-0.0157914 -0.0593801 0.90067
-0.0149906 -0.0583649 0.908564
-0.0141646 -0.0573466 0.916778
-0.0133837 -0.0562528 0.92419
-0.0128146 -0.0549216 0.928097
-0.0124076 -0.0534221 0.929371
-0.0119872 -0.0519313 0.930838
-0.00960432 -0.0511501 0.938348
-0.0115775 -0.0504272 0.932129
-0.04016 -0.141481 0.82342
-0.0398584 -0.140002 0.823325
-0.0395636 -0.138499 0.823081
-0.0392783 -0.136955 0.822566
-0.0390108 -0.135345 0.821632
-0.0387385 -0.133761 0.82083
-0.0384807 -0.132129 0.819701
-0.0382209 -0.130511 0.818636
-0.0379626 -0.128899 0.817575
-0.0376992 -0.127309 0.816635
-0.0374336 -0.125738 0.815792
-0.0371541 -0.124219 0.815273
-0.0368614 -0.122752 0.815086
-0.0365569 -0.121328 0.815187
-0.036234 -0.119967 0.815725
-0.0358993 -0.118642 0.816517
-0.035554 -0.11735 0.817558
-0.0352075 -0.116058 0.81862
-0.0348448 -0.114811 0.820023
-0.034472 -0.113586 0.821619
-0.0340828 -0.112405 0.823576
-0.0336837 -0.111245 0.825734
-0.0332752 -0.110101 0.828062
-0.0328685 -0.108939 0.830301
-0.0324747 -0.107734 0.83226
-0.0320996 -0.106469 0.833777
-0.0317419 -0.105152 0.834918
-0.0313999 -0.103789 0.835705
-0.0310616 -0.102415 0.836407
-0.0307185 -0.101051 0.837209
-0.0303689 -0.0996992 0.838133
-0.0300149 -0.0983568 0.839155
-0.0296427 -0.0970508 0.840517
-0.0292654 -0.0957529 0.841983
-0.0288939 -0.0944352 0.843304
-0.0285226 -0.0931112 0.844598
-0.0281489 -0.0917889 0.845941
-0.0277906 -0.0904282 0.846953
-0.0274325 -0.0890647 0.847964
-0.0270829 -0.0876819 0.848811
-0.0267281 -0.0863043 0.849726
-0.026388 -0.0848981 0.850376
-0.0260245 -0.083532 0.851447
-0.0256723 -0.0821429 0.852306
-0.0253091 -0.080769 0.853345
-0.0249377 -0.0794073 0.854544
-0.0245559 -0.0780584 0.855913
-0.0241805 -0.0766944 0.857155
-0.0237862 -0.0753586 0.85875
-0.0233641 -0.074058 0.860809
-0.0229049 -0.0728078 0.863531
-0.0224129 -0.0715971 0.86681
-0.0219196 -0.0703735 0.870063
-0.0214174 -0.0691516 0.873452
-0.0209211 -0.0679089 0.8767
-0.020457 -0.0666095 0.879339
-0.0200172 -0.0652699 0.881544
-0.0195775 -0.0639206 0.883709
-0.019166 -0.0625299 0.885373
-0.0187585 -0.0611274 0.886942
-0.0181326 -0.0599764 0.892224
-0.0173418 -0.0589921 0.900237
-0.0165199 -0.058013 0.9087
-0.0156687 -0.0570313 0.917552
-0.0148703 -0.0559621 0.925434
-0.0143242 -0.0546104 0.929058
-0.0139256 -0.0531023 0.930208
-0.0135139 -0.0516017 0.931547
-0.0131131 -0.0500889 0.93272
-0.010734 -0.0492913 0.940247
-0.0127022 -0.0485806 0.934031
-0.0416051 -0.141095 0.82304
-0.0413043 -0.139612 0.822918
-0.0410085 -0.138106 0.822649
-0.0407304 -0.136528 0.821925
-0.0404684 -0.13489 0.820801
-0.040206 -0.133264 0.819729
-0.0399604 -0.131574 0.818217
-0.0397061 -0.129929 0.816956
-0.0394519 -0.128295 0.815735
-0.0391904 -0.126699 0.814731
-0.0389222 -0.125132 0.813894
-0.0386426 -0.123616 0.813376
-0.0383593 -0.122119 0.812962
-0.0380561 -0.120696 0.813051
-0.0377365 -0.119329 0.813518
-0.037404 -0.118008 0.814322
-0.0370626 -0.116711 0.815306
-0.0367153 -0.11543 0.816421
-0.0363667 -0.114149 0.817557
-0.0360093 -0.112891 0.818878
-0.0356352 -0.111678 0.820574
-0.035237 -0.11053 0.822789
-0.0348346 -0.109383 0.825067
-0.034429 -0.108238 0.827408
-0.034008 -0.107122 0.830027
-0.0336057 -0.105945 0.832228
-0.0332232 -0.104702 0.833946
-0.0328539 -0.103417 0.835363
-0.0324892 -0.102113 0.836645
-0.032147 -0.100749 0.837457
-0.0317976 -0.099397 0.838383
-0.0314446 -0.0980538 0.839408
-0.0310773 -0.096738 0.84069
-0.0307147 -0.0954092 0.841889
-0.0303513 -0.0940754 0.843069
-0.0299925 -0.0927282 0.844154
-0.0296338 -0.091377 0.845227
-0.029286 -0.0899981 0.846061
-0.0289336 -0.0886267 0.846985
-0.0285855 -0.0872434 0.847816
-0.0282278 -0.0858759 0.848819
-0.027874 -0.0844989 0.849753
-0.0275007 -0.0831548 0.851044
-0.027131 -0.0817998 0.852256
-0.0267606 -0.0804426 0.853479
-0.0263858 -0.0790886 0.854768
-0.0260049 -0.0777403 0.856157
-0.0256266 -0.076383 0.857486
-0.0252372 -0.075039 0.859008
-0.0248239 -0.0737289 0.860962
-0.024378 -0.0724631 0.863508
-0.0239106 -0.0712192 0.866407
-0.0234394 -0.0699711 0.869366
-0.0229571 -0.0687262 0.872466
-0.0224813 -0.0674614 0.875442
-0.0220217 -0.0661632 0.878081
-0.0215796 -0.0648313 0.880379
-0.0211426 -0.0634837 0.882545
-0.0207352 -0.0620923 0.884188
-0.0203337 -0.060687 0.885694
-0.0196942 -0.059562 0.89136
-0.01889 -0.058608 0.899849
-0.0180495 -0.0576611 0.908853
-0.0171968 -0.0566929 0.917971
-0.0163922 -0.0556379 0.926155
-0.0158635 -0.0542697 0.929548
-0.0154726 -0.0527541 0.930598
-0.0150632 -0.0512529 0.931931
-0.0146638 -0.0497382 0.933101
-0.0142544 -0.048229 0.93442
-0.0430473 -0.140721 0.822731
-0.0427427 -0.13925 0.822682
-0.0424496 -0.137731 0.822331
-0.0421719 -0.136143 0.821537
-0.0419112 -0.134489 0.820309
-0.0416565 -0.132821 0.818967
-0.0414202 -0.131082 0.81713
-0.041171 -0.129412 0.815695
-0.0409203 -0.127756 0.814311
-0.0406638 -0.126137 0.813138
-0.0403954 -0.12457 0.812286
-0.0401129 -0.123065 0.811822
-0.0398315 -0.121558 0.81132
-0.0395318 -0.120127 0.811333
-0.039218 -0.118748 0.811702
-0.0388884 -0.117419 0.812425
-0.0385593 -0.11609 0.813162
-0.0382241 -0.11478 0.814045
-0.0378889 -0.113465 0.814907
-0.0375463 -0.11217 0.815938
-0.0371935 -0.110903 0.817186
-0.0368119 -0.109722 0.819124
-0.0364257 -0.108545 0.821127
-0.0360341 -0.107374 0.823224
-0.0356309 -0.106229 0.825571
-0.0351961 -0.105164 0.828616
-0.0347773 -0.10404 0.831257
-0.0343644 -0.102885 0.833703
-0.0339584 -0.101701 0.835973
-0.0335747 -0.100448 0.837715
-0.0332288 -0.0990928 0.838622
-0.0328759 -0.0977482 0.839639
-0.0325195 -0.0964103 0.840737
-0.0321706 -0.0950499 0.841658
-0.0318148 -0.0937027 0.842719
-0.0314661 -0.0923352 0.843616
-0.0311203 -0.0909593 0.844454
-0.0307772 -0.0895722 0.845203
-0.030428 -0.0881986 0.846099
-0.0300813 -0.0868149 0.846913
-0.0297201 -0.0854585 0.848018
-0.0293577 -0.0841026 0.849155
-0.0289765 -0.0827784 0.850647
-0.0285989 -0.0814418 0.852053
-0.0282204 -0.0801017 0.853458
-0.0278422 -0.0787563 0.854847
-0.0274574 -0.0774168 0.85634
-0.0270766 -0.0760665 0.857758
-0.0266848 -0.0747292 0.859362
-0.0262742 -0.073416 0.861308
-0.0258362 -0.072141 0.863761
-0.0253887 -0.0708714 0.866379
-0.0249317 -0.069605 0.869123
-0.0244715 -0.0683356 0.871917
-0.0240155 -0.0670477 0.874593
-0.0235603 -0.0657491 0.877225
-0.0231169 -0.0644237 0.879615
-0.022683 -0.063078 0.8818
-0.0222721 -0.0616947 0.883542
-0.0218787 -0.0602819 0.884942
-0.021172 -0.0592493 0.891986
-0.0203552 -0.0583194 0.900909
-0.0195116 -0.0573877 0.910224
-0.0186625 -0.0564233 0.919497
-0.0178521 -0.055384 0.928018
-0.0174025 -0.0539338 0.930113
-0.0170114 -0.0524175 0.931175
-0.0166027 -0.0509149 0.932518
-0.0162029 -0.0493992 0.933699
-0.0158007 -0.0478842 0.934929
-0.0134381 -0.0470672 0.94245
-0.0153922 -0.0463698 0.936249
-0.0444856 -0.14036 0.822504
-0.0441826 -0.13888 0.822395
-0.0438915 -0.137345 0.821939
-0.0436155 -0.135745 0.821069
-0.0433585 -0.134067 0.819684
-0.0431088 -0.132362 0.818097
-0.0428729 -0.130611 0.816171
-0.0426239 -0.12893 0.814653
-0.0423768 -0.127254 0.813124
-0.0421181 -0.125635 0.811938
-0.0418465 -0.124079 0.811138
-0.0415632 -0.122574 0.810663
-0.0412873 -0.121046 0.810005
-0.0409912 -0.119602 0.809919
-0.0406818 -0.118208 0.810163
-0.0403588 -0.116865 0.810776
-0.0400407 -0.115504 0.811266
-0.0397131 -0.114174 0.81198
-0.0393899 -0.112824 0.812565
-0.0390635 -0.111485 0.813236
-0.0387365 -0.110147 0.81393
-0.0383772 -0.10891 0.815399
-0.0380105 -0.107688 0.817019
-0.0376391 -0.106478 0.818762
-0.0372557 -0.105292 0.820739
-0.0368354 -0.104208 0.823575
-0.0363807 -0.103211 0.82719
-0.0359279 -0.102192 0.830712
-0.0354799 -0.10114 0.834045
-0.0350536 -0.100015 0.836854
-0.0346653 -0.0987756 0.838748
-0.0343184 -0.0974183 0.839661
-0.0339702 -0.096061 0.840593
-0.0336232 -0.0946984 0.841496
-0.0332692 -0.0933498 0.842547
-0.0329289 -0.091965 0.843287
-0.0325868 -0.0905813 0.844049
-0.0322457 -0.0891934 0.844788
-0.0319049 -0.0878018 0.845506
-0.031564 -0.0864091 0.846226
-0.0312021 -0.0850605 0.847405
-0.0308351 -0.083716 0.848654
-0.0304542 -0.082395 0.850175
-0.0300697 -0.081076 0.851765
-0.0296858 -0.0797508 0.853333
-0.0293036 -0.0784152 0.854833
-0.028916 -0.0770838 0.856423
-0.0285273 -0.0757495 0.858029
-0.0281334 -0.074417 0.859711
-0.0277299 -0.0730966 0.861584
-0.0273044 -0.0718043 0.863846
-0.0268707 -0.0705174 0.866263
-0.0264291 -0.0692328 0.868792
-0.0259894 -0.0679376 0.871279
-0.0255438 -0.0666405 0.873832
-0.025094 -0.0653392 0.876428
-0.0246488 -0.064022 0.878913
-0.0242161 -0.0626786 0.88114
-0.0238016 -0.0613041 0.883
-0.0234179 -0.0598812 0.884249
-0.0226481 -0.0589405 0.892674
-0.021834 -0.0580197 0.901806
-0.020984 -0.0571059 0.911481
-0.0201398 -0.0561476 0.920939
-0.0193263 -0.0551199 0.929737
-0.0189454 -0.0535932 0.930619
-0.0185496 -0.0520823 0.931786
-0.0181477 -0.0505729 0.933052
-0.0177482 -0.0490576 0.934257
-0.0173475 -0.0475401 0.935466
-0.0169413 -0.0460234 0.936759
-0.0145851 -0.0451904 0.944291
-0.0165428 -0.0444973 0.937925
-0.0462146 -0.141548 0.822785
-0.0459147 -0.140043 0.822537
-0.0456214 -0.13851 0.822107
-0.0453333 -0.136957 0.821538
-0.0450604 -0.135334 0.820515
-0.0448011 -0.133656 0.819126
-0.0445512 -0.13194 0.817454
-0.0443141 -0.130178 0.815452
-0.0440678 -0.128475 0.813775
-0.043819 -0.126797 0.812228
-0.0435631 -0.125157 0.810889
-0.0432951 -0.123581 0.809944
-0.0430115 -0.12208 0.809479
-0.0427345 -0.120554 0.808824
-0.0424405 -0.119101 0.808653
-0.0421362 -0.117693 0.808793
-0.0418182 -0.116335 0.809286
-0.0415071 -0.11495 0.809587
-0.0411849 -0.113608 0.810198
-0.0408697 -0.112237 0.810609
-0.0405523 -0.110875 0.811087
-0.0402396 -0.109494 0.811428
-0.0399011 -0.1082 0.812437
-0.0395631 -0.1069 0.813421
-0.0392176 -0.105621 0.814584
-0.0388652 -0.104358 0.815903
-0.0384705 -0.10322 0.818253
-0.0379926 -0.102321 0.822603
-0.0374969 -0.101453 0.827322
-0.0370099 -0.10054 0.831789
-0.0365268 -0.0995898 0.836057
-0.0360848 -0.0985053 0.83928
-0.0357453 -0.0971302 0.840049
-0.0353986 -0.0957714 0.840979
-0.0350463 -0.0944244 0.842032
-0.0346961 -0.0930666 0.843011
-0.0343621 -0.091666 0.843613
-0.0340215 -0.0902807 0.844372
-0.0336893 -0.0888722 0.844923
-0.0333612 -0.0874512 0.845359
-0.0330294 -0.08604 0.845899
-0.0326759 -0.0846753 0.846918
-0.0323104 -0.0833315 0.848169
-0.0319365 -0.0820014 0.849598
-0.0315548 -0.0806809 0.851167
-0.0311689 -0.0793636 0.852817
-0.0307807 -0.078045 0.854501
-0.0303855 -0.076732 0.856299
-0.0299856 -0.0754218 0.858185
-0.0295903 -0.0740967 0.859956
-0.0291925 -0.0727682 0.861743
-0.0287794 -0.0714583 0.863824
-0.0283588 -0.0701548 0.866044
-0.0279347 -0.0688464 0.868283
-0.0275085 -0.067535 0.870564
-0.0270808 -0.0662161 0.872837
-0.0266362 -0.064914 0.875414
-0.0261947 -0.0635985 0.877912
-0.0257542 -0.0622705 0.880341
-0.0253316 -0.0609112 0.882414
-0.0249365 -0.0595066 0.883931
-0.0241742 -0.0585705 0.89246
-0.0233682 -0.0576537 0.901694
-0.0225272 -0.0567437 0.911503
-0.0216908 -0.0557898 0.921081
-0.0208845 -0.0547652 0.929995
-0.0204945 -0.0532495 0.931067
-0.0200878 -0.0517488 0.93245
-0.0196869 -0.0502391 0.933726
-0.0192886 -0.0487218 0.934927
-0.0188959 -0.0471959 0.936009
-0.0185051 -0.0456651 0.937066
-0.0181142 -0.0441321 0.938106
-0.0157551 -0.0432914 0.945785
-0.017727 -0.0425926 0.939067
-0.0476333 -0.1413 0.823228
-0.0473419 -0.139746 0.822691
-0.0470574 -0.138159 0.821932
-0.0467748 -0.136569 0.821135
-0.0465029 -0.134931 0.820014
-0.0462422 -0.133242 0.818547
-0.0459933 -0.131513 0.816784
-0.0457552 -0.129739 0.81469
-0.0455118 -0.128011 0.812846
-0.0452624 -0.126323 0.811211
-0.0450027 -0.124695 0.809944
-0.0447317 -0.123124 0.809019
-0.044443 -0.121642 0.808666
-0.0441611 -0.120131 0.80811
-0.0438704 -0.118668 0.807865
-0.0435707 -0.117238 0.807841
-0.0432631 -0.115847 0.808083
-0.0429611 -0.114429 0.808139
-0.0426457 -0.113065 0.808575
-0.042338 -0.111675 0.808826
-0.0420294 -0.110284 0.809067
-0.0417267 -0.108874 0.809164
-0.0414033 -0.107536 0.809817
-0.0410844 -0.106182 0.810348
-0.0407622 -0.104837 0.810956
-0.0404383 -0.103496 0.811611
-0.0400729 -0.102286 0.813329
-0.0396301 -0.10131 0.816996
-0.0391688 -0.100374 0.821091
-0.0382361 -0.0984677 0.829317
-0.0377454 -0.0975526 0.833919
-0.0373431 -0.0963692 0.836296
-0.0369299 -0.0952036 0.838892
-0.0365097 -0.0940467 0.841637
-0.0360951 -0.0928593 0.844173
-0.0357654 -0.0914473 0.844693
-0.0354327 -0.0900404 0.845267
-0.0351086 -0.0886091 0.845615
-0.0347977 -0.0871489 0.845685
