ply
format ascii 1.0
element vertex 1551
property float x
property float y
property float z
end_header
0.0538385 -0.146523 -0.0180511
0.0539803 -0.146739 -0.017956
0.0541166 -0.146953 -0.0178818
0.0542736 -0.147175 -0.0177328
0.0544581 -0.147407 -0.0174861
0.0546617 -0.147648 -0.0171724
0.0548523 -0.147884 -0.0169077
0.0550368 -0.148118 -0.016666
0.055216 -0.148351 -0.0164451
0.055543 -0.148834 -0.0149267
0.0553794 -0.148579 -0.0162815
0.0466937 -0.127469 -0.00335847
0.0467713 -0.127702 -0.00359595
0.0468387 -0.127936 -0.00388337
0.0468985 -0.12817 -0.00420579
0.0469536 -0.128404 -0.00454877
0.0470248 -0.128635 -0.00481014
0.0471024 -0.128864 -0.00503824
0.0471952 -0.12909 -0.00519053
0.0472887 -0.129315 -0.00533905
0.047392 -0.129539 -0.00543805
0.0474956 -0.129762 -0.00553518
0.0476084 -0.129984 -0.00558833
0.0477028 -0.130208 -0.00572826
0.0477927 -0.130433 -0.00588931
0.047884 -0.130656 -0.00604182
0.0479727 -0.130879 -0.00620606
0.0480565 -0.131102 -0.00639217
0.0481551 -0.131324 -0.00650705
0.0482597 -0.131545 -0.00659447
0.0483671 -0.131766 -0.00666746
0.0484318 -0.131988 -0.00693745
0.0483942 -0.132214 -0.00767715
0.048288 -0.13244 -0.00872557
0.0481243 -0.132664 -0.0100291
0.0480276 -0.132884 -0.0110174
0.0479551 -0.133099 -0.0118888
0.0479373 -0.133312 -0.0125066
0.0479605 -0.133524 -0.0129355
0.0480169 -0.133734 -0.0132122
0.0480793 -0.133943 -0.01346
0.0481509 -0.134153 -0.0136649
0.0482226 -0.134361 -0.0138683
0.0482975 -0.134569 -0.0140561
0.0483661 -0.134776 -0.0142708
0.0484393 -0.134983 -0.0144634
0.0485092 -0.13519 -0.0146693
0.0485828 -0.135396 -0.0148578
0.0486627 -0.135601 -0.0150175
0.0487491 -0.135807 -0.0151482
0.0488267 -0.136012 -0.0153158
0.0489058 -0.136217 -0.015476
0.0489783 -0.136421 -0.0156635
0.0490471 -0.136623 -0.0158652
0.0491134 -0.136825 -0.0160764
0.049185 -0.137027 -0.0162639
0.0492631 -0.13723 -0.0164228
0.0493353 -0.137431 -0.0166052
0.0494136 -0.137632 -0.0167609
0.0494884 -0.137833 -0.0169305
0.0495662 -0.138033 -0.0170868
0.0496346 -0.138232 -0.0172804
0.0497212 -0.138433 -0.0173982
0.0498056 -0.138634 -0.0175242
0.049891 -0.138834 -0.0176451
0.0499784 -0.139035 -0.0177574
0.0500772 -0.139237 -0.0178228
0.0501773 -0.139439 -0.0178823
0.0502759 -0.139641 -0.017948
0.050399 -0.139847 -0.0179142
0.0505164 -0.140053 -0.0179041
0.0506277 -0.140257 -0.0179183
0.0507316 -0.14046 -0.0179624
0.0508406 -0.140664 -0.0179855
0.0509281 -0.140863 -0.0180942
0.0510179 -0.141062 -0.0181928
0.0511102 -0.141262 -0.0182811
0.0512054 -0.141462 -0.0183576
0.051302 -0.141662 -0.0184283
0.0514087 -0.141865 -0.0184596
0.0515187 -0.142068 -0.0184776
0.0516223 -0.14227 -0.0185204
0.0517219 -0.142471 -0.0185785
0.0518173 -0.142671 -0.0186524
0.051909 -0.142869 -0.0187403
0.0520077 -0.143069 -0.018801
0.052101 -0.143268 -0.0188817
0.0522038 -0.143469 -0.0189265
0.0523098 -0.143671 -0.0189584
0.0524258 -0.143875 -0.0189531
0.0525403 -0.14408 -0.0189534
0.0526715 -0.144289 -0.0188912
0.0528001 -0.144498 -0.0188395
0.0529347 -0.144709 -0.0187654
0.0530666 -0.14492 -0.0187025
0.053199 -0.14513 -0.0186378
0.0533382 -0.145343 -0.0185491
0.0534814 -0.145558 -0.0184459
0.0536327 -0.145776 -0.0183143
0.053781 -0.145993 -0.0181941
0.0539292 -0.14621 -0.0180754
0.0540623 -0.146423 -0.0180122
0.0542013 -0.146637 -0.0179281
0.054338 -0.146852 -0.017853
0.0544982 -0.147074 -0.0176941
0.0546824 -0.147307 -0.0174504
0.0548837 -0.147546 -0.0171473
0.0550817 -0.147784 -0.0168575
0.0552748 -0.148022 -0.0165875
0.0554674 -0.14826 -0.0163207
0.0556511 -0.148495 -0.0160876
0.0468887 -0.127351 -0.00352207
0.0469672 -0.127583 -0.00375365
0.0470435 -0.127816 -0.00399425
0.0471099 -0.128049 -0.00428159
0.0471675 -0.128283 -0.00461019
0.0472386 -0.128514 -0.00487032
0.0473193 -0.128742 -0.00508222
0.0474154 -0.128968 -0.00521706
0.0475127 -0.129193 -0.00534628
0.0476134 -0.129417 -0.00545763
0.0477167 -0.129641 -0.00555662
0.047825 -0.129864 -0.00563005
0.0479186 -0.130088 -0.00577369
0.0480084 -0.130312 -0.0059342
0.0481029 -0.130535 -0.00607054
0.0481947 -0.130759 -0.00621957
0.0482811 -0.130982 -0.00639262
0.0483794 -0.131204 -0.00650857
0.0484845 -0.131425 -0.00659264
0.0485933 -0.131645 -0.00665987
0.0486505 -0.131869 -0.00696317
0.0481479 -0.132553 -0.0109193
0.0480845 -0.132771 -0.0117472
0.0480476 -0.132986 -0.0124501
0.0480571 -0.133199 -0.0129395
0.0481092 -0.13341 -0.0132344
0.048168 -0.13362 -0.013498
0.048237 -0.133829 -0.0137142
0.0483145 -0.134038 -0.0138913
0.0483899 -0.134247 -0.0140766
0.0484674 -0.134455 -0.0142513
0.0485352 -0.134662 -0.0144672
0.0486075 -0.134869 -0.0146622
0.0486775 -0.135075 -0.0148662
0.0487508 -0.135281 -0.015054
0.0488309 -0.135487 -0.0152115
0.0489169 -0.135693 -0.0153426
0.0489966 -0.135898 -0.0155001
0.0490729 -0.136102 -0.0156707
0.0491451 -0.136306 -0.0158579
0.0492142 -0.136509 -0.0160569
0.0492799 -0.13671 -0.0162689
0.0493489 -0.136912 -0.0164656
0.0494266 -0.137114 -0.0166247
0.0495021 -0.137316 -0.016792
0.0495806 -0.137517 -0.0169461
0.049658 -0.137718 -0.0171032
0.049735 -0.137919 -0.0172611
0.0497997 -0.138117 -0.0174691
0.0498794 -0.138317 -0.017614
0.0499595 -0.138517 -0.0177563
0.050041 -0.138717 -0.0178919
0.0501283 -0.138917 -0.0180033
0.050227 -0.139119 -0.0180681
0.0503298 -0.139321 -0.018116
0.0504282 -0.139523 -0.0181815
0.0505482 -0.139729 -0.01816
0.0506651 -0.139934 -0.0181516
0.0507794 -0.140138 -0.0181531
0.0508871 -0.140342 -0.0181813
0.051 -0.140546 -0.0181888
0.051094 -0.140746 -0.0182708
0.0511873 -0.140946 -0.0183547
0.0512828 -0.141147 -0.0184299
0.0513788 -0.141347 -0.0185028
0.0514817 -0.141549 -0.0185483
0.0515917 -0.141752 -0.0185665
0.0517051 -0.141957 -0.0185714
0.0518153 -0.14216 -0.0185886
0.0519217 -0.142363 -0.0186203
0.0520211 -0.142563 -0.0186789
0.0521165 -0.142763 -0.0187523
0.0522182 -0.142964 -0.0188015
0.0523146 -0.143163 -0.0188707
0.052421 -0.143366 -0.0189015
0.0525304 -0.143569 -0.0189213
0.052647 -0.143774 -0.018914
0.0527613 -0.143978 -0.0189154
0.0528893 -0.144187 -0.018866
0.0530107 -0.144393 -0.0188415
0.0531417 -0.144603 -0.0187817
0.0532735 -0.144814 -0.0187199
0.0534058 -0.145024 -0.0186561
0.0535493 -0.145239 -0.0185524
0.0536963 -0.145454 -0.0184364
0.0538447 -0.145671 -0.0183161
0.053993 -0.145888 -0.018197
0.0541412 -0.146105 -0.0180792
0.0542681 -0.146316 -0.0180393
0.0544038 -0.146529 -0.0179677
0.0545366 -0.146742 -0.0179072
0.0546893 -0.146962 -0.017776
0.0548696 -0.147192 -0.0175475
0.0550708 -0.147431 -0.0172467
0.055274 -0.147671 -0.0169404
0.0554797 -0.147913 -0.0166276
0.0556922 -0.148158 -0.0162925
0.055893 -0.148399 -0.0160005
0.0471657 -0.127465 -0.00389586
0.0472437 -0.127697 -0.00412684
0.0473183 -0.127929 -0.00437196
0.0473816 -0.128162 -0.00467051
0.0474528 -0.128393 -0.00492883
0.0475365 -0.128621 -0.0051245
0.0476359 -0.128846 -0.00524335
0.0477364 -0.129071 -0.00535643
0.0478371 -0.129295 -0.00546707
0.0479432 -0.129519 -0.00555261
0.0480512 -0.129742 -0.0056279
0.0481442 -0.129966 -0.00577338
0.0482336 -0.13019 -0.00593491
0.0483279 -0.130414 -0.00607201
0.0484193 -0.130637 -0.00622156
0.0485022 -0.130861 -0.00641016
0.0486005 -0.131083 -0.00652576
0.0487039 -0.131305 -0.00661777
0.0488105 -0.131526 -0.00669466
0.0488503 -0.13175 -0.00707507
0.0483305 -0.13222 -0.0105399
0.0481804 -0.132443 -0.0117579
0.0481775 -0.132659 -0.0123061
0.04819 -0.132873 -0.0127813
0.0482367 -0.133084 -0.0131003
0.048285 -0.133296 -0.0134103
0.048341 -0.133506 -0.0136837
0.0484124 -0.133715 -0.0138879
0.0484927 -0.133924 -0.014051
0.0485678 -0.134133 -0.0142365
0.0486421 -0.134341 -0.0144239
0.0487124 -0.134548 -0.0146272
0.0487844 -0.134755 -0.0148219
0.0488542 -0.134961 -0.0150247
0.0489281 -0.135167 -0.0152091
0.0490081 -0.135373 -0.0153657
0.0490905 -0.135579 -0.0155113
0.0491669 -0.135784 -0.0156814
0.0492426 -0.135988 -0.0158531
0.0493117 -0.136191 -0.0160519
0.0493833 -0.136394 -0.0162384
0.0494517 -0.136596 -0.0164376
0.0495236 -0.136798 -0.0166208
0.0496015 -0.137001 -0.0167782
0.049683 -0.137203 -0.0169192
0.0497616 -0.137404 -0.0170716
0.0498363 -0.137605 -0.017239
0.0499098 -0.137805 -0.0174102
0.0499705 -0.138003 -0.0176326
0.0500429 -0.138202 -0.0178059
0.0501196 -0.138401 -0.0179608
0.0502034 -0.138601 -0.0180862
0.0502906 -0.138801 -0.0181971
0.0503865 -0.139003 -0.0182722
0.0504861 -0.139205 -0.0183324
0.0505837 -0.139406 -0.0184001
0.050697 -0.13961 -0.0184052
0.0508108 -0.139814 -0.0184082
0.0509278 -0.140019 -0.0183988
0.0510385 -0.140223 -0.0184144
0.0511516 -0.140427 -0.0184207
0.0512517 -0.140628 -0.0184778
0.0513512 -0.14083 -0.018537
0.0514504 -0.141031 -0.0185969
0.05155 -0.141232 -0.0186552
0.0516566 -0.141434 -0.0186863
0.0517671 -0.141638 -0.018702
0.051884 -0.141843 -0.0186934
0.052001 -0.142048 -0.0186845
0.0521147 -0.142252 -0.0186885
0.0522213 -0.142455 -0.0187194
0.0523237 -0.142656 -0.018766
0.0524293 -0.142858 -0.0188008
0.0525286 -0.143059 -0.0188586
0.0526354 -0.143261 -0.0188884
0.0527451 -0.143465 -0.0189074
0.0528621 -0.14367 -0.018899
0.052976 -0.143874 -0.0189022
0.0530969 -0.144081 -0.0188794
0.0532143 -0.144286 -0.0188702
0.0533448 -0.144496 -0.0188131
0.0534765 -0.144706 -0.0187517
0.0536066 -0.144916 -0.0186973
0.0537498 -0.14513 -0.0185949
0.0538965 -0.145346 -0.0184807
0.0540413 -0.145561 -0.0183747
0.0541898 -0.145778 -0.0182558
0.0543383 -0.145995 -0.0181376
0.0544651 -0.146206 -0.018098
0.0546006 -0.146419 -0.018028
0.0547295 -0.14663 -0.0179816
0.054871 -0.146846 -0.0178914
0.0550406 -0.147072 -0.0177022
0.0552377 -0.147309 -0.017417
0.0554449 -0.14755 -0.0170981
0.05566 -0.147794 -0.0167539
0.0558903 -0.148046 -0.0163587
0.0561069 -0.148293 -0.0160133
0.0560999 -0.148644 -0.0156894
0.0563254 -0.148542 -0.0156639
0.0473675 -0.127345 -0.00402276
0.0474498 -0.127576 -0.00423013
0.0475327 -0.127807 -0.00443337
0.0475993 -0.12804 -0.00471447
0.0476733 -0.12827 -0.00495685
0.0477632 -0.128498 -0.00512164
0.0478657 -0.128723 -0.0052261
0.0479721 -0.128947 -0.00531019
0.048073 -0.129171 -0.00542037
0.0481791 -0.129395 -0.00550524
0.0482842 -0.129619 -0.00559444
0.0483742 -0.129844 -0.00575345
0.0484573 -0.130069 -0.00594332
0.048548 -0.130293 -0.00609677
0.048636 -0.130517 -0.00626206
0.0487154 -0.130741 -0.00646506
0.0488105 -0.130964 -0.00659531
0.0489133 -0.131185 -0.00668901
0.0490202 -0.131406 -0.00676412
0.048255 -0.132332 -0.0123978
0.0483223 -0.132546 -0.0126269
0.0483792 -0.132758 -0.0129007
0.0484199 -0.13297 -0.0132442
0.0484648 -0.133182 -0.0135668
0.0485176 -0.133392 -0.0138524
0.0485882 -0.133601 -0.0140585
0.0486653 -0.13381 -0.0142343
0.0487393 -0.134019 -0.0144227
0.0488105 -0.134227 -0.0146217
0.048883 -0.134434 -0.0148141
0.0489556 -0.134641 -0.015005
0.0490286 -0.134848 -0.0151925
0.0491026 -0.135054 -0.0153746
0.0491792 -0.135259 -0.0155445
0.0492577 -0.135464 -0.0157053
0.0493302 -0.135669 -0.0158902
0.0494025 -0.135873 -0.0160751
0.0494716 -0.136076 -0.016272
0.0495456 -0.136279 -0.0164474
0.0496136 -0.136481 -0.0166462
0.0496881 -0.136684 -0.016817
0.0497692 -0.136886 -0.0169597
0.0498539 -0.137089 -0.0170867
0.0499355 -0.137291 -0.0172254
0.0500133 -0.137492 -0.0173787
0.0500864 -0.137692 -0.0175506
0.0501469 -0.13789 -0.017772
0.0502159 -0.138088 -0.0179583
0.0502888 -0.138287 -0.0181272
0.0503693 -0.138487 -0.0182646
0.0504536 -0.138686 -0.0183861
0.0505466 -0.138887 -0.0184722
0.0506458 -0.139089 -0.0185335
0.0507426 -0.13929 -0.0186037
0.0508524 -0.139493 -0.0186221
0.0509654 -0.139697 -0.0186279
0.0510793 -0.139901 -0.0186303
0.0511867 -0.140104 -0.0186584
0.0512963 -0.140307 -0.0186777
0.051396 -0.140508 -0.0187354
0.0514952 -0.140709 -0.0187948
0.0515977 -0.140911 -0.0188411
0.0517008 -0.141112 -0.018885
0.051811 -0.141316 -0.0189019
0.0519278 -0.14152 -0.0188932
0.0520487 -0.141726 -0.018869
0.0521697 -0.141932 -0.0188449
0.0522935 -0.142138 -0.0188104
0.0524106 -0.142344 -0.0188016
0.0525206 -0.142547 -0.0188193
0.0526333 -0.142751 -0.0188273
0.0527396 -0.142954 -0.0188589
0.0528464 -0.143156 -0.018889
0.0529563 -0.143359 -0.0189069
0.0530729 -0.143565 -0.0189006
0.0531835 -0.143768 -0.0189163
0.0533006 -0.143974 -0.0189086
0.0534173 -0.144179 -0.018902
0.0535446 -0.144388 -0.0188567
0.0536735 -0.144597 -0.0188064
0.0538069 -0.144808 -0.0187401
0.05395 -0.145022 -0.0186389
0.0540935 -0.145236 -0.0185372
0.0542376 -0.145451 -0.0184342
0.0543859 -0.145668 -0.0183169
0.054531 -0.145884 -0.0182118
0.0546549 -0.146093 -0.018183
0.0547865 -0.146305 -0.018127
0.0549111 -0.146514 -0.0180963
0.0550417 -0.146726 -0.018045
0.0551993 -0.146948 -0.017899
0.0553919 -0.147182 -0.017631
0.0555995 -0.147423 -0.017312
0.0558199 -0.147669 -0.016951
0.0560626 -0.147924 -0.0165143
0.0562921 -0.148175 -0.0161262
0.056515 -0.148425 -0.0157631
0.0565214 -0.148782 -0.0153945
0.0567107 -0.148665 -0.0154965
0.0476034 -0.127219 -0.0039823
0.0476872 -0.12745 -0.00418192
0.0477634 -0.127682 -0.00441668
0.047833 -0.127915 -0.00468121
0.0479072 -0.128146 -0.00492194
0.0479972 -0.128373 -0.0050859
0.0480965 -0.128599 -0.00520469
0.0482029 -0.128823 -0.00528894
0.0483038 -0.129048 -0.00539878
0.0484103 -0.129272 -0.00548174
0.048519 -0.129495 -0.00555391
0.0486092 -0.129721 -0.0057116
0.0486918 -0.129946 -0.00590328
0.0487758 -0.130171 -0.00608695
0.0488625 -0.130396 -0.00625732
0.0489352 -0.130621 -0.00649036
0.0490283 -0.130843 -0.00662867
0.0491288 -0.131065 -0.00673278
0.0492354 -0.131286 -0.00680849
0.0484518 -0.132218 -0.0124867
0.0485209 -0.132431 -0.0127062
0.048569 -0.132644 -0.013017
0.0486065 -0.132857 -0.0133723
0.0486512 -0.133068 -0.0136938
0.0487032 -0.133278 -0.0139808
0.0487701 -0.133488 -0.0142009
0.0488435 -0.133697 -0.0143916
0.0489144 -0.133905 -0.0145923
0.0489848 -0.134113 -0.0147933
0.0490572 -0.134321 -0.0149845
0.0491298 -0.134528 -0.0151735
0.0492061 -0.134734 -0.0153456
0.0492799 -0.13494 -0.0155273
0.0493524 -0.135146 -0.0157132
0.0494241 -0.13535 -0.0159015
0.0494922 -0.135555 -0.0161034
0.0495612 -0.135758 -0.0163003
0.0496329 -0.135962 -0.0164847
0.0497075 -0.136165 -0.016656
0.0497814 -0.136367 -0.0168288
0.0498588 -0.13657 -0.0169865
0.0499427 -0.136773 -0.0171163
0.0500278 -0.136975 -0.0172405
0.0501125 -0.137178 -0.0173656
0.0501901 -0.137379 -0.0175187
0.050263 -0.137579 -0.0176899
0.0503231 -0.137777 -0.0179116
0.0503922 -0.137976 -0.0180961
0.0504651 -0.138174 -0.0182639
0.0505456 -0.138374 -0.0184006
0.0506294 -0.138573 -0.018523
0.0507221 -0.138774 -0.0186096
0.0508176 -0.138975 -0.0186848
0.050911 -0.139175 -0.0187677
0.0510141 -0.139377 -0.0188123
0.0511207 -0.13958 -0.0188429
0.0512275 -0.139782 -0.0188727
0.051331 -0.139984 -0.0189153
0.0514338 -0.140186 -0.01896
0.051533 -0.140387 -0.0190188
0.0516321 -0.140588 -0.0190776
0.0517349 -0.140789 -0.0191223
0.0518381 -0.14099 -0.0191648
0.0519542 -0.141195 -0.0191583
0.0520742 -0.1414 -0.019137
0.0522016 -0.141607 -0.0190881
0.0523297 -0.141814 -0.0190369
0.052461 -0.142022 -0.0189738
0.0525854 -0.142229 -0.0189374
0.0527028 -0.142434 -0.0189276
0.0528163 -0.142638 -0.0189323
0.0529264 -0.142842 -0.0189499
0.0530394 -0.143046 -0.0189567
0.053153 -0.14325 -0.0189615
0.0532698 -0.143455 -0.0189542
0.0533835 -0.14366 -0.0189587
0.0535 -0.143865 -0.0189531
0.0536169 -0.144071 -0.0189464
0.0537447 -0.144279 -0.0188997
0.0538741 -0.144489 -0.0188478
0.0540111 -0.144701 -0.0187691
0.0541542 -0.144914 -0.0186688
0.0542942 -0.145128 -0.0185805
0.0544346 -0.145341 -0.0184914
0.0545831 -0.145558 -0.0183744
0.0547248 -0.145773 -0.0182818
0.0548453 -0.145981 -0.0182656
0.0549698 -0.14619 -0.0182349
0.05509 -0.146398 -0.0182198
0.0552128 -0.146607 -0.0181963
0.0553553 -0.146823 -0.0181034
0.0555358 -0.147053 -0.0178792
0.0557414 -0.147292 -0.0175687
0.0559589 -0.147536 -0.0172188
0.0562037 -0.147791 -0.0167771
0.0564453 -0.148046 -0.0163488
0.0566794 -0.148299 -0.0159492
0.0568795 -0.148541 -0.0156686
0.0478905 -0.127082 -0.00369744
0.047945 -0.12732 -0.00403779
0.0480026 -0.127556 -0.0043604
0.0480721 -0.127789 -0.00462452
0.0481457 -0.12802 -0.00486654
0.0482357 -0.128248 -0.0050303
0.048332 -0.128474 -0.00516263
0.0484383 -0.128699 -0.00524764
0.0485392 -0.128924 -0.00535761
0.0486428 -0.129148 -0.00545414
0.0487544 -0.129372 -0.00551255
0.0488444 -0.129597 -0.00567051
0.0489266 -0.129823 -0.00586351
0.0490066 -0.130049 -0.00606458
0.0490924 -0.130274 -0.00623832
0.049161 -0.130499 -0.00648888
0.0492544 -0.130722 -0.00662526
0.0493072 -0.130948 -0.00694354
0.0493345 -0.131175 -0.00737425
0.0486462 -0.131886 -0.0120599
0.0486426 -0.132103 -0.0126016
0.0487082 -0.132317 -0.012835
0.0487591 -0.13253 -0.0131315
0.0487933 -0.132743 -0.0134986
0.0488404 -0.132954 -0.0138075
0.0488915 -0.133165 -0.0140962
0.0489555 -0.133374 -0.0143279
0.0490252 -0.133583 -0.0145333
0.0490924 -0.133792 -0.0147477
0.0491588 -0.134 -0.0149642
0.0492315 -0.134207 -0.0151527
0.0493069 -0.134414 -0.0153286
0.0493834 -0.134621 -0.0154986
0.0494567 -0.134827 -0.0156808
0.0495253 -0.135032 -0.0158819
0.0495894 -0.135237 -0.0161002
0.0496533 -0.13544 -0.016318
0.0497188 -0.135644 -0.0165277
0.0497911 -0.135847 -0.0167083
0.0498659 -0.13605 -0.0168768
0.0499463 -0.136253 -0.0170217
0.0500268 -0.136456 -0.0171655
0.0501144 -0.136659 -0.0172791
0.0502025 -0.136862 -0.0173902
0.0502902 -0.137065 -0.017502
0.0503672 -0.137266 -0.0176564
0.0504432 -0.137466 -0.0178142
0.0505034 -0.137664 -0.0180343
0.0505727 -0.137863 -0.0182164
0.0506454 -0.138062 -0.0183838
0.0507253 -0.138261 -0.0185219
0.0508056 -0.138461 -0.0186577
0.0508946 -0.138661 -0.0187581
0.0509868 -0.138861 -0.0188456
0.0510767 -0.139061 -0.0189417
0.0511761 -0.139262 -0.0189999
0.0512791 -0.139464 -0.019044
0.0513819 -0.139665 -0.0190887
0.0514814 -0.139866 -0.019146
0.05158 -0.140067 -0.0192065
0.0516755 -0.140267 -0.0192788
0.0517713 -0.140467 -0.0193495
0.0518737 -0.140668 -0.0193942
0.0519768 -0.140869 -0.0194367
0.0520927 -0.141073 -0.0194302
0.0522128 -0.141278 -0.0194083
0.0523404 -0.141484 -0.0193582
0.0524722 -0.141692 -0.0192927
0.0526104 -0.141902 -0.0192043
0.052742 -0.14211 -0.0191406
0.0528701 -0.142318 -0.0190907
0.0529906 -0.142523 -0.0190695
0.0531072 -0.142728 -0.0190627
0.0532206 -0.142933 -0.0190679
0.0533344 -0.143137 -0.0190719
0.0534484 -0.143341 -0.0190751
0.0535655 -0.143547 -0.0190672
0.0536824 -0.143752 -0.0190599
0.0538032 -0.143958 -0.0190389
0.0539349 -0.144168 -0.0189786
0.0540681 -0.144378 -0.0189133
0.0542052 -0.14459 -0.018835
0.0543486 -0.144804 -0.0187343
0.054489 -0.145017 -0.0186454
0.0546265 -0.14523 -0.0185673
0.0547745 -0.145446 -0.0184525
0.0549162 -0.145661 -0.0183605
0.0550329 -0.145867 -0.0183578
0.0551535 -0.146075 -0.018341
0.0552729 -0.146283 -0.0183289
0.055388 -0.146489 -0.018332
0.0555193 -0.146701 -0.0182791
0.0556874 -0.146926 -0.0180985
0.0558807 -0.14716 -0.0178321
0.0560894 -0.147401 -0.017514
0.0563306 -0.147654 -0.0170862
0.0565772 -0.14791 -0.0166428
0.0568166 -0.148164 -0.0162267
0.0570245 -0.148408 -0.0159203
0.057069 -0.148779 -0.0154258
0.0572138 -0.148645 -0.0156791
0.0481556 -0.126698 -0.00292084
0.0481646 -0.126947 -0.00348058
0.0482022 -0.127189 -0.0038998
0.0482439 -0.127429 -0.00429644
0.0483093 -0.127663 -0.0045784
0.0483824 -0.127895 -0.00482221
0.048475 -0.128122 -0.00497264
0.048571 -0.128349 -0.00510666
0.0486772 -0.128574 -0.00519196
0.0487807 -0.128799 -0.00528957
0.0488837 -0.129024 -0.00538857
0.0489958 -0.129247 -0.00544528
0.0490823 -0.129473 -0.00561908
0.0491643 -0.1297 -0.00581187
0.0492371 -0.129927 -0.00604514
0.0493131 -0.130153 -0.00626244
0.0493739 -0.130379 -0.00654624
0.0494667 -0.130602 -0.0066849
0.0494627 -0.130833 -0.00725526
0.0488441 -0.131771 -0.0121467
0.0488517 -0.131988 -0.0126357
0.0489091 -0.132202 -0.0129039
0.0489524 -0.132416 -0.0132313
0.0489858 -0.132629 -0.0135996
0.0490293 -0.13284 -0.0139216
0.0490742 -0.133051 -0.0142355
0.0491374 -0.133261 -0.0144685
0.0492006 -0.13347 -0.0147001
0.0492672 -0.133679 -0.014916
0.0493303 -0.133887 -0.0151449
0.0494051 -0.134094 -0.0153229
0.0494806 -0.134301 -0.0154967
0.0495601 -0.134508 -0.0156531
0.04963 -0.134713 -0.0158481
0.0496951 -0.134919 -0.0160618
0.049755 -0.135123 -0.016296
0.0498151 -0.135327 -0.016528
0.0498768 -0.13553 -0.0167515
0.0499523 -0.135733 -0.0169172
0.0500336 -0.135937 -0.017058
0.0501177 -0.13614 -0.0171867
0.0502045 -0.136343 -0.0173032
0.0502986 -0.136547 -0.0173898
0.050387 -0.13675 -0.0174988
0.0504777 -0.136953 -0.017598
0.0505544 -0.137154 -0.0177531
0.0506301 -0.137354 -0.0179109
0.0506902 -0.137553 -0.01813
0.0507596 -0.137752 -0.0183105
0.0508289 -0.13795 -0.0184906
0.050908 -0.13815 -0.018631
0.0509846 -0.138348 -0.0187804
0.0510702 -0.138548 -0.0188935
0.0511591 -0.138748 -0.0189932
0.0512483 -0.138948 -0.0190909
0.0513442 -0.139148 -0.0191624
0.0514401 -0.139349 -0.0192336
0.051536 -0.139549 -0.0193043
0.0516314 -0.139749 -0.0193765
0.0517234 -0.139948 -0.0194614
0.0518153 -0.140147 -0.0195464
0.0519102 -0.140347 -0.0196194
0.0520124 -0.140547 -0.0196646
0.0521152 -0.140748 -0.0197073
0.0522279 -0.140951 -0.0197123
0.0523477 -0.141156 -0.0196911
0.0524753 -0.141362 -0.0196409
0.0526099 -0.14157 -0.0195646
0.0527521 -0.14178 -0.019461
0.0528908 -0.14199 -0.0193714
0.0530224 -0.142198 -0.0193082
0.0531496 -0.142405 -0.0192619
0.0532698 -0.142611 -0.0192419
0.0533867 -0.142815 -0.0192339
0.0535041 -0.143021 -0.0192244
0.0536219 -0.143226 -0.0192139
0.0537394 -0.143431 -0.0192043
0.0538601 -0.143637 -0.0191834
0.0539849 -0.143845 -0.0191479
0.0541174 -0.144055 -0.019085
0.0542543 -0.144266 -0.019007
0.0543947 -0.144479 -0.0189174
0.0545353 -0.144691 -0.0188274
0.0546759 -0.144905 -0.0187381
0.0548168 -0.145118 -0.0186483
0.0549616 -0.145333 -0.0185455
0.0551001 -0.145547 -0.0184658
0.0552194 -0.145754 -0.0184536
0.0553363 -0.145961 -0.0184501
0.0554521 -0.146167 -0.0184505
0.0555632 -0.146372 -0.0184675
0.055687 -0.146581 -0.0184405
0.0558397 -0.1468 -0.0183138
0.0560236 -0.147031 -0.0180809
0.0562234 -0.147267 -0.0177948
0.0564568 -0.147517 -0.0173958
0.0567072 -0.147773 -0.0169409
0.0569548 -0.14803 -0.0164984
0.057168 -0.148275 -0.0161753
0.0573592 -0.148512 -0.0159291
0.057371 -0.148871 -0.0155484
0.0575199 -0.148739 -0.0157864
0.0484006 -0.126315 -0.00224526
0.0484251 -0.126563 -0.00273246
0.0484347 -0.126813 -0.00328634
0.0484621 -0.127058 -0.00375206
0.0484937 -0.1273 -0.00419425
0.0485521 -0.127536 -0.00450808
0.0486244 -0.127768 -0.00475445
0.0487169 -0.127996 -0.0049053
0.0488131 -0.128223 -0.00503756
0.048919 -0.128448 -0.00512457
0.0490223 -0.128674 -0.00522309
0.0491218 -0.128899 -0.00533828
0.0492306 -0.129123 -0.00541042
0.0493103 -0.129351 -0.00561424
0.0493887 -0.129578 -0.00582205
0.0494577 -0.129805 -0.00607142
0.0495296 -0.130032 -0.00630577
0.0495903 -0.130259 -0.00658867
0.0496859 -0.130482 -0.00671419
0.0496604 -0.130715 -0.00737583
0.0495397 -0.130953 -0.00845395
0.0490991 -0.131432 -0.0114602
0.0490473 -0.131655 -0.0122102
0.0490667 -0.131873 -0.0126447
0.049116 -0.132087 -0.0129464
0.0491515 -0.132301 -0.0133059
0.049178 -0.132515 -0.0137017
0.0492181 -0.132727 -0.014036
0.0492593 -0.132938 -0.0143633
0.0493219 -0.133148 -0.0145977
0.0493784 -0.133357 -0.0148559
0.0494439 -0.133566 -0.0150746
0.0495069 -0.133773 -0.0153023
0.0495815 -0.133981 -0.0154798
0.0496571 -0.134188 -0.0156523
0.0497391 -0.134395 -0.0157964
0.0498062 -0.1346 -0.016002
0.049868 -0.134805 -0.0162281
0.0499239 -0.13501 -0.0164768
0.0499836 -0.135213 -0.0167086
0.0500421 -0.135416 -0.0169437
0.0501204 -0.13562 -0.0170964
0.0502048 -0.135824 -0.0172238
0.0502947 -0.136027 -0.0173274
0.0503856 -0.136231 -0.0174268
0.0504834 -0.136435 -0.0174979
0.050572 -0.136638 -0.0176055
0.0506622 -0.136841 -0.0177059
0.0507384 -0.137042 -0.0178619
0.0508111 -0.137242 -0.0180306
0.050874 -0.137441 -0.018237
0.0509431 -0.13764 -0.0184178
0.0510116 -0.137838 -0.0185999
0.051087 -0.138037 -0.0187537
0.0511629 -0.138236 -0.0189049
0.0512455 -0.138435 -0.0190291
0.0513341 -0.138635 -0.0191291
0.0514196 -0.138834 -0.0192406
0.0515118 -0.139034 -0.0193259
0.0516041 -0.139234 -0.0194101
0.0516934 -0.139433 -0.0195053
0.0517821 -0.139632 -0.0196024
0.05187 -0.13983 -0.0197023
0.0519581 -0.140028 -0.0198008
0.0520499 -0.140227 -0.0198845
0.0521516 -0.140427 -0.0199304
0.0522541 -0.140628 -0.0199735
0.0523666 -0.140831 -0.0199789
0.052486 -0.141035 -0.0199584
0.0526129 -0.14124 -0.0199108
0.0527474 -0.141448 -0.0198349
0.0528894 -0.141658 -0.0197323
0.0530286 -0.141867 -0.0196405
0.0531607 -0.142075 -0.0195756
0.0532914 -0.142283 -0.0195162
0.0534152 -0.142489 -0.0194826
0.053536 -0.142694 -0.0194602
0.0536569 -0.1429 -0.0194376
0.0537775 -0.143106 -0.0194164
0.0538981 -0.143312 -0.0193955
0.0540226 -0.143519 -0.0193606
0.0541549 -0.143728 -0.0192982
0.0542915 -0.143939 -0.0192212
0.0544317 -0.144151 -0.0191315
0.0545757 -0.144364 -0.0190295
0.0547196 -0.144578 -0.0189283
0.0548606 -0.144791 -0.0188381
0.0550056 -0.145006 -0.0187347
0.0551503 -0.145221 -0.0186327
0.0552848 -0.145433 -0.0185673
0.0554043 -0.14564 -0.0185546
0.0555178 -0.145846 -0.0185631
0.0556305 -0.146051 -0.0185744
0.0557413 -0.146256 -0.0185922
0.0558647 -0.146465 -0.0185667
0.0560064 -0.14668 -0.0184785
0.0561786 -0.146906 -0.0182864
0.0563657 -0.147137 -0.018045
0.0565903 -0.147383 -0.0176774
0.0568333 -0.147636 -0.0172495
0.0570818 -0.147892 -0.0168062
0.0572999 -0.148138 -0.0164677
0.0574988 -0.148378 -0.016196
0.0576611 -0.148604 -0.0160488
0.0483688 -0.126067 -0.00178963
0.0484934 -0.125708 -0.00169295
0.0485716 -0.125946 -0.00192714
0.0486319 -0.126188 -0.0022446
0.048677 -0.126432 -0.00263094
0.0486936 -0.126681 -0.00314884
0.0487202 -0.126927 -0.00361608
0.0487463 -0.127171 -0.0040821
0.0488005 -0.127408 -0.00441374
0.0488694 -0.127641 -0.00467498
0.0489588 -0.12787 -0.00483966
0.0490521 -0.128098 -0.00498513
0.0491551 -0.128324 -0.00508537
0.0492549 -0.12855 -0.00519961
0.0493507 -0.128776 -0.00533127
0.0494591 -0.129 -0.00540542
0.0495353 -0.129228 -0.00562364
0.0496127 -0.129456 -0.00583557
0.0496778 -0.129684 -0.00610057
0.0497457 -0.129911 -0.00635147
0.0498072 -0.130138 -0.00662925
0.0498569 -0.130366 -0.00695692
0.0497529 -0.130606 -0.00795969
0.0492843 -0.131197 -0.010117
0.0492966 -0.131095 -0.0110298
0.0491879 -0.131324 -0.0120275
0.0492053 -0.131543 -0.0124699
0.0492727 -0.131757 -0.0126936
0.0493135 -0.131973 -0.01303
0.049348 -0.132187 -0.0133917
0.0493734 -0.132401 -0.0137891
0.04941 -0.132613 -0.0141363
0.0494475 -0.132825 -0.0144776
0.0495088 -0.133035 -0.0147157
0.0495614 -0.133244 -0.0149889
0.0496209 -0.133453 -0.0152312
0.0496832 -0.13366 -0.0154599
0.0497579 -0.133868 -0.0156357
0.0498302 -0.134075 -0.0158203
0.0499125 -0.134282 -0.0159625
0.0499821 -0.134487 -0.0161559
0.0500436 -0.134693 -0.0163817
0.0500994 -0.134897 -0.0166292
0.0501616 -0.135101 -0.0168491
0.0502202 -0.135304 -0.017082
0.0502983 -0.135507 -0.0172347
0.0503852 -0.135711 -0.0173505
0.0504786 -0.135915 -0.0174396
0.05057 -0.136119 -0.0175363
0.0506679 -0.136323 -0.0176065
0.0507562 -0.136526 -0.0177148
0.0508427 -0.136728 -0.0178295
0.0509186 -0.136929 -0.0179853
0.0509911 -0.13713 -0.0181537
0.0510571 -0.137329 -0.0183468
0.0511258 -0.137528 -0.0185279
0.0511908 -0.137726 -0.0187226
0.0512621 -0.137925 -0.0188911
0.0513378 -0.138123 -0.0190423
0.0514141 -0.138322 -0.0191896
0.0514996 -0.138521 -0.0193012
0.0515845 -0.13872 -0.0194141
0.0516728 -0.138919 -0.0195131
0.0517588 -0.139118 -0.019621
0.0518474 -0.139317 -0.019718
0.0519351 -0.139515 -0.019818
0.0520228 -0.139714 -0.0199172
0.0521108 -0.139912 -0.020015
0.0522054 -0.140111 -0.0200877
0.0523072 -0.140311 -0.0201328
0.0524096 -0.140511 -0.0201755
0.0525218 -0.140714 -0.0201817
0.0526377 -0.140917 -0.0201741
0.0527608 -0.141122 -0.02014
0.052892 -0.141328 -0.0200767
0.0530303 -0.141537 -0.0199875
0.0531661 -0.141745 -0.0199082
0.0532976 -0.141952 -0.0198453
0.0534284 -0.142159 -0.0197856
0.0535525 -0.142365 -0.0197506
0.0536772 -0.142572 -0.0197137
0.0538017 -0.142778 -0.0196776
0.0539257 -0.142985 -0.0196439
0.0540495 -0.143191 -0.0196113
0.0541773 -0.143399 -0.0195647
0.0543098 -0.143608 -0.0195018
0.0544469 -0.143818 -0.0194228
0.0545908 -0.144031 -0.0193206
0.0547381 -0.144245 -0.019207
0.054886 -0.14446 -0.0190922
0.055031 -0.144674 -0.0189883
0.0551792 -0.144889 -0.0188738
0.0553244 -0.145104 -0.0187708
0.0554587 -0.145316 -0.0187062
0.055578 -0.145523 -0.0186943
0.0556915 -0.145728 -0.0187025
0.0558048 -0.145934 -0.0187116
0.0559155 -0.146138 -0.0187294
0.0560385 -0.146347 -0.0187051
0.0561765 -0.146561 -0.0186301
0.0563416 -0.146784 -0.0184633
0.0565207 -0.147012 -0.01825
0.0567334 -0.147253 -0.0179244
0.0569644 -0.147501 -0.0175392
0.0572082 -0.147754 -0.0171134
0.0574299 -0.148001 -0.0167638
0.0576338 -0.148242 -0.0164763
0.0578078 -0.148472 -0.0162902
0.0577944 -0.148821 -0.015999
0.0579533 -0.148693 -0.0162001
0.0486924 -0.125589 -0.00184955
0.0487853 -0.125824 -0.00201249
0.0488602 -0.126062 -0.00225868
0.0489147 -0.126304 -0.002599
0.0489371 -0.126553 -0.00308656
0.0489616 -0.126799 -0.00356076
0.0489874 -0.127043 -0.00402517
0.0490375 -0.127281 -0.00437413
0.049106 -0.127515 -0.00463588
0.0491919 -0.127745 -0.00481608
0.0492851 -0.127973 -0.00496165
0.049388 -0.128199 -0.00506249
0.0494842 -0.128426 -0.00519273
0.0495767 -0.128653 -0.00533883
0.049681 -0.128878 -0.00543087
0.0497565 -0.129106 -0.00565134
0.0498301 -0.129335 -0.00587889
0.0498947 -0.129563 -0.00614486
0.0499588 -0.129791 -0.00641105
0.050025 -0.130018 -0.00666598
0.0500164 -0.130251 -0.00724804
0.0493818 -0.131209 -0.012133
0.0494079 -0.131428 -0.012535
0.0494688 -0.131643 -0.0127852
0.0495047 -0.131858 -0.0131404
0.0495383 -0.132073 -0.0135034
0.0495629 -0.132287 -0.0139019
0.049596 -0.1325 -0.0142615
0.0496328 -0.132711 -0.0146034
0.0496905 -0.132922 -0.0148548
0.049742 -0.133131 -0.0151307
0.049798 -0.13334 -0.0153861
0.04986 -0.133548 -0.0156145
0.0499348 -0.133755 -0.0157887
0.0500097 -0.133962 -0.0159609
0.0500918 -0.134169 -0.0161029
0.0501611 -0.134375 -0.016296
0.050225 -0.13458 -0.0165105
0.0502841 -0.134784 -0.0167428
0.0503497 -0.134989 -0.0169476
0.0504085 -0.135192 -0.0171786
0.0504861 -0.135396 -0.0173319
0.0505727 -0.135599 -0.0174485
0.0506661 -0.135803 -0.0175372
0.0507545 -0.136007 -0.0176451
0.0508521 -0.136211 -0.017716
0.0509393 -0.136414 -0.0178277
0.0510216 -0.136616 -0.017958
0.0510976 -0.136817 -0.0181129
0.0511699 -0.137018 -0.018281
0.0512364 -0.137217 -0.0184708
0.0513045 -0.137416 -0.0186529
0.0513664 -0.137614 -0.0188585
0.051434 -0.137812 -0.0190404
0.0515061 -0.13801 -0.019204
0.0515787 -0.138208 -0.0193647
0.0516604 -0.138407 -0.0194895
0.0517482 -0.138606 -0.0195906
0.0518335 -0.138805 -0.0197004
0.0519188 -0.139003 -0.0198099
0.0520068 -0.139202 -0.019908
0.0520943 -0.1394 -0.0200082
0.0521817 -0.139598 -0.0201078
0.0522731 -0.139797 -0.0201921
0.0523716 -0.139997 -0.0202493
0.0524769 -0.140198 -0.0202809
0.0525824 -0.140399 -0.0203115
0.0526914 -0.1406 -0.0203294
0.0528038 -0.140802 -0.0203347
0.0529201 -0.141005 -0.0203259
0.0530437 -0.14121 -0.0202902
0.053175 -0.141417 -0.0202269
0.0533097 -0.141624 -0.0201518
0.0534408 -0.141831 -0.0200901
0.0535748 -0.142039 -0.0200187
0.0537023 -0.142246 -0.0199712
0.0538272 -0.142452 -0.0199334
0.0539485 -0.142657 -0.0199088
0.0540692 -0.142862 -0.0198866
0.0541929 -0.143068 -0.0198541
0.0543209 -0.143276 -0.0198067
0.0544571 -0.143486 -0.0197305
0.0545974 -0.143697 -0.0196402
0.0547484 -0.143911 -0.0195132
0.0548965 -0.144125 -0.0193971
0.0550448 -0.144339 -0.0192812
0.0551937 -0.144554 -0.0191641
0.0553425 -0.144769 -0.019048
0.0554846 -0.144983 -0.0189563
0.0556186 -0.145194 -0.0188928
0.0557409 -0.145402 -0.0188704
0.0558547 -0.145608 -0.0188772
0.0559716 -0.145814 -0.0188736
0.0560861 -0.14602 -0.0188781
0.0562128 -0.14623 -0.0188414
0.0563511 -0.146443 -0.0187657
0.0565091 -0.146664 -0.0186238
0.0566804 -0.146889 -0.0184377
0.0568807 -0.147125 -0.0181554
0.057099 -0.147367 -0.0178145
0.0573346 -0.147617 -0.0174176
0.0575592 -0.147864 -0.0170602
0.0577672 -0.148106 -0.0167597
0.0579535 -0.14834 -0.0165332
0.058112 -0.148566 -0.0164002
0.0489815 -0.125705 -0.00217968
0.049065 -0.125941 -0.00238396
0.0491228 -0.126183 -0.00270603
0.0491594 -0.126428 -0.00312432
0.0491943 -0.126673 -0.00354764
0.0492259 -0.126916 -0.00398255
0.0492758 -0.127155 -0.00433057
0.0493435 -0.127389 -0.00459471
0.0494258 -0.12762 -0.00479073
0.0495182 -0.127848 -0.00493953
0.0496171 -0.128075 -0.00505777
0.0497096 -0.128303 -0.00520431
0.0498014 -0.12853 -0.00535285
0.0499023 -0.128756 -0.00545995
0.0499743 -0.128985 -0.00569479
0.0500442 -0.129214 -0.00593749
0.0501083 -0.129442 -0.00620395
0.050169 -0.129671 -0.00648356
0.0501934 -0.129902 -0.00692002
0.0501159 -0.130143 -0.00779815
0.0494953 -0.130879 -0.0120698
0.0495297 -0.131098 -0.0124356
0.0496012 -0.131313 -0.0126402
0.0496584 -0.131529 -0.0129045
0.0496942 -0.131744 -0.0132577
0.0497246 -0.13196 -0.0136315
0.0497518 -0.132174 -0.0140163
0.0497847 -0.132386 -0.0143748
0.0498211 -0.132598 -0.0147156
0.0498753 -0.132809 -0.0149801
0.0499264 -0.133018 -0.015256
0.0499785 -0.133227 -0.0155254
0.0500401 -0.133435 -0.015754
0.0501174 -0.133642 -0.0159167
0.0501926 -0.13385 -0.0160866
0.0502744 -0.134056 -0.0162289
0.0503462 -0.134262 -0.0164108
0.0504133 -0.134468 -0.0166106
0.0504729 -0.134672 -0.0168397
0.0505419 -0.134877 -0.017029
0.0506036 -0.13508 -0.017247
0.050681 -0.135284 -0.0174008
0.0507672 -0.135488 -0.0175182
0.0508604 -0.135692 -0.0176069
0.0509484 -0.135896 -0.017716
0.0510425 -0.136099 -0.0178006
0.0511284 -0.136302 -0.0179166
0.0512073 -0.136504 -0.0180598
0.0512826 -0.136705 -0.0182161
0.0513523 -0.136906 -0.0183933
0.0514186 -0.137105 -0.0185826
0.0514836 -0.137304 -0.0187759
0.0515448 -0.137502 -0.0189826
0.0516088 -0.1377 -0.0191773
0.0516768 -0.137897 -0.0193554
0.0517486 -0.138095 -0.019518
0.0518269 -0.138293 -0.0196551
0.0519112 -0.138492 -0.0197686
0.0519931 -0.13869 -0.0198905
0.0520783 -0.138889 -0.019999
0.0521663 -0.139087 -0.0200969
0.0522567 -0.139286 -0.0201849
0.052348 -0.139485 -0.0202689
0.0524434 -0.139684 -0.0203379
0.0525455 -0.139884 -0.0203813
0.052651 -0.140085 -0.0204117
0.0527568 -0.140286 -0.0204412
0.0528658 -0.140487 -0.0204591
0.0529778 -0.14069 -0.0204654
0.0530936 -0.140892 -0.0204583
0.0532132 -0.141096 -0.0204376
0.0533366 -0.141301 -0.0204029
0.0534638 -0.141506 -0.0203552
0.0535883 -0.141712 -0.0203176
0.0537156 -0.141918 -0.0202702
0.0538396 -0.142123 -0.0202349
0.0539637 -0.142329 -0.0201997
0.0540878 -0.142534 -0.0201647
0.0542122 -0.14274 -0.0201292
0.0543364 -0.142946 -0.0200944
0.0544643 -0.143153 -0.0200472
0.0546033 -0.143364 -0.0199614
0.0547436 -0.143574 -0.0198714
0.0548954 -0.143789 -0.0197419
0.0550508 -0.144004 -0.0196006
0.0552036 -0.144219 -0.0194695
0.0553527 -0.144434 -0.019352
0.0555048 -0.14465 -0.0192247
0.0556465 -0.144863 -0.0191344
0.0557776 -0.145073 -0.0190814
0.0558997 -0.145281 -0.0190593
0.0560131 -0.145486 -0.019067
0.0561263 -0.145691 -0.0190756
0.0562416 -0.145897 -0.0190776
0.056372 -0.146108 -0.0190279
0.0565145 -0.146322 -0.0189382
0.0566725 -0.146542 -0.0187968
0.0568397 -0.146766 -0.0186255
0.0570348 -0.146999 -0.0183618
0.0572406 -0.147237 -0.0180642
0.0574672 -0.147483 -0.0176989
0.0576882 -0.147728 -0.0173549
0.0579006 -0.14797 -0.0170411
0.0580964 -0.148208 -0.0167838
0.0582678 -0.148437 -0.0166086
0.0582461 -0.148782 -0.0163484
0.0584152 -0.148658 -0.0165133
0.0490817 -0.125352 -0.00220022
0.049185 -0.125584 -0.00231141
0.0492731 -0.12582 -0.00249285
0.0493408 -0.126059 -0.00276739
0.0493844 -0.126303 -0.0031506
0.0494263 -0.126546 -0.00353899
0.0494643 -0.126789 -0.00394193
0.0495136 -0.127028 -0.00429104
0.0495807 -0.127263 -0.00455647
0.049656 -0.127495 -0.00478339
0.0497442 -0.127725 -0.00495049
0.0498389 -0.127952 -0.0050869
0.0499309 -0.12818 -0.00523509
0.0500195 -0.128408 -0.00539742
0.0501202 -0.128634 -0.00550448
0.0501949 -0.128863 -0.00572615
0.0502614 -0.129092 -0.00598259
0.0503255 -0.129321 -0.00624721
0.0503925 -0.129549 -0.00649761
0.0503708 -0.129786 -0.00713238
0.0502308 -0.130033 -0.00827534
0.0497033 -0.130638 -0.0106514
0.0498064 -0.13053 -0.0111574
0.0496519 -0.130767 -0.0123354
0.0497266 -0.130983 -0.0125261
0.0497868 -0.131199 -0.0127776
0.0498374 -0.131415 -0.0130676
0.0498764 -0.131631 -0.0134052
0.0499094 -0.131846 -0.0137654
0.049937 -0.13206 -0.0141459
0.0499694 -0.132273 -0.014504
0.0500089 -0.132485 -0.0148298
0.0500598 -0.132696 -0.0151061
0.0501137 -0.132905 -0.0153684
0.050165 -0.133114 -0.0156394
0.0502295 -0.133322 -0.0158548
0.0503067 -0.13353 -0.0160165
0.0503821 -0.133737 -0.0161849
0.0504606 -0.133944 -0.0163394
0.050535 -0.13415 -0.0165096
0.0506052 -0.134356 -0.0166957
0.0506684 -0.134561 -0.0169088
0.0507415 -0.134765 -0.0170809
0.0508089 -0.134969 -0.017275
0.0508859 -0.135173 -0.0174295
0.0509685 -0.135377 -0.0175607
0.0510584 -0.135581 -0.0176622
0.0511429 -0.135784 -0.0177847
0.0512302 -0.135988 -0.0178953
0.0513126 -0.13619 -0.0180244
0.051388 -0.136392 -0.0181803
0.05146 -0.136593 -0.0183485
0.0515264 -0.136793 -0.0185373
0.0515918 -0.136993 -0.0187286
0.0516563 -0.137191 -0.0189228
0.0517166 -0.137389 -0.0191313
0.0517775 -0.137587 -0.0193365
0.0518418 -0.137784 -0.0195279
0.0519095 -0.137981 -0.0197047
0.0519834 -0.138179 -0.0198575
0.0520646 -0.138377 -0.0199813
0.0521464 -0.138575 -0.0201025
0.0522378 -0.138774 -0.0201871
0.0523289 -0.138973 -0.0202722
0.0524235 -0.139173 -0.0203438
0.0525218 -0.139373 -0.0204014
0.052624 -0.139573 -0.0204443
0.0527298 -0.139774 -0.0204738
0.0528388 -0.139975 -0.0204917
0.0529477 -0.140177 -0.0205096
0.0530566 -0.140378 -0.0205275
0.0531655 -0.14058 -0.0205454
0.0532776 -0.140782 -0.0205518
0.05339 -0.140984 -0.0205572
0.053506 -0.141187 -0.0205496
0.0536259 -0.141391 -0.0205282
0.0537463 -0.141595 -0.0205054
0.0538671 -0.141799 -0.0204812
0.0539873 -0.142003 -0.0204593
0.0541072 -0.142208 -0.0204389
0.0542273 -0.142412 -0.0204178
0.0543512 -0.142618 -0.0203839
0.0544791 -0.142824 -0.0203361
0.0546073 -0.143031 -0.0202875
0.0547498 -0.143242 -0.0201891
0.0548934 -0.143453 -0.0200877
0.0550455 -0.143667 -0.0199575
0.0552017 -0.143883 -0.0198141
0.0553615 -0.144099 -0.0196592
0.0555103 -0.144314 -0.0195427
0.0556625 -0.144529 -0.0194162
0.0558042 -0.144742 -0.0193259
0.0559347 -0.144952 -0.0192748
0.0560531 -0.145158 -0.0192652
0.0561664 -0.145363 -0.0192734
0.0562832 -0.145569 -0.0192693
0.056402 -0.145776 -0.019259
0.056537 -0.145988 -0.0191942
0.0566837 -0.146203 -0.0190904
0.0568416 -0.146423 -0.0189499
0.0570013 -0.146644 -0.0188044
0.0571878 -0.146874 -0.0185706
0.0573815 -0.147107 -0.0183145
0.0575963 -0.147348 -0.0179899
0.0578134 -0.147591 -0.0176596
0.0580343 -0.147836 -0.0173189
0.0582436 -0.148077 -0.0170185
0.0584361 -0.148314 -0.0167747
0.0586045 -0.148542 -0.0166109
0.0492787 -0.125234 -0.00236263
0.0493851 -0.125465 -0.00245849
0.0494775 -0.125699 -0.00261882
0.0495539 -0.125937 -0.00285119
0.0496056 -0.126179 -0.00319467
0.0496537 -0.126421 -0.00355205
0.0496949 -0.126663 -0.00393831
0.0497438 -0.126903 -0.0042871
0.0498109 -0.127138 -0.00455133
0.049882 -0.127371 -0.00479558
0.0499664 -0.127601 -0.00497909
0.0500571 -0.12783 -0.00513302
0.0501489 -0.128058 -0.00528117
0.0502344 -0.128287 -0.00545616
0.0503353 -0.128512 -0.00556226
0.0504128 -0.128741 -0.00576998
0.0504789 -0.128971 -0.00602678
0.0505425 -0.1292 -0.0062922
0.0506146 -0.129428 -0.00651888
0.050539 -0.129671 -0.00738248
0.0503535 -0.129924 -0.00871283
0.0501401 -0.130175 -0.0101536
0.0499315 -0.130421 -0.0115631
0.0498488 -0.130652 -0.0124269
0.0499127 -0.130869 -0.0126622
0.0499631 -0.131086 -0.0129533
0.0500098 -0.131302 -0.0132579
0.0500549 -0.131518 -0.0135671
0.0500915 -0.131733 -0.0139098
0.0501221 -0.131947 -0.0142752
0.0501539 -0.13216 -0.0146332
0.0501929 -0.132372 -0.0149588
0.0502403 -0.132583 -0.0152479
0.0502972 -0.132793 -0.0154961
0.0503486 -0.133002 -0.0157648
0.0504163 -0.13321 -0.0159658
0.0504966 -0.133417 -0.0161139
0.050572 -0.133625 -0.0162808
0.0506503 -0.133831 -0.0164353
0.0507275 -0.134038 -0.0165934
0.0508008 -0.134244 -0.016766
0.0508676 -0.134449 -0.0169635
0.0509441 -0.134654 -0.0171211
0.0510146 -0.134858 -0.0173019
0.0510913 -0.135062 -0.0174565
0.0511707 -0.135266 -0.0176001
0.0512536 -0.13547 -0.0177287
0.0513343 -0.135673 -0.0178655
0.0514178 -0.135876 -0.0179903
0.0514974 -0.136079 -0.0181297
0.0515693 -0.13628 -0.0182981
0.051641 -0.136481 -0.0184663
0.0517061 -0.136681 -0.0186588
0.0517677 -0.13688 -0.0188639
0.0518313 -0.137079 -0.0190596
0.0518914 -0.137277 -0.0192679
0.0519491 -0.137474 -0.0194841
0.0520095 -0.137671 -0.0196884
0.0520735 -0.137868 -0.0198785
0.0521403 -0.138065 -0.0200566
0.0522207 -0.138263 -0.0201825
0.0523053 -0.138461 -0.0202922
0.0524005 -0.138661 -0.0203616
0.052499 -0.138861 -0.0204187
0.0526038 -0.139062 -0.0204519
0.052706 -0.139262 -0.0204949
0.0528118 -0.139463 -0.0205243
0.0529207 -0.139665 -0.0205422
0.0530296 -0.139866 -0.0205602
0.0531385 -0.140067 -0.0205781
0.0532475 -0.140269 -0.020596
0.0533564 -0.14047 -0.0206139
0.0534653 -0.140672 -0.0206318
0.0535742 -0.140873 -0.0206497
0.0536864 -0.141075 -0.020656
0.0538023 -0.141278 -0.0206489
0.0539188 -0.141481 -0.02064
0.0540354 -0.141685 -0.0206308
0.0541516 -0.141888 -0.0206233
0.0542674 -0.142091 -0.020617
0.0543837 -0.142294 -0.0206095
0.0545041 -0.142499 -0.0205874
0.0546324 -0.142705 -0.0205381
0.0547608 -0.142912 -0.0204889
0.0549033 -0.143122 -0.0203911
0.055047 -0.143333 -0.0202894
0.0552026 -0.143548 -0.0201477
0.0553592 -0.143763 -0.0200031
0.0555223 -0.14398 -0.0198374
0.0556716 -0.144194 -0.0197199
0.0558234 -0.14441 -0.0195947
0.0559611 -0.144621 -0.0195186
0.0560915 -0.144831 -0.0194681
0.0562062 -0.145036 -0.0194708
0.0563191 -0.14524 -0.0194797
0.0564357 -0.145446 -0.0194764
0.0565579 -0.145654 -0.0194541
0.0566935 -0.145865 -0.0193872
0.0568442 -0.146082 -0.0192706
0.0570067 -0.146303 -0.0191153
0.0571696 -0.146524 -0.0189597
0.0573529 -0.146753 -0.0187378
0.0575456 -0.146985 -0.0184861
0.0577529 -0.147223 -0.0181878
0.0579655 -0.147464 -0.0178736
0.0581831 -0.147707 -0.0175453
0.058401 -0.147951 -0.017218
0.0586079 -0.148192 -0.0169281
0.0587944 -0.148426 -0.0167069
0.0496283 -0.125335 -0.00240658
0.0497141 -0.125571 -0.00259627
0.0497748 -0.125812 -0.00289888
0.0498261 -0.126055 -0.0032425
0.0498775 -0.126297 -0.00358292
0.0499221 -0.126538 -0.00395156
0.0499741 -0.126778 -0.00428434
0.0500407 -0.127013 -0.00454923
0.0501079 -0.127247 -0.00480954
0.0501918 -0.127478 -0.00499424
0.0502822 -0.127707 -0.00514887
0.0503744 -0.127935 -0.00529447
0.05046 -0.128163 -0.00546831
0.0505577 -0.12839 -0.00558788
0.0506343 -0.128619 -0.00579894
0.0506966 -0.128849 -0.00607037
0.0507603 -0.129079 -0.00633397
0.0507859 -0.129312 -0.00675964
0.0506524 -0.129563 -0.0078655
0.0502565 -0.130067 -0.0106028
0.0500604 -0.130312 -0.011949
0.0500367 -0.130538 -0.0125564
0.0500964 -0.130755 -0.0128079
0.0501454 -0.130972 -0.0131026
0.0501923 -0.131189 -0.0134039
0.0502405 -0.131404 -0.0136982
0.0502775 -0.131619 -0.014037
0.0503077 -0.131834 -0.0144015
0.0503386 -0.132047 -0.0147607
0.0503762 -0.132259 -0.0150903
0.05042 -0.13247 -0.015392
0.0504801 -0.13268 -0.0156252
0.0505351 -0.132889 -0.0158777
0.0506063 -0.133097 -0.0160629
0.05069 -0.133305 -0.0161968
0.0507683 -0.133512 -0.0163512
0.0508464 -0.133719 -0.0165056
0.0509233 -0.133926 -0.0166637
0.0509995 -0.134132 -0.0168239
0.0510666 -0.134337 -0.0170192
0.0511432 -0.134542 -0.0171754
0.051217 -0.134747 -0.0173419
0.0512933 -0.134951 -0.0174977
0.0513694 -0.135155 -0.0176534
0.0514484 -0.135359 -0.017797
0.051528 -0.135562 -0.0179368
0.0516077 -0.135765 -0.0180758
0.0516869 -0.135967 -0.0182161
0.051759 -0.136169 -0.0183828
0.05183 -0.13637 -0.0185527
0.0518913 -0.13657 -0.0187587
0.0519487 -0.136769 -0.0189785
0.0520086 -0.136967 -0.0191871
0.0520691 -0.137166 -0.0193928
0.0521265 -0.137363 -0.0196085
0.0521839 -0.137559 -0.019823
0.0522434 -0.137756 -0.0200286
0.0523059 -0.137952 -0.0202216
0.0523793 -0.138149 -0.0203725
0.0524612 -0.138347 -0.0204912
0.0525601 -0.138547 -0.0205463
0.0526657 -0.138748 -0.0205767
0.0527779 -0.13895 -0.0205823
0.0528871 -0.139151 -0.020599
0.0529995 -0.139353 -0.0206044
0.0531116 -0.139555 -0.0206107
0.0532205 -0.139757 -0.0206286
0.0533294 -0.139958 -0.0206465
0.0534383 -0.14016 -0.0206644
0.0535473 -0.140361 -0.0206823
0.0536562 -0.140563 -0.0207002
0.0537651 -0.140764 -0.0207181
0.053874 -0.140965 -0.020736
0.0539862 -0.141168 -0.0207424
0.0540987 -0.14137 -0.0207478
0.0542113 -0.141572 -0.0207527
0.054327 -0.141775 -0.0207466
0.0544396 -0.141977 -0.0207519
0.0545522 -0.14218 -0.020757
0.0546721 -0.142384 -0.0207369
0.0547998 -0.14259 -0.02069
0.0549255 -0.142796 -0.0206499
0.0550684 -0.143006 -0.020551
0.055212 -0.143217 -0.0204505
0.0553637 -0.14343 -0.0203224
0.0555164 -0.143644 -0.0201922
0.0556766 -0.14386 -0.0200369
0.0558293 -0.144075 -0.0199081
0.0559819 -0.14429 -0.0197809
0.0561194 -0.144501 -0.0197056
0.056249 -0.14471 -0.0196577
0.0563665 -0.144916 -0.0196508
0.0564761 -0.145119 -0.0196702
0.056593 -0.145325 -0.0196656
0.0567188 -0.145533 -0.0196314
0.0568544 -0.145745 -0.0195647
0.0570054 -0.145961 -0.0194477
0.0571721 -0.146183 -0.0192788
0.0573395 -0.146406 -0.019109
0.0575237 -0.146634 -0.018885
0.0577204 -0.146867 -0.0186213
0.0579233 -0.147103 -0.0183387
0.0581313 -0.147342 -0.0180417
0.0583479 -0.147584 -0.0177179
0.0585663 -0.147827 -0.0173906
0.058783 -0.148071 -0.0170705
0.0589839 -0.148311 -0.0168035
0.0499463 -0.125444 -0.00259559
0.0500001 -0.125687 -0.00292778
0.0500472 -0.125931 -0.00328788
0.0501021 -0.126172 -0.00361041
0.0501532 -0.126413 -0.00394779
0.0502085 -0.126651 -0.00426394
0.0502748 -0.126887 -0.00452887
0.0503416 -0.127122 -0.00479001
0.050425 -0.127353 -0.00497586
0.0505124 -0.127582 -0.00514334
0.0506046 -0.127811 -0.00528857
0.0506867 -0.12804 -0.00547664
0.0507804 -0.128267 -0.00561326
0.0508561 -0.128497 -0.00582686
0.050921 -0.128727 -0.00608544
0.0509917 -0.128956 -0.00631788
0.0509682 -0.129196 -0.00695135
0.0507848 -0.129453 -0.00826211
0.0503828 -0.129958 -0.011005
0.0501892 -0.130204 -0.0123309
0.0502193 -0.130425 -0.0127069
0.0502762 -0.130642 -0.0129685
0.0503255 -0.130859 -0.0132596
0.0503758 -0.131075 -0.013545
0.0504269 -0.131291 -0.0138253
0.0504669 -0.131506 -0.0141493
0.0504968 -0.13172 -0.0145127
0.050527 -0.131934 -0.0148727
0.0505632 -0.132146 -0.0152055
0.0506061 -0.132358 -0.015509
0.0506659 -0.132567 -0.0157419
0.0507248 -0.132777 -0.0159773
0.0507995 -0.132985 -0.0161472
0.0508864 -0.133193 -0.0162672
0.0509645 -0.1334 -0.0164216
0.0510424 -0.133607 -0.0165759
0.0511191 -0.133814 -0.0167339
0.0511951 -0.13402 -0.016894
0.051265 -0.134225 -0.0170772
0.0513417 -0.134431 -0.0172323
0.0514185 -0.134635 -0.0173862
0.0514948 -0.13484 -0.0175414
0.0515705 -0.135044 -0.0176977
0.0516426 -0.135247 -0.017867
0.0517212 -0.135451 -0.0180103
0.051797 -0.135653 -0.0181638
0.0518761 -0.135856 -0.0183033
0.0519483 -0.136058 -0.0184688
0.0520192 -0.136259 -0.0186383
0.0520765 -0.136459 -0.0188582
0.0521334 -0.136658 -0.0190784
0.0521901 -0.136856 -0.0192982
0.0522505 -0.137054 -0.0195027
0.0523078 -0.137252 -0.0197175
0.0523648 -0.137448 -0.0199323
0.0524171 -0.137644 -0.0201635
0.0524754 -0.13784 -0.0203709
0.0525416 -0.138036 -0.0205478
0.0526228 -0.138234 -0.020668
0.0527222 -0.138434 -0.0207206
0.0528318 -0.138635 -0.0207359
0.052951 -0.138838 -0.0207155
0.0530673 -0.13904 -0.0207064
0.0531834 -0.139243 -0.0206978
0.0532992 -0.139445 -0.0206907
0.0534113 -0.139647 -0.020697
0.0535203 -0.139849 -0.0207149
0.0536292 -0.14005 -0.0207328
0.0537381 -0.140252 -0.0207507
0.053847 -0.140453 -0.0207686
0.053956 -0.140655 -0.0207865
0.0540649 -0.140856 -0.0208045
0.0541738 -0.141058 -0.0208224
0.0542827 -0.141259 -0.0208403
0.0543917 -0.141461 -0.0208582
0.0545041 -0.141663 -0.0208636
0.0546135 -0.141864 -0.0208801
0.054726 -0.142067 -0.0208857
0.0548454 -0.142271 -0.020867
0.0549728 -0.142476 -0.0208212
0.0550981 -0.142682 -0.0207829
0.0552379 -0.142891 -0.020695
0.0553776 -0.143101 -0.0206082
0.0555251 -0.143313 -0.0204951
0.055677 -0.143526 -0.0203679
0.0558375 -0.143742 -0.0202123
0.0559946 -0.143957 -0.0200696
0.0561513 -0.144173 -0.0199287
0.0562925 -0.144385 -0.0198413
0.0564219 -0.144594 -0.0197939
0.0565395 -0.144799 -0.0197866
