ply
format ascii 1.0
element vertex 1769
property float x
property float y
property float z
end_header
0.121999 0.131508 0.766523
0.123481 0.131783 0.767049
0.124911 0.132012 0.767203
0.126383 0.132276 0.767638
0.127839 0.132526 0.76795
0.129336 0.132807 0.768517
0.130929 0.133165 0.769692
0.132524 0.133522 0.770851
0.134112 0.13387 0.771937
0.135733 0.134242 0.773209
0.137344 0.134602 0.77438
0.138856 0.134882 0.774915
0.14045 0.135225 0.77594
0.142012 0.13554 0.776741
0.14354 0.135828 0.777325
0.145057 0.136105 0.777822
0.146585 0.13639 0.778373
0.148012 0.136599 0.778332
0.14942 0.136793 0.778172
0.150793 0.136962 0.777816
0.152151 0.137121 0.77738
0.153499 0.137273 0.776893
0.154863 0.137436 0.7765
0.15628 0.137638 0.7764
0.157727 0.137861 0.776466
0.159253 0.138138 0.776946
0.160792 0.138423 0.777483
0.162407 0.138758 0.778403
0.164008 0.139082 0.779234
0.165594 0.139394 0.77997
0.167152 0.139686 0.780548
0.168787 0.140027 0.781502
0.170467 0.140397 0.782662
0.172225 0.140815 0.784187
0.174023 0.141257 0.785886
0.175824 0.141697 0.787562
0.177611 0.142124 0.789137
0.0472188 0.125646 0.804182
0.0486474 0.125839 0.803978
0.0500732 0.126026 0.803724
0.0514937 0.126203 0.803379
0.052907 0.126366 0.802916
0.0543256 0.126542 0.802561
0.0557295 0.126691 0.801972
0.0571274 0.126832 0.80131
0.0585076 0.126943 0.800394
0.0598824 0.12705 0.799435
0.0612539 0.127155 0.798467
0.0626088 0.127236 0.797293
0.0639663 0.127327 0.796206
0.0653196 0.127415 0.795105
0.066664 0.127494 0.793925
0.0679986 0.127563 0.792661
0.069285 0.127564 0.790818
0.0703608 0.127264 0.786367
0.071221 0.124979 0.776953
0.0714231 0.126964 0.781931
0.0741911 0.125597 0.764732
0.0753352 0.125482 0.761976
0.0764825 0.125382 0.759355
0.0777641 0.125466 0.758311
0.0790329 0.125537 0.757161
0.080306 0.125617 0.756092
0.0816154 0.125745 0.755436
0.0830124 0.125981 0.755699
0.0844375 0.12625 0.75623
0.0859081 0.126569 0.757189
0.0874169 0.126929 0.758485
0.0889552 0.127318 0.760017
0.0904279 0.127627 0.760873
0.0918839 0.127915 0.761543
0.0933285 0.128187 0.762082
0.0947292 0.128409 0.762203
0.0960718 0.128568 0.761801
0.0974036 0.128717 0.761311
0.0987597 0.128892 0.761039
0.100138 0.12909 0.760961
0.101547 0.129319 0.761137
0.102985 0.129576 0.761541
0.104424 0.129833 0.76194
0.105844 0.130069 0.76217
0.107283 0.130323 0.76254
0.108689 0.130543 0.762637
0.110095 0.130763 0.762726
0.111516 0.130997 0.76293
0.11296 0.13125 0.763288
0.114443 0.131538 0.763927
0.115955 0.131851 0.764758
0.117513 0.132202 0.765893
0.119029 0.132512 0.766698
0.120542 0.132817 0.767462
0.12197 0.133046 0.767608
0.123408 0.133283 0.767819
0.124814 0.133492 0.767802
0.126267 0.13374 0.768094
0.127725 0.133991 0.768412
0.129232 0.134282 0.769042
0.130804 0.134624 0.770075
0.132384 0.134971 0.771138
0.133949 0.135302 0.772074
0.135545 0.135656 0.773185
0.137146 0.13601 0.774292
0.138694 0.136321 0.77505
0.140307 0.13668 0.776185
0.141898 0.137019 0.777161
0.143454 0.137329 0.777905
0.144983 0.137616 0.77847
0.146511 0.137902 0.779017
0.147938 0.13811 0.778962
0.149349 0.138305 0.778809
0.150711 0.138465 0.778383
0.152057 0.138613 0.777871
0.153391 0.138754 0.777303
0.154742 0.138907 0.77683
0.156132 0.13909 0.776582
0.157577 0.139311 0.776629
0.159088 0.139578 0.777028
0.160609 0.139852 0.777468
0.162221 0.140187 0.778376
0.163821 0.140511 0.779198
0.165409 0.140826 0.779944
0.166997 0.14114 0.780673
0.168665 0.141506 0.781796
0.170365 0.141891 0.783056
0.172174 0.142345 0.784828
0.173993 0.142803 0.786622
0.175818 0.143262 0.788411
0.178338 0.144171 0.793544
0.0484499 0.127314 0.804202
0.0498754 0.127499 0.803927
0.0512961 0.127674 0.803573
0.0527113 0.12784 0.803131
0.0541365 0.128027 0.802877
0.0555457 0.128184 0.802363
0.0569498 0.128333 0.801782
0.058337 0.128454 0.800957
0.0597146 0.128562 0.800017
0.0610772 0.128647 0.798892
0.0624262 0.128715 0.797614
0.0637727 0.128784 0.796356
0.0651209 0.128862 0.795171
0.0664608 0.128931 0.793921
0.067802 0.129007 0.792738
0.0691655 0.129122 0.79189
0.0703437 0.128964 0.788706
0.071508 0.128798 0.785476
0.0723289 0.12646 0.77576
0.0725366 0.12845 0.780714
0.0744919 0.127672 0.770543
0.0756263 0.127527 0.767551
0.0767707 0.127407 0.764781
0.0780516 0.127477 0.763621
0.0793343 0.127553 0.762518
0.0806103 0.127624 0.761378
0.0819284 0.127752 0.760714
0.0833272 0.127981 0.7609
0.0847422 0.128229 0.761238
0.0861964 0.128522 0.761949
0.0876828 0.12885 0.762947
0.089182 0.129188 0.76403
0.090607 0.129438 0.764369
0.0920099 0.12966 0.764486
0.0933959 0.129863 0.76444
0.0947529 0.130034 0.764129
0.0960561 0.130146 0.763342
0.097357 0.130258 0.762555
0.0987067 0.130424 0.762209
0.100087 0.130623 0.762128
0.101491 0.130845 0.762239
0.10293 0.131102 0.762634
0.104368 0.131358 0.763014
0.10579 0.131595 0.763243
0.107232 0.131851 0.76362
0.10866 0.132091 0.763869
0.110088 0.132331 0.764118
0.111536 0.132588 0.764499
0.112994 0.132854 0.764947
0.11449 0.133153 0.765658
0.115994 0.133458 0.766409
0.117521 0.13378 0.767299
0.119005 0.134062 0.76786
0.120475 0.134329 0.768302
0.121872 0.134529 0.768219
0.123278 0.134738 0.768199
0.124675 0.134939 0.768118
0.126118 0.135178 0.768338
0.1276 0.13545 0.768808
0.129121 0.135754 0.769527
0.130672 0.13608 0.770422
0.132249 0.136426 0.771456
0.133809 0.136754 0.772354
0.135381 0.13709 0.773306
0.136982 0.137447 0.774419
0.138569 0.13779 0.775413
0.140199 0.138164 0.776651
0.141808 0.138519 0.777727
0.143369 0.138834 0.778495
0.144886 0.139112 0.778981
0.146401 0.139388 0.779447
0.147815 0.139586 0.779308
0.149225 0.13978 0.779148
0.150602 0.13995 0.778801
0.151961 0.140107 0.77836
0.15331 0.140257 0.777863
0.154673 0.140418 0.777453
0.156065 0.140601 0.777202
0.157499 0.140813 0.777183
0.158981 0.14106 0.777419
0.160485 0.141322 0.777763
0.162066 0.141637 0.778505
0.163649 0.141952 0.779244
0.165253 0.14228 0.780069
0.166874 0.142617 0.780966
0.168579 0.14301 0.782271
0.170298 0.14341 0.783621
0.17214 0.14389 0.785559
0.173963 0.144354 0.787366
0.176509 0.145295 0.792685
0.0496771 0.128972 0.804125
0.0511026 0.129156 0.803845
0.0525227 0.12933 0.803477
0.0539485 0.129516 0.803217
0.0553628 0.12968 0.80277
0.0567634 0.129821 0.802116
0.0581568 0.12995 0.801372
0.0595408 0.130066 0.800514
0.0609049 0.13015 0.79939
0.0622505 0.130208 0.798041
0.0635913 0.130264 0.796682
0.0649345 0.13033 0.795412
0.0662687 0.130386 0.794069
0.0676117 0.130462 0.792899
0.0689691 0.130566 0.791961
0.070243 0.130546 0.789988
0.0715044 0.130515 0.787935
0.0726365 0.130304 0.784375
0.0735312 0.128075 0.775731
0.0737341 0.130058 0.780538
0.0747985 0.129781 0.776457
0.0759323 0.129617 0.77333
0.077074 0.129475 0.770408
0.078358 0.129535 0.76917
0.0796504 0.129611 0.768064
0.0809365 0.129682 0.766926
0.0822579 0.129802 0.766193
0.0836557 0.13002 0.76627
0.0850575 0.130242 0.766379
0.0864792 0.130487 0.766677
0.0879386 0.130776 0.76733
0.0893776 0.131038 0.76776
0.0907476 0.131218 0.767515
0.0921025 0.13138 0.767132
0.0934319 0.131514 0.766521
0.0947443 0.131631 0.76577
0.0960463 0.131738 0.764944
0.097348 0.131847 0.764136
0.0986933 0.132004 0.763724
0.100077 0.132204 0.763643
0.101473 0.132416 0.76367
0.102897 0.132656 0.763919
0.104319 0.132894 0.764147
0.105734 0.133122 0.764296
0.107167 0.133369 0.764594
0.108607 0.133621 0.764924
0.110051 0.133875 0.765271
0.111503 0.134136 0.765672
0.112976 0.134415 0.766214
0.114463 0.134705 0.766842
0.115946 0.13499 0.767421
0.11744 0.135283 0.768063
0.118902 0.135544 0.768453
0.120339 0.135781 0.768657
0.121726 0.135973 0.768499
0.123122 0.136172 0.768404
0.124531 0.136382 0.768395
0.125976 0.136624 0.768625
0.127483 0.136919 0.769264
0.129011 0.137229 0.770021
0.130552 0.137548 0.770839
0.132116 0.137884 0.771786
0.133679 0.138217 0.772703
0.135241 0.138546 0.773588
0.136869 0.138926 0.774862
0.138496 0.139303 0.776102
0.140154 0.139702 0.777501
0.141767 0.140061 0.778594
0.143328 0.140377 0.779352
0.144822 0.140637 0.77969
0.14631 0.140892 0.779984
0.14771 0.141078 0.77976
0.14912 0.141272 0.779598
0.150501 0.141444 0.779264
0.151877 0.141612 0.77891
0.153239 0.141771 0.778482
0.154605 0.141932 0.778077
0.155998 0.142115 0.777825
0.157434 0.142329 0.777812
0.158903 0.142566 0.77797
0.160394 0.142819 0.778238
0.161957 0.143122 0.778879
0.16354 0.143438 0.779612
0.165146 0.143768 0.780448
0.166788 0.144122 0.781446
0.168513 0.144531 0.782849
0.170251 0.144946 0.78429
0.172108 0.14544 0.786298
0.173947 0.145917 0.788178
0.0508999 0.13062 0.803952
0.0523237 0.1308 0.803641
0.0537508 0.130988 0.803393
0.0551713 0.131163 0.803041
0.0565773 0.131311 0.802459
0.0579812 0.131458 0.801868
0.059372 0.131583 0.801092
0.0607386 0.131667 0.799983
0.0620847 0.131721 0.79862
0.0634155 0.131755 0.797092
0.0647477 0.131799 0.795649
0.0660761 0.131842 0.794214
0.0674196 0.131916 0.79304
0.0687716 0.132009 0.792021
0.0701348 0.132122 0.791184
0.0714832 0.132217 0.790189
0.0727162 0.132143 0.787809
0.0739169 0.132032 0.785129
0.0750844 0.131885 0.78216
0.0762223 0.131707 0.778957
0.0773658 0.131551 0.775936
0.0786452 0.131591 0.774537
0.0799406 0.131657 0.773357
0.0812304 0.131721 0.772156
0.0825559 0.131834 0.771368
0.083954 0.132043 0.771354
0.0853528 0.132251 0.771342
0.0867483 0.132456 0.771292
0.088142 0.132657 0.77122
0.0895134 0.132832 0.77093
0.0908195 0.13293 0.770022
0.0921114 0.133013 0.769006
0.0933933 0.133088 0.767923
0.0947011 0.133196 0.767105
0.0960046 0.133301 0.766268
0.0973008 0.1334 0.765388
0.098639 0.133547 0.764892
0.100016 0.133737 0.764736
0.101405 0.13394 0.764688
0.102812 0.134161 0.764777
0.104234 0.134398 0.764986
0.105649 0.134626 0.765129
0.107076 0.134866 0.765362
0.108527 0.135128 0.765767
0.109981 0.135391 0.766179
0.111436 0.135655 0.766589
0.11291 0.135935 0.767129
0.114388 0.136216 0.767674
0.115851 0.136482 0.768096
0.117312 0.136745 0.76849
0.118762 0.136994 0.768784
0.12017 0.137205 0.768773
0.121557 0.137396 0.768613
0.122953 0.137596 0.76852
0.124373 0.137816 0.76858
0.12582 0.138059 0.768822
0.127341 0.138367 0.769547
0.128872 0.138681 0.770318
0.130404 0.138993 0.771077
0.131965 0.139329 0.772003
0.133529 0.139664 0.772919
0.135117 0.140016 0.773968
0.136765 0.140416 0.775363
0.138433 0.140828 0.776852
0.140105 0.14124 0.778326
0.141715 0.141598 0.779397
0.143262 0.141903 0.780059
0.144753 0.142161 0.780374
0.146215 0.142395 0.780506
0.147601 0.14257 0.780195
0.148998 0.142753 0.779951
0.150368 0.142915 0.77955
0.151735 0.143076 0.779138
0.153102 0.143237 0.778731
0.154496 0.143419 0.77848
0.155906 0.143613 0.778315
0.157359 0.14384 0.778389
0.15883 0.144078 0.778548
0.160332 0.144339 0.778871
0.161867 0.144623 0.77936
0.163453 0.144942 0.780102
0.165075 0.145285 0.781011
0.166751 0.145664 0.782183
0.168496 0.146089 0.783679
0.170837 0.146928 0.788156
0.173305 0.147846 0.793185
0.0495458 0.132525 0.809606
0.0506874 0.132064 0.803882
0.0521204 0.132263 0.80373
0.053556 0.132468 0.803624
0.0549876 0.132663 0.803445
0.0564047 0.132831 0.803028
0.0578202 0.132996 0.8026
0.0592181 0.13313 0.80191
0.0605875 0.133215 0.800815
0.0619307 0.133259 0.799376
0.0632561 0.133278 0.797745
0.0645763 0.133296 0.796109
0.0658942 0.133317 0.794508
0.0672271 0.133371 0.793177
0.0685743 0.133453 0.792084
0.0699379 0.133565 0.791246
0.071288 0.13366 0.790264
0.0725978 0.133698 0.78882
0.0738839 0.133706 0.787142
0.0751351 0.13367 0.785111
0.0763678 0.133615 0.782938
0.0775983 0.133566 0.780819
0.0788794 0.133595 0.779339
0.0801871 0.133666 0.7782
0.0814953 0.133742 0.777101
0.0828208 0.133844 0.776219
0.0841417 0.133943 0.775315
0.0854602 0.134042 0.774413
0.0867626 0.134123 0.773374
0.0880634 0.134205 0.772348
0.0893594 0.134285 0.771305
0.0906748 0.134391 0.770476
0.091984 0.134493 0.76961
0.0932854 0.134587 0.768693
0.0946134 0.134715 0.768042
0.0959213 0.134822 0.767226
0.0972286 0.13493 0.766425
0.0985616 0.135069 0.765866
0.0999383 0.135257 0.765693
0.101319 0.135449 0.765554
0.102717 0.13566 0.765556
0.104131 0.135888 0.765689
0.105547 0.136116 0.765827
0.106976 0.136357 0.766064
0.108428 0.13662 0.766465
0.109891 0.136893 0.766943
0.111346 0.137155 0.767336
0.112811 0.137426 0.767793
0.114269 0.137689 0.768185
0.115722 0.137945 0.768519
0.117163 0.138188 0.768763
0.118603 0.138429 0.768983
0.120011 0.13864 0.768971
0.121399 0.138831 0.768813
0.122797 0.139032 0.768723
0.124228 0.139262 0.768857
0.125687 0.139516 0.769173
0.127221 0.139837 0.769983
0.128762 0.14016 0.770813
0.130294 0.140474 0.771565
0.131866 0.14082 0.772559
0.133448 0.141172 0.773583
0.135057 0.141544 0.774757
0.136725 0.141962 0.77627
0.138421 0.142399 0.777918
0.140082 0.142804 0.77932
0.14168 0.143153 0.780301
0.1432 0.143436 0.780792
0.144662 0.143671 0.780928
0.146097 0.143883 0.780897
0.14747 0.144046 0.780499
0.148866 0.144228 0.780246
0.150249 0.1444 0.779917
0.151632 0.144572 0.779587
0.153015 0.144744 0.779263
0.154426 0.144938 0.779098
0.155839 0.145134 0.778948
0.157309 0.145372 0.779101
0.158783 0.145613 0.779272
0.160303 0.145887 0.779682
0.16184 0.146173 0.780172
0.163441 0.146503 0.780982
0.165067 0.14685 0.781909
0.166762 0.147244 0.783165
0.169092 0.148088 0.787634
0.172099 0.149404 0.795445
0.0506755 0.133958 0.807545
0.0519106 0.133713 0.803705
0.0533554 0.133937 0.803754
0.0548029 0.134164 0.803838
0.0562327 0.134355 0.803615
0.0576701 0.13456 0.803516
0.0590763 0.134706 0.802925
0.0604434 0.134781 0.80176
0.0617822 0.13481 0.800222
0.0631076 0.134823 0.79856
0.0644122 0.134808 0.796674
0.0657252 0.134817 0.794984
0.0670527 0.134857 0.79356
0.0683958 0.134929 0.792398
0.069754 0.13503 0.791477
0.0711058 0.135125 0.790505
0.0724288 0.135179 0.789212
0.0737242 0.135197 0.787629
0.0749847 0.135169 0.78569
0.0762321 0.13513 0.783669
0.0774704 0.135086 0.781615
0.0787455 0.135103 0.780046
0.0800527 0.135169 0.778882
0.0813536 0.135231 0.777686
0.0826648 0.135311 0.776637
0.0839795 0.135399 0.775657
0.0852999 0.135497 0.774763
0.0866059 0.13558 0.773748
0.0879157 0.135671 0.7728
0.089212 0.135748 0.771747
0.090534 0.13586 0.770969
0.0918439 0.13596 0.770097
0.093156 0.136064 0.769268
0.0944964 0.136205 0.768717
0.0958252 0.136333 0.768074
0.0971434 0.136451 0.767353
0.0984862 0.136598 0.766861
0.0998562 0.136776 0.766614
0.101221 0.136949 0.766322
0.102609 0.137149 0.766234
0.104016 0.137367 0.76629
0.105434 0.137597 0.766435
0.106867 0.137842 0.766696
0.10833 0.138116 0.76717
0.109784 0.138379 0.767566
0.111228 0.138631 0.767869
0.112682 0.138892 0.768241
0.114123 0.139137 0.768491
0.115565 0.139382 0.768742
0.117006 0.139626 0.768981
0.118447 0.139868 0.769202
0.119848 0.140071 0.769131
0.121247 0.140274 0.769052
0.122655 0.140483 0.769027
0.124089 0.140715 0.769174
0.12555 0.140972 0.769502
0.127083 0.141293 0.770299
0.128623 0.141617 0.771117
0.130164 0.14194 0.771926
0.131764 0.142312 0.773091
0.133387 0.1427 0.774376
0.135037 0.143109 0.7758
0.136733 0.143552 0.777476
0.138432 0.143994 0.779133
0.140093 0.1444 0.78052
0.141693 0.144752 0.781504
0.143215 0.145036 0.78199
0.144693 0.145283 0.782209
0.146131 0.145496 0.782179
0.147504 0.145657 0.78177
0.148863 0.145808 0.781283
0.150217 0.145955 0.780776
0.151572 0.146104 0.780282
0.152942 0.146265 0.779878
0.154356 0.14646 0.779719
0.155799 0.146678 0.779725
0.157289 0.146931 0.779976
0.158781 0.147184 0.780235
0.160317 0.147471 0.780722
0.161858 0.147759 0.781221
0.163463 0.148093 0.782044
0.165091 0.148442 0.782967
0.166787 0.148838 0.784223
0.169747 0.150146 0.7919
0.0506313 0.135796 0.810641
0.0516957 0.135153 0.803588
0.0531551 0.135408 0.803894
0.0546192 0.13567 0.804253
0.0560667 0.135894 0.804305
0.0575174 0.136124 0.804398
0.0589362 0.136289 0.803973
0.0603099 0.136371 0.802875
0.0616452 0.136388 0.801248
0.0629669 0.136387 0.799495
0.0642612 0.136347 0.79743
0.0655697 0.136342 0.795653
0.0668867 0.136359 0.79406
0.0682298 0.136428 0.792881
0.0695885 0.136527 0.791948
0.0709473 0.136629 0.79105
0.0722786 0.136692 0.78984
0.0735836 0.13672 0.788354
0.0748465 0.13669 0.786419
0.0761028 0.136659 0.784479
0.0773436 0.136612 0.782429
0.0786151 0.136618 0.780797
0.0799168 0.136673 0.779552
0.0812165 0.136729 0.778325
0.0825207 0.136796 0.777185
0.083836 0.136881 0.776194
0.0851577 0.136979 0.775299
0.0864649 0.13706 0.774284
0.0877682 0.13714 0.773257
0.0890569 0.137205 0.772118
0.0903716 0.137305 0.77126
0.0916817 0.137403 0.77038
0.0930027 0.137516 0.769624
0.0943529 0.137666 0.769153
0.0957 0.137814 0.768665
0.0970372 0.137951 0.768098
0.0983822 0.138098 0.767611
0.0997538 0.138277 0.767364
0.101118 0.138448 0.767059
0.1025 0.138639 0.766902
0.103907 0.138856 0.766948
0.105328 0.139089 0.767105
0.106764 0.139336 0.767373
0.108229 0.139612 0.767859
0.109676 0.139868 0.768189
0.111111 0.140111 0.768417
0.112557 0.140362 0.768709
0.113986 0.140597 0.768871
0.115419 0.140833 0.769046
0.116861 0.141078 0.769287
0.118303 0.141321 0.769513
0.119716 0.141535 0.769522
0.121128 0.141748 0.769519
0.122549 0.14197 0.769582
0.124005 0.142222 0.769872
0.125479 0.142491 0.77028
0.127004 0.142805 0.771014
0.128555 0.14314 0.771899
0.130133 0.143496 0.772934
0.131751 0.143885 0.774209
0.133382 0.144282 0.775529
0.135059 0.144715 0.777113
0.136752 0.145159 0.77876
0.138462 0.145612 0.780472
0.140142 0.146034 0.781958
0.141773 0.146413 0.783117
0.143328 0.146724 0.783787
0.144838 0.146995 0.784169
0.146256 0.14719 0.784
0.147619 0.14734 0.783512
0.148951 0.147465 0.782851
0.150265 0.147578 0.782097
0.151577 0.14769 0.781344
0.152918 0.147826 0.780764
0.154304 0.147999 0.780445
0.15575 0.148218 0.780453
0.157255 0.148483 0.780785
0.158779 0.148761 0.781207
0.160336 0.149063 0.781795
0.161909 0.149375 0.78245
0.163516 0.149712 0.783275
0.165146 0.150062 0.784195
0.166815 0.15044 0.7853
0.169807 0.151785 0.793142
0.0505669 0.137601 0.813384
0.0514858 0.136604 0.803564
0.0529692 0.136912 0.80429
0.0544554 0.13722 0.805014
0.055931 0.137501 0.80551
0.0574039 0.137771 0.805924
0.0588204 0.137927 0.805418
0.0601867 0.137987 0.804158
0.0615176 0.137988 0.802423
0.0628363 0.137975 0.800587
0.0641233 0.137914 0.798381
0.0654275 0.137895 0.79651
0.0667392 0.137897 0.794818
0.0680706 0.137941 0.793458
0.0694185 0.138018 0.792366
0.0707778 0.138119 0.791459
0.0721163 0.13819 0.790323
0.073436 0.138236 0.788998
0.074715 0.138225 0.787234
0.0759806 0.138201 0.785377
0.0772299 0.138161 0.783399
0.0785038 0.138165 0.781768
0.0798021 0.13821 0.780461
0.0810983 0.138257 0.779173
0.0824028 0.13832 0.778015
0.0837183 0.138403 0.777007
0.0850337 0.138488 0.776028
0.0863408 0.138566 0.774993
0.0876446 0.138643 0.773954
0.0889273 0.138696 0.772739
0.0902282 0.138776 0.771733
0.0915303 0.138861 0.770766
0.0928513 0.138972 0.770001
0.0942018 0.139121 0.769523
0.0955506 0.139269 0.76904
0.0968971 0.139415 0.768547
0.0982527 0.139573 0.768144
0.0996268 0.139754 0.767906
0.100993 0.139925 0.767604
0.102383 0.140124 0.767507
0.103791 0.140342 0.767551
0.105214 0.140576 0.767715
0.106642 0.140814 0.767907
0.108108 0.141092 0.7684
0.109556 0.141348 0.768721
0.110993 0.141592 0.768951
0.11244 0.141845 0.769248
0.11387 0.142079 0.769407
0.115303 0.142316 0.769578
0.116745 0.142559 0.769802
0.118199 0.142814 0.770107
0.119615 0.143031 0.770132
0.12105 0.143266 0.770285
0.122485 0.143499 0.770429
0.123954 0.143764 0.770802
0.125433 0.144037 0.771228
0.126971 0.144363 0.772035
0.128549 0.144723 0.773088
0.130155 0.145106 0.774299
0.131793 0.145514 0.775688
0.133428 0.145915 0.777021
0.135103 0.146348 0.778575
0.136784 0.146781 0.780127
0.138497 0.147239 0.781843
0.140183 0.147669 0.783356
0.14185 0.148077 0.784711
0.143439 0.148417 0.785569
0.14497 0.148705 0.786065
0.14638 0.148891 0.785829
0.147745 0.14904 0.785331
0.149049 0.149139 0.784488
0.150334 0.149224 0.783547
0.151614 0.149308 0.782594
0.152939 0.149429 0.78191
0.154311 0.149588 0.781494
0.155758 0.149807 0.7815
0.157267 0.150075 0.781841
0.158809 0.150367 0.782351
0.160385 0.150683 0.783026
0.161964 0.151 0.783703
0.163572 0.151337 0.784521
0.165203 0.15169 0.785438
0.166855 0.152056 0.786445
0.169817 0.153392 0.794123
0.0517667 0.139184 0.812517
0.0531045 0.139137 0.810391
0.0544599 0.139141 0.80868
0.0558058 0.139135 0.806899
0.0572864 0.139418 0.807399
0.0587046 0.139571 0.806874
0.0600722 0.139627 0.805587
0.0614062 0.139625 0.803852
0.0627278 0.139609 0.802014
0.0640175 0.139544 0.799797
0.065318 0.13951 0.797832
0.0666148 0.139479 0.795897
0.0679295 0.139489 0.794282
0.0692596 0.139531 0.792933
0.0706132 0.139619 0.791932
0.0719483 0.139681 0.790738
0.0732762 0.139736 0.789497
0.0745705 0.139744 0.787898
0.0758501 0.139736 0.786184
0.0771083 0.139704 0.784284
0.0783911 0.139715 0.782728
0.0796921 0.139759 0.781426
0.0809904 0.139804 0.780139
0.0822915 0.139858 0.77892
0.0836018 0.139929 0.777837
0.0849109 0.140002 0.776773
0.0862257 0.140087 0.775798
0.0875238 0.140152 0.774684
0.0888071 0.140202 0.773456
0.0901086 0.14028 0.772439
0.0914044 0.140354 0.771397
0.0927095 0.140442 0.770468
0.0940602 0.140589 0.769982
0.0954089 0.140735 0.769488
0.0967578 0.140883 0.769006
0.0981239 0.141052 0.768683
0.0995079 0.141242 0.768521
0.100876 0.141415 0.768227
0.102269 0.141615 0.768135
0.10367 0.141824 0.768115
0.105084 0.142047 0.768192
0.106511 0.142284 0.768373
0.107985 0.142571 0.768918
0.109443 0.142839 0.769316
0.110894 0.143096 0.769641
0.112352 0.143361 0.770012
0.113784 0.143596 0.770175
0.115208 0.143822 0.770261
0.116641 0.144057 0.770415
0.118096 0.144313 0.770718
0.119524 0.14454 0.770817
0.120974 0.144789 0.771069
0.122413 0.145026 0.771231
0.123896 0.145303 0.771683
0.125408 0.145607 0.772321
0.126974 0.145959 0.773305
0.128582 0.146348 0.774546
0.130218 0.146759 0.775935
0.131872 0.147182 0.777409
0.133486 0.147565 0.778586
0.135135 0.147975 0.77996
0.136815 0.148409 0.78149
0.138534 0.148874 0.78323
0.14023 0.149313 0.78479
0.141919 0.149742 0.786265
0.143523 0.150095 0.787201
0.145045 0.150374 0.787618
0.146443 0.150548 0.787297
0.147809 0.150694 0.786786
0.149113 0.15079 0.785924
0.150385 0.150862 0.784895
0.151666 0.150943 0.783931
0.153003 0.151071 0.783302
0.15435 0.151208 0.78273
0.155784 0.151416 0.782652
0.157306 0.151692 0.783049
0.158853 0.151988 0.783574
0.160434 0.152308 0.784263
0.162046 0.152651 0.785106
0.163658 0.152992 0.785928
0.165275 0.153334 0.786761
0.166898 0.153678 0.787603
0.0546375 0.141462 0.815375
0.0558288 0.141096 0.810793
0.0571737 0.141083 0.808965
0.0585832 0.141211 0.808254
0.0599481 0.141254 0.806879
0.0612902 0.141261 0.805224
0.0626199 0.141252 0.803459
0.0639188 0.141195 0.801328
0.0652273 0.141166 0.799428
0.0665254 0.141129 0.797464
0.0678242 0.141103 0.795591
0.0691428 0.14112 0.794054
0.0704788 0.141172 0.792798
0.0718082 0.14122 0.791505
0.0731331 0.141266 0.790207
0.0744368 0.141284 0.788698
0.0757263 0.141286 0.787075
0.076993 0.14126 0.785248
0.0782765 0.141267 0.783675
0.0795728 0.141299 0.782296
0.0808725 0.141342 0.781001
0.0821681 0.141383 0.779702
0.0834804 0.141453 0.778619
0.0847846 0.141516 0.777486
0.0861093 0.14161 0.776593
0.087409 0.141674 0.775477
0.0886958 0.141725 0.774265
0.089998 0.141799 0.773237
0.091293 0.141868 0.772169
0.0925906 0.141944 0.771153
0.0939273 0.142071 0.770524
0.0952771 0.142217 0.770028
0.0966352 0.142374 0.769616
0.098011 0.142552 0.769366
0.0993988 0.142745 0.769223
0.100786 0.142938 0.769078
0.102189 0.143149 0.76906
0.103584 0.143349 0.768971
0.104989 0.143562 0.768967
0.106406 0.143787 0.769051
0.107871 0.144063 0.769508
0.109322 0.144323 0.769846
0.110776 0.144584 0.770189
0.112239 0.144853 0.770584
0.113672 0.145089 0.770743
0.115096 0.145314 0.770825
0.116529 0.145548 0.770967
0.117996 0.145817 0.771352
0.119438 0.146057 0.77154
0.120912 0.146329 0.771948
0.122373 0.146587 0.772253
0.123881 0.146888 0.772866
0.125419 0.147217 0.773666
0.127003 0.147587 0.774759
0.128628 0.147992 0.77609
0.130269 0.148409 0.777502
0.131901 0.148812 0.778814
0.133489 0.149171 0.779804
0.135138 0.149582 0.781164
0.136822 0.150022 0.78271
0.138561 0.150506 0.784561
0.140288 0.150974 0.786298
0.141988 0.151414 0.78783
0.143591 0.151766 0.788739
0.14511 0.152041 0.78912
0.146496 0.152202 0.78871
0.147851 0.152337 0.788117
0.149146 0.152422 0.787187
0.150409 0.152483 0.786089
0.151682 0.152554 0.785068
0.153014 0.152675 0.784392
0.154364 0.152812 0.783827
0.155798 0.153019 0.78374
0.157321 0.153296 0.784127
0.158868 0.153592 0.78464
0.160452 0.153915 0.785341
0.162069 0.154262 0.786195
0.163684 0.154605 0.787022
0.165287 0.154937 0.787771
0.16691 0.155283 0.788607
0.0534306 0.141823 0.819945
0.054944 0.144104 0.824367
0.0559805 0.143358 0.816892
0.0571654 0.142977 0.812258
0.0584507 0.142835 0.809467
0.0598218 0.142884 0.808148
0.0611688 0.142892 0.806524
0.0625089 0.142895 0.80487
0.0638269 0.142865 0.802968
0.0651498 0.142855 0.80122
0.0664461 0.142805 0.79918
0.0677418 0.142764 0.797219
0.0690482 0.142752 0.795475
0.0703655 0.142766 0.79394
0.0716762 0.142777 0.792382
0.0729959 0.142809 0.790993
0.0743026 0.142826 0.789497
0.0755959 0.142829 0.787895
0.0768656 0.142802 0.786078
0.07815 0.142805 0.784491
0.0794385 0.142821 0.783005
0.0807318 0.14285 0.781619
0.0820277 0.142888 0.780306
0.0833488 0.142966 0.779299
0.0846616 0.143037 0.778237
0.0859901 0.143133 0.777365
0.0872935 0.143198 0.776267
0.0885897 0.143258 0.77513
0.0898859 0.14332 0.774024
0.0911827 0.143388 0.772955
0.0924893 0.143472 0.772007
0.0938345 0.143607 0.771438
0.095179 0.143743 0.770876
0.0965466 0.143909 0.770532
0.0979253 0.144089 0.770293
0.099315 0.144283 0.77015
0.100714 0.144487 0.770086
0.102128 0.144709 0.770148
0.103525 0.14491 0.770056
0.104922 0.145112 0.769969
0.10633 0.145325 0.769964
0.107777 0.145581 0.77027
0.109222 0.145833 0.770543
0.110669 0.146087 0.770822
0.112133 0.146357 0.771219
0.113577 0.146603 0.771446
0.115002 0.146829 0.771526
0.116447 0.147075 0.771749
0.117927 0.147355 0.77221
0.119382 0.147609 0.77248
0.12087 0.147894 0.772972
0.122356 0.148176 0.773441
0.123888 0.148501 0.77421
0.125454 0.148857 0.775184
0.127066 0.149254 0.776447
0.128698 0.149666 0.777807
0.130327 0.150071 0.779112
0.131921 0.150439 0.780159
0.133471 0.150763 0.780896
0.135098 0.151156 0.782104
0.136789 0.151603 0.78368
0.138547 0.152107 0.785642
0.140278 0.152581 0.787392
0.141975 0.153019 0.788889
0.143548 0.153344 0.789604
0.145024 0.153583 0.789723
0.146385 0.15372 0.789153
0.147728 0.153843 0.788483
0.149038 0.153939 0.787637
0.150332 0.154024 0.786709
0.151639 0.154121 0.785871
0.152989 0.154255 0.785289
0.154358 0.154406 0.784821
0.155794 0.154613 0.784728
0.157303 0.154879 0.785033
0.158837 0.155164 0.785466
0.160423 0.155489 0.786167
0.16204 0.155836 0.787012
0.163659 0.156184 0.787853
0.165264 0.156518 0.788601
0.166888 0.156865 0.789434
0.169117 0.156071 0.792416
0.16849 0.157192 0.790132
0.0572674 0.145128 0.817396
0.0584185 0.144678 0.8123
0.0596686 0.144464 0.809009
0.0610392 0.144513 0.807711
0.062401 0.144552 0.806338
0.0637456 0.144565 0.804776
0.0650795 0.144565 0.80313
0.0663799 0.144513 0.80109
0.0676621 0.144438 0.798892
0.0689526 0.144389 0.796894
0.0702501 0.144362 0.795065
0.0715478 0.144344 0.79331
0.0728612 0.144361 0.791816
0.0741823 0.144396 0.790469
0.0754853 0.144409 0.788956
0.0767574 0.144379 0.787137
0.0780438 0.144379 0.785545
0.0793187 0.144369 0.783879
0.0805982 0.144372 0.78232
0.0818807 0.144386 0.780843
0.0831959 0.144452 0.779759
0.0845107 0.144523 0.778704
0.0858549 0.144638 0.77798
0.0871684 0.144714 0.776967
0.0884821 0.144793 0.775984
0.0897819 0.144857 0.774895
0.0910876 0.144932 0.77389
0.0924047 0.145025 0.773021
0.0937618 0.145173 0.772543
0.0951099 0.14531 0.771993
0.0964948 0.145495 0.771783
0.0978757 0.145675 0.771541
0.0992602 0.14586 0.771332
0.100653 0.146055 0.771199
0.102069 0.146277 0.771256
0.103451 0.146458 0.771022
0.104841 0.14665 0.77086
0.106241 0.146852 0.770774
0.107679 0.147097 0.770994
0.109123 0.147348 0.771248
0.11057 0.147601 0.771518
0.112035 0.147871 0.771907
0.113479 0.148118 0.772133
0.114915 0.148355 0.772284
0.116365 0.148604 0.772525
0.117858 0.148899 0.773079
0.119338 0.149177 0.77351
0.120859 0.149496 0.774227
0.122373 0.149805 0.774872
0.123923 0.150147 0.775744
0.125506 0.15052 0.776822
0.127121 0.150919 0.778082
0.128718 0.151298 0.779193
0.1303 0.151659 0.780172
0.131866 0.152001 0.781025
0.133403 0.152313 0.781665
0.135022 0.152699 0.782807
0.136729 0.153164 0.784486
0.138491 0.153674 0.78646
0.140209 0.154138 0.78812
0.14188 0.154556 0.789455
0.143413 0.154846 0.789922
0.144849 0.155049 0.789796
0.146209 0.155184 0.789213
0.147552 0.155305 0.788542
0.148866 0.155403 0.787714
0.150187 0.155509 0.786941
0.151523 0.155629 0.786264
0.15289 0.155777 0.785771
0.154275 0.155939 0.785381
0.155727 0.156158 0.785369
0.157238 0.156426 0.785682
0.158772 0.156711 0.786105
0.160358 0.157037 0.7868
0.161975 0.157386 0.78764
0.163595 0.157735 0.788482
0.165188 0.15806 0.789162
0.166816 0.158411 0.790006
0.168417 0.158739 0.790697
0.0585059 0.146791 0.817081
0.0596282 0.146286 0.811644
0.0608862 0.146093 0.80855
0.0622694 0.146168 0.807466
0.0636405 0.146226 0.806251
0.0649897 0.146248 0.804775
0.0662999 0.146204 0.802824
0.0675848 0.146125 0.800611
0.0688719 0.14606 0.798519
0.0701534 0.145997 0.796439
0.0714386 0.14595 0.794487
0.0727402 0.14594 0.792815
0.0740564 0.145962 0.791381
0.0753689 0.145984 0.789954
0.0766504 0.145963 0.788216
0.0779384 0.145959 0.786614
0.0792015 0.145925 0.784788
0.0804736 0.145911 0.783123
0.0817359 0.14589 0.781408
0.0830372 0.145933 0.780161
0.0843535 0.146002 0.779108
0.0857059 0.146127 0.778456
0.0870216 0.146202 0.777452
0.0883515 0.1463 0.776616
0.0896686 0.146384 0.775678
0.0909864 0.146472 0.774773
0.0923153 0.146578 0.773995
0.093684 0.146737 0.773605
0.0950428 0.146885 0.773133
0.0964323 0.147073 0.772945
0.0978141 0.147251 0.772688
0.0991997 0.147435 0.77247
0.100593 0.147629 0.772321
0.101994 0.147831 0.772233
0.103368 0.148 0.771916
0.10475 0.14818 0.771674
0.106141 0.148371 0.771505
0.107562 0.148595 0.771572
0.108995 0.148834 0.771735
0.110431 0.149073 0.771906
0.111885 0.149333 0.772211
0.113331 0.149581 0.77244
0.11478 0.149832 0.772684
0.116243 0.150095 0.773015
0.117759 0.150414 0.773723
0.119272 0.150727 0.774392
0.12082 0.151073 0.775282
0.122361 0.15141 0.776106
0.123939 0.15178 0.777154
0.125535 0.152167 0.778306
0.127129 0.152545 0.779404
0.128701 0.1529 0.780331
0.130257 0.153235 0.781127
0.131811 0.153566 0.781885
0.133338 0.153869 0.782456
0.134971 0.15427 0.783679
0.136669 0.154728 0.785288
0.138417 0.155228 0.787172
0.140097 0.15566 0.788587
0.141729 0.156044 0.78968
0.143223 0.1563 0.789909
0.144649 0.156492 0.789715
0.145994 0.156614 0.789047
0.147337 0.156735 0.788376
0.148664 0.156842 0.787619
0.15 0.15696 0.786931
0.151351 0.157091 0.786334
0.152731 0.157249 0.785914
0.154129 0.157422 0.785596
0.155596 0.157654 0.785666
0.15711 0.157924 0.785987
0.158634 0.158202 0.786353
0.160218 0.158527 0.78703
0.161847 0.158887 0.787933
0.163455 0.159228 0.788708
0.165051 0.159556 0.789399
0.166693 0.15992 0.790315
0.168294 0.160249 0.791
0.0595741 0.148091 0.814087
0.0607108 0.14763 0.809055
0.0621128 0.14774 0.808231
0.0635046 0.147833 0.807289
0.0648675 0.147875 0.805975
0.0661969 0.14786 0.80425
0.0674957 0.147797 0.802182
0.0687925 0.147741 0.800172
0.0700711 0.147663 0.798008
0.0713651 0.147623 0.796125
0.0726568 0.147588 0.794288
0.0739632 0.147587 0.792697
0.0752716 0.147596 0.791186
0.0765624 0.147583 0.789525
0.0778471 0.147568 0.787852
0.0790994 0.147509 0.785872
0.0803644 0.147478 0.784101
0.0816193 0.14744 0.78228
0.0829071 0.147458 0.780868
0.0842167 0.147514 0.779728
0.0855705 0.147638 0.779076
0.086895 0.147722 0.778144
0.0882359 0.147833 0.777401
0.089564 0.147928 0.776552
0.0908928 0.148027 0.775733
0.0922388 0.148152 0.775097
0.0936199 0.148325 0.774801
0.094991 0.148486 0.774418
0.0963843 0.148675 0.774242
0.0977758 0.148863 0.774049
0.0991544 0.149035 0.773745
0.100539 0.149215 0.773501
0.101932 0.149405 0.773323
0.103306 0.149572 0.77299
0.10468 0.14974 0.772665
0.106064 0.14992 0.772417
0.107466 0.150122 0.772328
0.108881 0.150338 0.772332
0.110299 0.150556 0.772349
0.111735 0.150795 0.772506
0.113181 0.151044 0.772736
0.114651 0.151318 0.77313
0.116137 0.151606 0.773625
0.117688 0.151963 0.774582
0.119236 0.152313 0.775487
0.120821 0.152699 0.776634
0.122391 0.153065 0.777639
0.123984 0.153451 0.778779
0.125549 0.153805 0.779692
0.127116 0.154157 0.780594
0.128663 0.154487 0.781339
0.130198 0.154801 0.781982
0.131746 0.155127 0.782694
0.133302 0.155457 0.783433
0.134938 0.155863 0.784673
0.1366 0.156288 0.786042
0.138307 0.156752 0.78766
0.139943 0.157145 0.788799
0.141535 0.157494 0.789642
0.143005 0.157728 0.789722
0.144417 0.157908 0.789449
0.145761 0.158027 0.788768
0.147104 0.158147 0.788099
0.148431 0.158254 0.787344
0.149783 0.158385 0.786746
0.151147 0.158527 0.786224
0.152528 0.158685 0.78581
0.153939 0.158869 0.785562
0.155407 0.159102 0.785637
0.156909 0.159362 0.78589
0.158433 0.159641 0.786257
0.160016 0.159967 0.786928
0.161647 0.160331 0.787846
0.163255 0.160673 0.788617
0.164853 0.161005 0.789319
0.166492 0.161368 0.79022
0.168076 0.161684 0.790818
0.0607317 0.149586 0.812582
0.062041 0.149491 0.810272
0.0633472 0.149403 0.808024
0.0647123 0.149443 0.806713
0.0660498 0.149438 0.805073
0.067363 0.149395 0.803172
0.0686763 0.149363 0.801349
0.0699718 0.149307 0.799368
0.0712815 0.149287 0.797647
0.0725816 0.149258 0.795871
0.0738904 0.149253 0.794267
0.0751947 0.149248 0.79267
0.0764812 0.14922 0.790922
0.0777688 0.149203 0.789246
0.079017 0.14913 0.787186
0.0802838 0.149095 0.785402
0.0815322 0.14904 0.783479
0.0828063 0.149031 0.781893
0.0841019 0.149062 0.780583
0.0854497 0.149173 0.779848
0.0867616 0.149236 0.778771
0.0881122 0.149357 0.778109
0.0894509 0.149464 0.777347
0.0907898 0.149574 0.776608
0.0921463 0.14971 0.776052
0.0935514 0.149912 0.775961
0.0949426 0.150096 0.77574
0.0963402 0.150289 0.775579
0.0977358 0.150479 0.775401
0.0991139 0.150646 0.775068
0.100484 0.150805 0.774671
0.10186 0.150972 0.774336
0.103227 0.151128 0.773926
0.104592 0.151282 0.773506
0.105966 0.151449 0.773174
0.107352 0.15163 0.772931
0.108748 0.151824 0.772781
0.110155 0.152029 0.772708
0.11159 0.152266 0.772852
0.113048 0.152528 0.773159
0.114532 0.152817 0.773654
0.116041 0.153131 0.774311
0.117617 0.153516 0.775438
0.11918 0.153882 0.776442
0.120782 0.154287 0.777696
0.122365 0.154667 0.77878
0.12396 0.155056 0.779921
0.125513 0.155397 0.780735
0.127067 0.155737 0.781542
0.128602 0.156054 0.782193
0.13014 0.156372 0.782846
0.131697 0.156706 0.783601
0.133258 0.157043 0.784371
0.134886 0.157441 0.785545
0.136509 0.15783 0.786652
0.138161 0.158244 0.787921
0.139739 0.158584 0.788698
0.1413 0.158905 0.789348
0.142754 0.159125 0.789335
0.144154 0.159295 0.788991
0.145498 0.159414 0.788318
0.146852 0.159543 0.787713
0.148179 0.159649 0.786957
0.149533 0.15978 0.786372
0.150914 0.159937 0.78595
0.15231 0.160108 0.78562
0.153721 0.160292 0.785374
0.155189 0.160524 0.785443
0.156689 0.160785 0.785693
0.158213 0.161064 0.786055
0.159795 0.161391 0.786726
0.161426 0.161757 0.787645
0.163022 0.162091 0.788352
0.164604 0.162412 0.788974
0.166225 0.162762 0.789784
0.167791 0.163066 0.79029
0.0608759 0.151824 0.818039
0.062076 0.151476 0.813935
0.0632721 0.151145 0.809968
0.0645322 0.150966 0.807103
0.0658772 0.15097 0.805548
0.0672008 0.150942 0.803767
0.0685361 0.150945 0.802215
0.0698543 0.150924 0.8005
0.0711866 0.150937 0.799033
0.0725029 0.15093 0.797424
0.0738273 0.150944 0.795969
0.0751397 0.150944 0.794427
0.0764283 0.150912 0.792658
0.0777049 0.150868 0.790815
0.0789485 0.15078 0.788664
0.0802176 0.150741 0.78687
0.0814621 0.150672 0.78487
0.0827185 0.15063 0.783062
0.0839995 0.150632 0.781572
0.0853381 0.150727 0.780721
0.0866279 0.150752 0.7794
0.0879659 0.150853 0.778597
0.0893143 0.150971 0.777918
0.0906622 0.15109 0.77725
0.09202 0.151225 0.776693
0.0934261 0.151428 0.776598
0.0948284 0.151625 0.776467
0.0962284 0.151819 0.776313
0.0976268 0.152011 0.776145
0.0990051 0.152177 0.775801
0.100376 0.152334 0.775401
0.101745 0.152489 0.774985
0.103113 0.152645 0.774576
0.10448 0.1528 0.774157
0.105855 0.152966 0.773819
0.10724 0.153144 0.773564
0.108637 0.153337 0.773401
0.110043 0.15354 0.773317
0.111479 0.153778 0.773457
0.112949 0.154052 0.773843
0.114446 0.154356 0.774422
0.11597 0.154687 0.775184
0.11757 0.155099 0.776477
0.119156 0.155492 0.777638
0.120771 0.155911 0.77897
0.122357 0.156294 0.780057
0.123943 0.156673 0.781116
0.125474 0.156992 0.781768
0.127006 0.157309 0.78241
0.128532 0.157617 0.782988
0.130076 0.157941 0.78367
0.131648 0.158291 0.784518
0.133213 0.15863 0.785296
0.134816 0.159005 0.786301
0.136386 0.159345 0.787069
0.137971 0.159695 0.787906
0.139493 0.159983 0.788335
0.140999 0.160254 0.788653
0.142439 0.160462 0.788561
0.143839 0.160631 0.788217
0.145183 0.160751 0.787551
0.146534 0.160877 0.786936
0.147887 0.161006 0.786337
0.149255 0.161151 0.78584
0.150654 0.161323 0.785519
0.152078 0.161519 0.785352
0.153503 0.161715 0.785186
0.154956 0.161935 0.785172
0.156455 0.162195 0.785411
0.157974 0.162471 0.785755
0.159544 0.16279 0.786361
0.161174 0.163157 0.787277
0.162768 0.163492 0.787979
0.164333 0.1638 0.788513
0.165922 0.164126 0.789157
0.06219 0.153647 0.81882
0.0632639 0.153036 0.812915
0.0644138 0.152617 0.808379
0.065699 0.152494 0.805949
0.0670481 0.15251 0.804498
0.068405 0.152548 0.803209
0.0697401 0.152552 0.801684
0.0710892 0.15259 0.800398
0.0724167 0.152595 0.79889
0.0737387 0.152598 0.79737
0.0750604 0.152607 0.795901
0.0763574 0.152581 0.794194
0.077642 0.152543 0.792406
0.078888 0.152449 0.790241
0.0801738 0.15243 0.788596
0.0814231 0.15236 0.786606
0.0826837 0.152316 0.784805
0.0839439 0.15228 0.783058
0.085266 0.152344 0.782006
0.0865315 0.152328 0.78041
0.0878468 0.152391 0.77936
0.0891891 0.152497 0.778604
0.0905393 0.152617 0.777943
0.0918916 0.152742 0.777318
0.0932991 0.152944 0.777224
0.0947095 0.153151 0.777154
0.0961051 0.153337 0.776947
0.0975137 0.153541 0.776857
0.0989022 0.153718 0.776589
0.100282 0.153884 0.776247
0.101654 0.154042 0.775848
0.103034 0.15421 0.775522
0.104396 0.154355 0.775045
0.105781 0.154531 0.774768
0.107159 0.154698 0.77444
0.108547 0.154879 0.7742
0.109946 0.155072 0.774042
0.111393 0.155321 0.774251
0.112875 0.15561 0.774728
0.114387 0.155931 0.775406
0.115935 0.156289 0.776332
0.117547 0.156714 0.777696
0.119136 0.15711 0.778859
0.120741 0.157519 0.780102
0.122327 0.157903 0.781182
0.123903 0.158272 0.78216
0.125437 0.158593 0.782816
0.126973 0.158913 0.783468
0.128501 0.159223 0.78405
0.130046 0.159549 0.784727
0.131608 0.159888 0.785495
0.133149 0.160204 0.786108
0.134712 0.16054 0.786843
0.136229 0.160828 0.787268
0.137736 0.161103 0.787611
0.139192 0.161329 0.787632
0.140644 0.161549 0.787623
0.142057 0.161733 0.787373
0.143444 0.161891 0.786965
0.144802 0.162023 0.786388
0.146177 0.162173 0.785927
0.147569 0.162338 0.785564
0.148966 0.162509 0.785236
0.150394 0.162708 0.785089
0.151847 0.162929 0.785084
0.153285 0.163138 0.784997
0.154724 0.163346 0.784905
0.156207 0.163593 0.78506
0.157711 0.163857 0.78532
0.159265 0.164163 0.785842
0.160865 0.164507 0.786599
0.162441 0.164829 0.787214
0.163985 0.165122 0.787645
0.165778 0.165621 0.789363
0.0633508 0.155143 0.817287
0.0644162 0.154524 0.811409
0.065627 0.154235 0.807846
0.0669244 0.15414 0.805633
0.0682315 0.154075 0.803641
0.0695988 0.154136 0.802522
0.0709746 0.154217 0.801552
0.072325 0.154257 0.800299
0.0736771 0.154306 0.799111
0.075011 0.154329 0.797747
0.0763126 0.154303 0.79605
0.0776004 0.154261 0.794252
0.0788482 0.154161 0.792064
0.0801309 0.154128 0.79034
0.0813986 0.154079 0.788512
0.0826577 0.154025 0.786652
0.0838996 0.153951 0.784672
0.0852033 0.153981 0.783396
0.0864513 0.153932 0.781591
0.0877441 0.153957 0.780291
0.0890804 0.154051 0.779455
0.0904324 0.15417 0.778793
0.0917777 0.154282 0.778085
0.093186 0.154484 0.777983
0.0945975 0.15469 0.777908
0.096003 0.154888 0.777776
0.0974221 0.155103 0.777764
0.0988145 0.155283 0.777514
0.100196 0.15545 0.777174
0.10158 0.155619 0.776852
0.102972 0.1558 0.776612
0.104338 0.155948 0.776154
0.105745 0.156148 0.776036
0.107134 0.156327 0.77578
0.108526 0.156509 0.775546
0.109929 0.156703 0.775396
0.111389 0.156966 0.77569
0.112875 0.157258 0.776175
0.114391 0.157582 0.776861
0.115943 0.157944 0.777797
0.117546 0.15836 0.779085
0.119136 0.158757 0.780236
0.120732 0.159156 0.781399
0.12231 0.159531 0.782404
0.123878 0.159891 0.783306
0.125414 0.160215 0.783968
0.126941 0.160525 0.784543
0.128461 0.160826 0.785057
0.129995 0.161139 0.785646
0.13152 0.161442 0.786162
0.133021 0.161716 0.786502
0.134532 0.162 0.786895
0.135996 0.162236 0.786983
0.137436 0.162446 0.786907
0.138873 0.162654 0.786812
0.140296 0.162848 0.786633
0.141695 0.163019 0.786307
0.143082 0.163178 0.785904
0.144464 0.163333 0.785482
0.145856 0.163499 0.785126
0.147276 0.163691 0.784935
0.148703 0.16389 0.78479
0.150148 0.164105 0.78474
0.151601 0.164327 0.78474
0.153039 0.164535 0.784647
0.154464 0.164731 0.784481
0.155932 0.164966 0.784558
0.157435 0.16523 0.784812
0.158984 0.165535 0.785318
0.160553 0.165854 0.785912
0.16211 0.166161 0.786426
0.163636 0.16644 0.786771
0.0644884 0.156592 0.815468
0.0656283 0.156137 0.810792
0.0668591 0.155893 0.80758
0.0681021 0.155691 0.804672
0.0694242 0.155659 0.802928
0.0708283 0.155791 0.802306
0.0722126 0.155889 0.801457
0.0735948 0.155986 0.800609
0.0749526 0.156044 0.799495
0.0762657 0.156029 0.797889
0.0775654 0.155999 0.796186
0.0788301 0.155918 0.794144
0.0801242 0.155895 0.7925
0.0814033 0.155855 0.790748
0.0826526 0.155775 0.788735
0.0838747 0.155661 0.7865
0.0851503 0.155641 0.784894
0.086375 0.155549 0.782818
0.0876463 0.155536 0.781276
0.0889772 0.155617 0.780365
0.0903375 0.155745 0.779766
0.0916755 0.155843 0.778967
0.0930763 0.156032 0.778778
0.0944799 0.156225 0.778615
0.0958956 0.156435 0.778562
0.0973102 0.156643 0.778494
0.098713 0.156835 0.778322
0.100114 0.157024 0.778135
0.101508 0.157205 0.777887
0.102906 0.15739 0.77767
0.104283 0.157549 0.777287
0.105701 0.157762 0.77725
0.107094 0.157941 0.776997
0.1085 0.158138 0.77686
0.109916 0.158346 0.776793
0.111389 0.158623 0.777167
0.112878 0.158916 0.777648
0.114396 0.159241 0.778334
0.115949 0.159604 0.779264
0.117545 0.160012 0.780475
0.119127 0.160399 0.781549
0.120713 0.160788 0.782626
0.122284 0.161155 0.78356
0.123843 0.161506 0.784392
0.125382 0.161831 0.785054
0.126899 0.16213 0.785551
0.128397 0.162408 0.785903
0.129906 0.162694 0.786313
0.131392 0.162956 0.786563
0.132854 0.163191 0.786646
0.134315 0.163424 0.786713
0.135739 0.163619 0.78654
0.137136 0.163788 0.786204
0.138556 0.163979 0.786006
0.139951 0.164146 0.78566
0.141348 0.164316 0.785328
0.142745 0.164486 0.784999
0.144127 0.164642 0.784585
0.14551 0.164799 0.784177
0.146946 0.165007 0.78409
0.14839 0.165223 0.784048
0.149835 0.165439 0.784004
0.1513 0.165673 0.784078
0.152762 0.165904 0.784126
0.1542 0.166113 0.784039
0.15567 0.166349 0.78412
0.157171 0.166613 0.784372
0.158716 0.166915 0.784855
0.160254 0.167209 0.78529
0.161793 0.167503 0.785717
0.163302 0.167769 0.785974
0.0657168 0.158234 0.814996
0.0668861 0.157844 0.81082
0.0680672 0.157502 0.806986
0.0693321 0.157346 0.804425
0.0706872 0.157378 0.803135
0.0721013 0.157528 0.802637
0.0735075 0.157664 0.802055
0.0748837 0.157749 0.801126
0.0762209 0.157768 0.799767
0.0775301 0.157746 0.798128
0.0787997 0.157663 0.796095
0.0800908 0.157627 0.794374
0.0813863 0.157605 0.792759
0.082631 0.157508 0.79065
0.0838555 0.157389 0.788399
0.0851313 0.15736 0.786753
0.0863586 0.157264 0.784664
0.0876053 0.157206 0.782836
0.0889234 0.157262 0.781768
0.090277 0.157376 0.781076
0.0915916 0.157435 0.780029
0.0929776 0.1576 0.77968
0.0943669 0.15777 0.779367
0.0957835 0.15798 0.779308
0.0972002 0.158189 0.779247
0.0986141 0.158394 0.779157
0.100027 0.158597 0.779057
0.10144 0.158801 0.778959
0.102849 0.158997 0.778815
0.104246 0.15918 0.77858
0.105687 0.159418 0.778704
0.107102 0.159623 0.778612
0.108532 0.159845 0.778635
0.10997 0.160078 0.778723
0.111457 0.160368 0.779177
0.112949 0.160663 0.779659
0.114471 0.16099 0.780342
0.116016 0.161341 0.781179
0.117594 0.161728 0.782239
0.119157 0.162093 0.783155
0.120726 0.162461 0.784087
0.122277 0.162805 0.784863
0.123816 0.163133 0.785534
0.125333 0.163434 0.786031
0.126829 0.16371 0.78637
0.128313 0.163972 0.78662
0.129787 0.164221 0.786789
0.131248 0.164455 0.78686
0.132684 0.164664 0.786771
0.134096 0.164846 0.786519
0.13547 0.16499 0.786028
0.136828 0.165118 0.785441
0.138218 0.165281 0.785068
0.139578 0.165413 0.784507
0.140962 0.165571 0.78411
0.142356 0.165739 0.783771
0.143748 0.165906 0.783427
0.145117 0.166051 0.782947
0.146564 0.166271 0.782935
0.148019 0.166498 0.782965
0.149474 0.166726 0.782994
0.150953 0.166974 0.783148
0.152439 0.167229 0.783345
0.153906 0.167464 0.78342
0.155391 0.167717 0.783597
0.156892 0.167982 0.783852
0.158422 0.168272 0.784258
0.159955 0.168564 0.784668
0.16148 0.168846 0.785022
0.162988 0.169113 0.785281
0.064634 0.158836 0.820623
0.0636185 0.159622 0.827527
0.0635778 0.161511 0.830099
0.0647144 0.160962 0.824866
0.065803 0.160346 0.819195
0.0669292 0.159843 0.814304
0.0680783 0.159416 0.809941
0.0693098 0.15918 0.806858
0.0706359 0.159145 0.80513
0.0720446 0.159276 0.804517
0.073455 0.159414 0.803941
0.0748151 0.159461 0.802773
0.0761611 0.159489 0.801478
0.0774807 0.159477 0.799919
0.0787621 0.159405 0.797977
0.0800632 0.159377 0.796323
0.0813696 0.159365 0.794785
0.082622 0.159271 0.792713
0.0838573 0.159159 0.790529
0.085138 0.15913 0.788891
0.0863773 0.159042 0.786879
0.0876264 0.158979 0.78503
0.0889248 0.158998 0.783725
0.0902565 0.159072 0.782783
0.091556 0.159103 0.781558
0.0929276 0.159243 0.781046
0.0943023 0.159389 0.780572
0.0957112 0.159585 0.780422
0.0971287 0.159792 0.780348
0.0985374 0.159988 0.780193
0.0999621 0.160204 0.780178
0.101389 0.160423 0.780174
0.102809 0.160633 0.780109
0.104218 0.160828 0.779954
0.105671 0.161079 0.780156
0.107101 0.161299 0.78016
0.108545 0.161537 0.780272
0.110008 0.161797 0.780526
0.111509 0.162103 0.781068
0.113006 0.1624 0.781557
0.114519 0.162715 0.782153
0.116055 0.163055 0.782904
0.117606 0.163409 0.783735
0.119149 0.16375 0.784486
0.120697 0.164093 0.785251
0.122225 0.164411 0.785847
0.123753 0.164726 0.78643
0.125258 0.165013 0.786831
0.126731 0.165263 0.787001
0.128203 0.165511 0.78716
0.129653 0.165734 0.787159
0.131078 0.16593 0.786993
0.132491 0.166113 0.786745
0.133878 0.166269 0.786329
0.135214 0.166372 0.785594
0.136543 0.166471 0.784826
0.137908 0.166608 0.784299
0.139241 0.166714 0.783583
0.140614 0.16686 0.783118
0.142006 0.167027 0.782777
0.143396 0.167193 0.782429
0.144759 0.167333 0.781926
0.146201 0.167549 0.781888
0.147662 0.167785 0.781965
0.149131 0.168027 0.782081
0.150624 0.16829 0.782328
0.152129 0.168564 0.782635
0.153624 0.168827 0.782876
0.155113 0.169083 0.783074
0.156615 0.169351 0.783337
0.158144 0.169641 0.78374
0.159661 0.16992 0.78407
0.161313 0.170317 0.785104
0.163051 0.170788 0.786579
0.0646716 0.162838 0.827341
0.0658436 0.162379 0.822774
0.0669925 0.161901 0.818095
0.0681384 0.161446 0.813583
0.0693703 0.161191 0.81041
0.0706913 0.161131 0.808527
0.0720952 0.161242 0.807774
0.0734819 0.161323 0.806831
0.0748314 0.16134 0.805465
0.0761679 0.16134 0.803993
0.0774783 0.1613 0.802269
0.0787499 0.161201 0.80016
0.0800401 0.161144 0.798335
0.0813409 0.161114 0.79669
0.0825913 0.161007 0.794552
0.0838405 0.160909 0.792475
0.0851358 0.160894 0.790946
0.0863873 0.160817 0.789016
0.0876387 0.160748 0.787146
0.0889289 0.160747 0.785719
0.090237 0.160779 0.784508
0.0915298 0.160792 0.783185
0.0928872 0.160907 0.782508
0.0942464 0.161026 0.781865
0.0956477 0.161208 0.781622
0.0970645 0.161411 0.78152
0.0984677 0.161596 0.781295
0.0999045 0.161827 0.781366
0.101344 0.162061 0.781455
0.102776 0.162284 0.781471
0.104208 0.162506 0.781481
0.105666 0.16276 0.781698
0.10711 0.162996 0.781796
0.108566 0.163247 0.781983
0.110044 0.163522 0.782327
0.111541 0.163821 0.782814
0.113034 0.164112 0.783248
0.114539 0.164415 0.783762
0.116056 0.16473 0.784345
0.117586 0.165057 0.785
0.119108 0.165374 0.785585
0.120634 0.165691 0.786172
0.122138 0.165981 0.78659
0.123652 0.16628 0.787065
0.125136 0.166543 0.787311
0.126588 0.166769 0.787325
0.128048 0.167003 0.787396
