ply
format ascii 1.0
element vertex 1567
property float x
property float y
property float z
end_header
-0.0116663 -0.0494082 0.521382
-0.010707 -0.0493839 0.521326
-0.00974793 -0.0493609 0.521286
-0.00878802 -0.0493475 0.521369
-0.00782486 -0.0493551 0.521722
-0.00686192 -0.0493559 0.521987
-0.00589766 -0.0493603 0.5223
-0.00493093 -0.0493722 0.522709
-0.00396612 -0.049372 0.522962
-0.00300161 -0.0493679 0.523165
-0.00203349 -0.049375 0.523513
-0.00106685 -0.0493744 0.523762
-9.81699e-05 -0.0493783 0.524069
0.000874171 -0.0493904 0.524481
0.00184929 -0.0494069 0.524953
0.00282422 -0.0494197 0.525374
0.00380024 -0.0494321 0.525793
0.00477351 -0.0494357 0.526096
0.00574709 -0.0494382 0.526387
0.00671732 -0.0494322 0.526568
0.00769233 -0.0494351 0.526863
0.00867752 -0.049456 0.527392
0.00966987 -0.0494876 0.52806
0.01067 -0.0495288 0.528854
0.0116792 -0.0495817 0.529799
0.0126891 -0.0496305 0.530691
0.0136985 -0.0496744 0.531521
0.0147048 -0.0497099 0.532244
0.0156893 -0.0497104 0.532511
0.0166783 -0.0497157 0.532842
0.0176649 -0.0497167 0.533116
0.0186585 -0.0497254 0.533491
0.0196579 -0.0497411 0.533957
0.0206844 -0.0497897 0.534852
0.0217106 -0.0498345 0.535699
0.0227511 -0.0498932 0.536726
0.023811 -0.0499712 0.538006
0.0249249 -0.0501066 0.540037
0.0261618 -0.0503716 0.543758
0.0274113 -0.0506365 0.547482
0.0286648 -0.0508932 0.551102
0.0298949 -0.051113 0.554243
0.0310763 -0.0522777 0.556427
0.0310736 -0.0512699 0.556566
-0.0634047 -0.0538573 0.564635
-0.0634256 -0.052818 0.564707
-0.0622864 -0.052703 0.563507
-0.0611442 -0.0525804 0.562211
-0.0599704 -0.0524197 0.560424
-0.0587947 -0.0522505 0.558524
-0.0576175 -0.0520721 0.556508
-0.056466 -0.051915 0.554761
-0.0553325 -0.0517716 0.553189
-0.0542079 -0.0516323 0.551668
-0.0530829 -0.0514859 0.550056
-0.0519756 -0.0513545 0.548635
-0.0508779 -0.0512291 0.547289
-0.0497919 -0.0511129 0.54606
-0.0487109 -0.0509974 0.54484
-0.0476285 -0.0508739 0.543515
-0.0465568 -0.0507593 0.542302
-0.0454872 -0.0506411 0.541044
-0.04442 -0.0505199 0.539745
-0.0433438 -0.0503771 0.538165
-0.0422723 -0.0502329 0.536566
-0.0411929 -0.0500657 0.534668
-0.0401229 -0.0499035 0.532834
-0.0390606 -0.0497434 0.531025
-0.0380255 -0.0496237 0.529737
-0.0370032 -0.0495203 0.528659
-0.0359936 -0.0494355 0.527821
-0.0349912 -0.0493598 0.527099
-0.0339929 -0.0492871 0.526418
-0.0329989 -0.0492191 0.525795
-0.0320126 -0.0491643 0.525343
-0.0310301 -0.0491155 0.524969
-0.0300522 -0.0490754 0.524708
-0.0290765 -0.0490386 0.524488
-0.0281018 -0.0490017 0.524269
-0.0271248 -0.0489533 0.523899
-0.0261503 -0.0489087 0.523577
-0.0251779 -0.0488673 0.523297
-0.0242078 -0.0488309 0.523081
-0.0232389 -0.0487957 0.522882
-0.0222731 -0.0487732 0.522848
-0.0213083 -0.048755 0.52287
-0.0203438 -0.0487371 0.522895
-0.0193785 -0.0487108 0.522811
-0.0184136 -0.0486832 0.52271
-0.017449 -0.0486508 0.522546
-0.0164848 -0.0486067 0.522227
-0.0155217 -0.0485546 0.521805
-0.0145603 -0.0485091 0.521469
-0.0136003 -0.0484643 0.521142
-0.0126416 -0.0484165 0.520774
-0.0116838 -0.0483811 0.520569
-0.0107257 -0.0483571 0.520512
-0.009768 -0.0483343 0.520472
-0.00880941 -0.048321 0.520556
-0.00784827 -0.0483238 0.520851
-0.00688688 -0.0483244 0.521119
-0.00592392 -0.0483288 0.521436
-0.00495867 -0.0483401 0.521845
-0.00399509 -0.0483402 0.522106
-0.0030311 -0.0483395 0.522355
-0.00206317 -0.0483503 0.522758
-0.00109631 -0.0483541 0.523068
-0.000125718 -0.0483667 0.523495
0.00084861 -0.0483867 0.524019
0.00182471 -0.048407 0.524547
0.00280223 -0.0484274 0.525077
0.00378141 -0.0484478 0.525609
0.00475636 -0.0484556 0.525974
0.00573002 -0.0484583 0.526271
0.00670005 -0.0484522 0.526452
0.00767055 -0.0484461 0.526634
0.00864827 -0.048453 0.526988
0.00963217 -0.0484696 0.527471
0.0106255 -0.0485 0.528135
0.0116304 -0.0485464 0.529014
0.0126414 -0.048598 0.529962
0.0136536 -0.0486464 0.530868
0.0146648 -0.0486898 0.53171
0.0156557 -0.0486994 0.532102
0.016647 -0.0487092 0.532498
0.0176333 -0.0487103 0.532777
0.0186257 -0.0487183 0.533149
0.0196238 -0.0487325 0.533605
0.0206468 -0.0487754 0.534441
0.0216717 -0.0488182 0.535279
0.0227149 -0.0488793 0.536358
0.0237849 -0.0489675 0.537801
0.0249384 -0.0491446 0.54043
0.0261841 -0.0494124 0.544272
0.027436 -0.0496732 0.548023
0.0286821 -0.0499154 0.551529
0.0299006 -0.0501172 0.554499
0.0310351 -0.050226 0.556229
0.032136 -0.0513033 0.557276
0.032088 -0.0502501 0.556828
-0.0634346 -0.0517669 0.564628
-0.0622883 -0.0516471 0.563336
-0.0611363 -0.0515167 0.561907
-0.0599542 -0.0513503 0.560003
-0.0587513 -0.0511551 0.557719
-0.0575708 -0.0509755 0.555638
-0.0564218 -0.0508226 0.553907
-0.0552943 -0.0506873 0.552404
-0.0541759 -0.0505563 0.550956
-0.0530563 -0.0504179 0.54941
-0.0519509 -0.0502903 0.548004
-0.0508587 -0.0501728 0.546731
-0.0497814 -0.0500688 0.545635
-0.048709 -0.0499662 0.544553
-0.0476378 -0.0498598 0.543422
-0.0465756 -0.0497606 0.542385
-0.0455088 -0.049649 0.541184
-0.0444406 -0.049529 0.53987
-0.0433636 -0.0493882 0.53828
-0.042286 -0.0492374 0.536557
-0.0412012 -0.0490647 0.534541
-0.0401285 -0.0489008 0.532641
-0.0390638 -0.0487391 0.530769
-0.0380248 -0.0486136 0.529373
-0.0369987 -0.0485037 0.528183
-0.0359858 -0.0484121 0.527235
-0.0349801 -0.0483286 0.526391
-0.033981 -0.0482529 0.525652
-0.032988 -0.0481855 0.525022
-0.0320045 -0.0481355 0.524622
-0.0310249 -0.048092 0.524307
-0.0300511 -0.0480608 0.524157
-0.0290794 -0.0480339 0.524062
-0.0281084 -0.0480071 0.523969
-0.0271334 -0.0479647 0.523669
-0.0261613 -0.0479286 0.523452
-0.0251891 -0.0478879 0.523173
-0.0242192 -0.0478519 0.522957
-0.0232505 -0.0478176 0.522762
-0.0222856 -0.0477994 0.522783
-0.0213205 -0.0477778 0.522759
-0.020356 -0.0477597 0.52278
-0.0193905 -0.0477293 0.522637
-0.0184255 -0.0476975 0.522476
-0.0174607 -0.0476572 0.5222
-0.0164968 -0.0476091 0.52182
-0.0155343 -0.0475531 0.521334
-0.0145736 -0.0475039 0.520938
-0.0136145 -0.0474555 0.520553
-0.0126569 -0.0474081 0.520182
-0.0116999 -0.0473734 0.519978
-0.0107428 -0.0473504 0.519933
-0.00978607 -0.0473285 0.519902
-0.00882844 -0.0473148 0.519981
-0.00786889 -0.047313 0.52022
-0.00690872 -0.047312 0.520468
-0.00594789 -0.0473114 0.520723
-0.00498471 -0.0473183 0.52108
-0.00402259 -0.0473173 0.52133
-0.00305891 -0.0473197 0.521626
-0.00209102 -0.047334 0.522082
-0.00112271 -0.0473456 0.522503
-0.000148867 -0.0473698 0.523092
0.000828005 -0.0473978 0.523735
0.00180553 -0.0474224 0.524331
0.00278312 -0.0474429 0.524873
0.00376195 -0.0474628 0.525408
0.00473531 -0.0474673 0.525734
0.00570708 -0.0474664 0.525989
0.00667874 -0.0474642 0.526226
0.00764884 -0.047458 0.526407
0.00862352 -0.04746 0.5267
0.00960216 -0.0474667 0.52706
0.0105886 -0.047486 0.527587
0.011585 -0.0475187 0.528298
0.0125926 -0.0475645 0.529187
0.0136059 -0.0476162 0.530156
0.0146226 -0.0476678 0.531125
0.0156213 -0.0476898 0.531694
0.0166188 -0.047708 0.53221
0.0176052 -0.0477091 0.532495
0.0185967 -0.0477163 0.532862
0.0195908 -0.0477255 0.533257
0.0206092 -0.0477625 0.534031
0.0216332 -0.0478037 0.534862
0.0226781 -0.0478658 0.535981
0.0237535 -0.0479593 0.537527
0.0249207 -0.0481471 0.54036
0.026169 -0.048411 0.544235
0.0274206 -0.0486659 0.54799
0.0286618 -0.0488974 0.551428
0.0298738 -0.0490884 0.554316
0.0309978 -0.049184 0.555904
0.0320507 -0.0492077 0.55651
0.0331525 -0.050283 0.557546
0.0331131 -0.0492385 0.557212
-0.0622567 -0.0505595 0.562733
-0.0610846 -0.050411 0.561026
-0.0599028 -0.0502469 0.559107
-0.0587088 -0.0500634 0.556925
-0.0575216 -0.0498791 0.554731
-0.0563753 -0.0497307 0.553018
-0.0552582 -0.0496079 0.551648
-0.0541456 -0.0494847 0.550271
-0.0530311 -0.0493537 0.548787
-0.0519339 -0.0492372 0.547496
-0.0508495 -0.0491306 0.546339
-0.0497807 -0.0490387 0.545377
-0.0487194 -0.0489517 0.544481
-0.0476556 -0.0488572 0.543483
-0.0465971 -0.0487651 0.542516
-0.0455302 -0.0486561 0.541319
-0.0444612 -0.0485377 0.539996
-0.0433808 -0.0483949 0.538342
-0.0422998 -0.0482422 0.53655
-0.0412122 -0.0480685 0.534473
-0.0401367 -0.0479029 0.532506
-0.0390699 -0.0477406 0.53058
-0.0380268 -0.0476097 0.529077
-0.0369968 -0.0474937 0.527774
-0.0359801 -0.047395 0.526707
-0.0349727 -0.0473077 0.525791
-0.0339708 -0.0472253 0.524941
-0.0329775 -0.0471554 0.524261
-0.0319956 -0.0471073 0.523875
-0.0310205 -0.0470728 0.523674
-0.0300497 -0.0470474 0.523596
-0.0290832 -0.0470332 0.52367
-0.0281166 -0.0470188 0.523742
-0.0271434 -0.0469815 0.523503
-0.0261737 -0.0469537 0.523391
-0.0252026 -0.0469175 0.523167
-0.0242326 -0.0468824 0.522955
-0.0232639 -0.0468486 0.522761
-0.0222997 -0.0468338 0.522827
-0.0213331 -0.0468045 0.522694
-0.0203683 -0.046782 0.522656
-0.0194023 -0.0467476 0.522453
-0.0184369 -0.0467087 0.522188
-0.0174721 -0.0466612 0.521806
-0.0165088 -0.0466136 0.521423
-0.0155468 -0.0465544 0.520879
-0.0145869 -0.0465024 0.520435
-0.0136287 -0.0464541 0.52004
-0.0126717 -0.0464116 0.519724
-0.0117155 -0.0463778 0.519528
-0.0107586 -0.0463595 0.519544
-0.00980198 -0.046342 0.51957
-0.00884443 -0.0463318 0.519697
-0.00788609 -0.0463255 0.519878
-0.0069273 -0.0463196 0.520064
-0.00596813 -0.046314 0.520252
-0.00500777 -0.0463117 0.520489
-0.00404873 -0.0463022 0.520626
-0.00308726 -0.0463003 0.520867
-0.00212066 -0.0463139 0.521323
-0.0011532 -0.0463261 0.52176
-0.000179205 -0.0463538 0.522408
0.00079823 -0.0463854 0.523113
0.00177772 -0.0464166 0.523814
0.00275627 -0.0464408 0.524418
0.00373616 -0.046464 0.525008
0.00471062 -0.0464717 0.525384
0.00568347 -0.0464739 0.525685
0.00665475 -0.0464718 0.525926
0.00762259 -0.046462 0.526063
0.00859513 -0.0464599 0.526304
0.00957025 -0.046462 0.526605
0.0105509 -0.0464722 0.527016
0.0115436 -0.0464985 0.527654
0.0125489 -0.0465426 0.528536
0.0135642 -0.0465966 0.529557
0.0145828 -0.0466511 0.530588
0.0155863 -0.0466804 0.531269
0.0165867 -0.0467025 0.531851
0.0175755 -0.0467073 0.532191
0.0185665 -0.0467138 0.532556
0.0195602 -0.0467222 0.532947
0.020574 -0.0467536 0.533659
0.021594 -0.0467898 0.534439
0.0226379 -0.0468498 0.535551
0.0237169 -0.046945 0.537155
0.0248907 -0.0471363 0.540101
0.0261342 -0.0473902 0.543925
0.0273876 -0.0476409 0.547706
0.0286279 -0.0478662 0.551138
0.0298356 -0.048049 0.553976
0.0309523 -0.0481358 0.555476
0.0320132 -0.0481668 0.556197
0.0330701 -0.0481922 0.556838
-0.0622007 -0.049451 0.561815
-0.0610085 -0.0492849 0.559824
-0.0598361 -0.0491315 0.558005
-0.0586546 -0.0489625 0.555972
-0.0574825 -0.0487961 0.553969
-0.0563423 -0.048656 0.552327
-0.0552308 -0.0485404 0.551022
-0.0541193 -0.04842 0.549648
-0.0530095 -0.0482958 0.548221
-0.051917 -0.048186 0.54699
-0.0508373 -0.0480862 0.545898
-0.0497758 -0.0480042 0.545047
-0.0487221 -0.0479279 0.544277
-0.0476653 -0.0478439 0.5434
-0.0466108 -0.0477589 0.542505
-0.0455498 -0.0476601 0.541421
-0.0444838 -0.0475488 0.540162
-0.0434029 -0.0474088 0.538504
-0.0423191 -0.0472552 0.536658
-0.0412309 -0.0470846 0.534573
-0.0401526 -0.0469183 0.532549
-0.039079 -0.0467482 0.530467
-0.0380335 -0.0466153 0.528899
-0.0369992 -0.0464931 0.527479
-0.0359784 -0.0463872 0.526284
-0.0349658 -0.0462898 0.525205
-0.0339646 -0.0462083 0.524345
-0.0329709 -0.0461367 0.523624
-0.0319904 -0.0460902 0.523249
-0.0310183 -0.0460611 0.523115
-0.0300514 -0.046044 0.52315
-0.0290871 -0.0460342 0.523286
-0.0281226 -0.0460241 0.523416
-0.0271519 -0.0459946 0.523277
-0.0261839 -0.0459714 0.523225
-0.0252141 -0.04594 0.523061
-0.0242454 -0.0459097 0.52291
-0.0232774 -0.0458795 0.52276
-0.0223124 -0.0458609 0.522772
-0.0213451 -0.0458273 0.522574
-0.0203797 -0.0458004 0.522471
-0.0194136 -0.0457619 0.522205
-0.0184483 -0.0457197 0.521886
-0.0174839 -0.0456732 0.521509
-0.0165213 -0.0456305 0.521181
-0.0155597 -0.0455727 0.520643
-0.0146002 -0.0455219 0.520202
-0.0136423 -0.0454746 0.51981
-0.0126855 -0.0454364 0.519545
-0.0117295 -0.0454035 0.519355
-0.0107729 -0.0453861 0.519381
-0.00981606 -0.0453721 0.519456
-0.00885861 -0.045362 0.519585
-0.00790167 -0.0453484 0.519666
-0.00694402 -0.0453383 0.519795
-0.00598618 -0.0453279 0.51992
-0.00502827 -0.0453175 0.520045
-0.00407106 -0.0453035 0.520121
-0.00311062 -0.0453008 0.520354
-0.00214597 -0.0453104 0.520761
-0.00117941 -0.0453222 0.5212
-0.000206064 -0.0453493 0.521856
0.000771818 -0.0453835 0.522613
0.00175199 -0.0454177 0.52337
0.0027313 -0.0454444 0.524021
0.00371205 -0.0454701 0.524659
0.0046872 -0.04548 0.525073
0.00565934 -0.0454814 0.525369
0.00662999 -0.0454788 0.525606
0.00759941 -0.0454727 0.525796
0.00857156 -0.0454715 0.526053
0.00954683 -0.0454737 0.526361
0.0105255 -0.0454797 0.52672
0.0115144 -0.0455006 0.527294
0.0125134 -0.0455349 0.528057
0.0135248 -0.0455829 0.529017
0.0145428 -0.0456358 0.530046
0.0155482 -0.0456685 0.530788
0.0165505 -0.0456934 0.531423
0.0175422 -0.0457019 0.531822
0.0185351 -0.0457112 0.532232
0.0195281 -0.045719 0.532623
0.0205382 -0.045746 0.533287
0.0215513 -0.0457732 0.533956
0.0225938 -0.0458316 0.535069
0.0236766 -0.0459286 0.536736
0.024849 -0.0461139 0.539665
0.0260866 -0.0463564 0.543415
0.0273409 -0.0466031 0.547228
0.0285826 -0.0468245 0.550684
0.029786 -0.0469998 0.553481
0.0309057 -0.0470881 0.555037
0.0319716 -0.0471226 0.555822
0.0330236 -0.047143 0.556406
-0.0608993 -0.0481319 0.558188
-0.0597604 -0.0480113 0.556784
-0.0586058 -0.0478704 0.555093
-0.0574479 -0.0477202 0.55327
-0.0563175 -0.047592 0.551754
-0.0552146 -0.0474869 0.550563
-0.0541074 -0.0473728 0.549243
-0.0529987 -0.0472516 0.547823
-0.051907 -0.0471443 0.546595
-0.0508286 -0.0470472 0.545513
-0.0497647 -0.0469632 0.544612
-0.0487116 -0.0468883 0.54384
-0.0476581 -0.0468094 0.543011
-0.0466079 -0.0467307 0.542182
-0.045551 -0.0466389 0.541168
-0.0444942 -0.0465421 0.540083
-0.043417 -0.0464102 0.5385
-0.0423336 -0.0462608 0.536666
-0.0412453 -0.0460936 0.53458
-0.0401646 -0.0459273 0.532503
-0.0390839 -0.0457487 0.530249
-0.0380339 -0.0456103 0.528564
-0.0369973 -0.0454856 0.527072
-0.0359711 -0.0453705 0.525715
-0.0349575 -0.0452711 0.524579
-0.0339589 -0.0451945 0.523767
-0.0329678 -0.0451282 0.5231
-0.0319898 -0.0450863 0.522779
-0.0310215 -0.0450649 0.52275
-0.0300567 -0.0450519 0.522843
-0.0290931 -0.0450423 0.522982
-0.0281291 -0.0450321 0.523113
-0.0271601 -0.0450068 0.523029
-0.0261936 -0.044988 0.523038
-0.0252253 -0.0449615 0.522936
-0.0242578 -0.0449358 0.522846
-0.02329 -0.0449062 0.522699
-0.0223243 -0.0448837 0.522654
-0.0213564 -0.0448462 0.522394
-0.0203903 -0.0448119 0.52218
-0.019424 -0.0447698 0.521853
-0.0184589 -0.0447243 0.521478
-0.017495 -0.0446752 0.521052
-0.0165331 -0.0446332 0.520724
-0.0155724 -0.0445808 0.520249
-0.0146134 -0.0445352 0.519871
-0.0136559 -0.0444966 0.519591
-0.0126991 -0.0444663 0.519432
-0.011743 -0.0444376 0.519295
-0.0107861 -0.0444236 0.51937
-0.00982927 -0.0444097 0.519446
-0.00887184 -0.0443996 0.519576
-0.00791487 -0.0443862 0.519659
-0.00695775 -0.0443728 0.519743
-0.00600098 -0.0443583 0.51981
-0.00504414 -0.0443438 0.519878
-0.00408821 -0.0443261 0.519898
-0.00312823 -0.0443228 0.520126
-0.00216396 -0.0443316 0.520531
-0.00119799 -0.0443422 0.520962
-0.000225296 -0.0443679 0.521611
0.000751952 -0.0444002 0.522357
0.00173175 -0.0444334 0.523116
0.00271075 -0.0444593 0.523769
0.00369132 -0.0444846 0.524414
0.00466606 -0.0444939 0.524828
0.00563756 -0.0444947 0.525119
0.00660578 -0.0444879 0.5253
0.00757665 -0.0444853 0.525542
0.00855079 -0.0444873 0.525853
0.00952645 -0.04449 0.526173
0.0105044 -0.0444961 0.526541
0.0114903 -0.0445123 0.527058
0.0124838 -0.0445372 0.527702
0.0134867 -0.0445723 0.528493
0.0145025 -0.0446226 0.529508
0.0155078 -0.0446542 0.530252
0.0165123 -0.0446823 0.530944
0.0175063 -0.0446942 0.5314
0.0185045 -0.0447105 0.531922
0.0194972 -0.044718 0.532317
0.0205039 -0.0447406 0.532931
0.0215093 -0.0447588 0.533482
0.0225498 -0.0448142 0.534577
0.023635 -0.0449124 0.536299
0.024781 -0.0450669 0.538847
0.0260077 -0.0452934 0.542452
0.0272611 -0.0455346 0.546276
0.0284993 -0.0457491 0.549715
0.0297006 -0.0459187 0.552495
0.0308503 -0.0460331 0.554469
0.031928 -0.046078 0.555423
0.0329751 -0.0460941 0.555957
-0.0596658 -0.0468775 0.555307
-0.0585467 -0.0467714 0.554073
-0.057413 -0.0466466 0.552569
-0.0562925 -0.0465297 0.551178
-0.055195 -0.0464314 0.550053
-0.0540887 -0.0463197 0.548735
-0.0529846 -0.0462053 0.547374
-0.0518943 -0.0461009 0.546158
-0.0508201 -0.0460101 0.545136
-0.0497568 -0.0459275 0.544232
-0.0487035 -0.0458531 0.543446
-0.0476507 -0.0457757 0.542616
-0.0466037 -0.045702 0.541838
-0.0455541 -0.045621 0.540954
-0.0445072 -0.0455392 0.540058
-0.0434337 -0.0454155 0.538551
-0.0423533 -0.0452739 0.536784
-0.0412644 -0.0451098 0.534689
-0.0401783 -0.0449391 0.532496
-0.0390901 -0.0447524 0.530066
-0.0380355 -0.0446085 0.528258
-0.0369946 -0.0444779 0.526642
-0.0359652 -0.0443583 0.525184
-0.0349526 -0.0442612 0.524051
-0.0339552 -0.0441868 0.523249
-0.0329649 -0.0441216 0.52258
-0.0319893 -0.044084 0.522312
-0.0310231 -0.0440661 0.522332
-0.030059 -0.044053 0.522422
-0.0290973 -0.0440468 0.522613
-0.0281351 -0.0440399 0.522793
-0.0271679 -0.0440187 0.522765
-0.026203 -0.0440039 0.52283
-0.0252362 -0.0439824 0.522797
-0.0242699 -0.0439609 0.522763
-0.0233024 -0.0439323 0.522625
-0.022336 -0.043906 0.522523
-0.0213677 -0.0438653 0.522208
-0.0204006 -0.0438238 0.52188
-0.019434 -0.0437754 0.521452
-0.0184691 -0.0437266 0.521015
-0.0175059 -0.0436777 0.520578
-0.0165449 -0.0436365 0.520255
-0.015585 -0.0435927 0.519892
-0.0146267 -0.0435559 0.519631
-0.0136693 -0.0435258 0.519468
-0.0127124 -0.0434999 0.519368
-0.0117562 -0.0434752 0.519285
-0.0107993 -0.0434613 0.51936
-0.00984247 -0.0434474 0.519436
-0.00888503 -0.043437 0.519564
-0.00792808 -0.0434235 0.519645
-0.00697107 -0.0434098 0.519724
-0.0060142 -0.0433956 0.519796
-0.00505732 -0.0433812 0.519866
-0.00410142 -0.0433637 0.519888
-0.00314247 -0.0433568 0.520066
-0.00217844 -0.0433646 0.520464
-0.00121273 -0.0433741 0.520886
-0.000241567 -0.0433949 0.521478
0.000733869 -0.0434223 0.522166
0.001713 -0.0434535 0.522914
0.00269037 -0.0434755 0.523524
0.00366921 -0.0434971 0.524127
0.0046437 -0.0435062 0.524548
0.00561487 -0.0435069 0.524843
0.00658251 -0.0434996 0.525019
0.00755489 -0.0435001 0.525311
0.00853088 -0.0435055 0.525676
0.00950833 -0.043512 0.526059
0.0104869 -0.0435176 0.526429
0.0114698 -0.0435293 0.526888
0.0124573 -0.0435451 0.52741
0.0134533 -0.0435704 0.528075
0.0144627 -0.0436113 0.528972
0.0154669 -0.0436415 0.529711
0.0164742 -0.0436731 0.530472
0.0174704 -0.0436888 0.530995
0.0184723 -0.0437088 0.531583
0.0194649 -0.0437159 0.531979
0.0204675 -0.0437336 0.532532
0.0214633 -0.0437425 0.532955
0.0224922 -0.0437842 0.533871
0.0235579 -0.0438606 0.535307
0.0246972 -0.0440063 0.537785
0.0259213 -0.0442262 0.541379
0.0271768 -0.0444649 0.54526
0.0284215 -0.044681 0.548806
0.0296363 -0.0448604 0.551801
0.0307889 -0.0449749 0.553824
0.0318657 -0.045019 0.554789
0.0329111 -0.0450335 0.55531
-0.0606386 -0.0458049 0.554361
-0.0595512 -0.0457306 0.553563
-0.0584812 -0.0456697 0.552965
-0.0573736 -0.0455709 0.551804
-0.0562636 -0.0454656 0.550546
-0.0551677 -0.04537 0.549431
-0.054063 -0.0452613 0.548121
-0.0529637 -0.0451533 0.54682
-0.0518781 -0.0450553 0.545665
-0.050805 -0.0449666 0.544646
-0.0497427 -0.044886 0.543748
-0.0486895 -0.0448124 0.542951
-0.047637 -0.0447359 0.542111
-0.0465913 -0.0446641 0.541341
-0.0455488 -0.0445929 0.540577
-0.044512 -0.0445257 0.539872
-0.0434452 -0.0444133 0.538494
-0.0423701 -0.0442823 0.536839
-0.0412831 -0.0441252 0.534792
-0.0401938 -0.0439535 0.532527
-0.0390981 -0.0437595 0.529926
-0.0380384 -0.0436102 0.52799
-0.0369934 -0.0434746 0.526256
-0.0359628 -0.043354 0.524744
-0.0349512 -0.0432596 0.523622
-0.0339564 -0.0431909 0.522882
-0.0329687 -0.043131 0.522272
-0.0319938 -0.0430942 0.522008
-0.0310281 -0.0430765 0.52203
-0.0300645 -0.0430634 0.522121
-0.0291033 -0.043057 0.52231
-0.0281415 -0.0430499 0.522491
-0.0271761 -0.0430325 0.522516
-0.0262116 -0.0430182 0.522588
-0.0252464 -0.0430007 0.522612
-0.0242812 -0.0429832 0.522635
-0.0233139 -0.042955 0.522499
-0.0223469 -0.0429254 0.522341
-0.0213795 -0.042888 0.522066
-0.0204121 -0.0428438 0.521688
-0.0194449 -0.0427894 0.521155
-0.0184804 -0.0427405 0.520706
-0.0175177 -0.042692 0.520262
-0.0165571 -0.0426511 0.519931
-0.0155978 -0.0426123 0.519632
-0.0146399 -0.0425837 0.519487
-0.0136826 -0.0425586 0.519394
-0.0127257 -0.0425369 0.519352
-0.0117694 -0.0425128 0.519274
-0.0108125 -0.0424989 0.51935
-0.00985568 -0.042485 0.519425
-0.00889838 -0.0424743 0.51955
-0.00794136 -0.0424607 0.519629
-0.00698374 -0.0424501 0.519756
-0.00602593 -0.0424396 0.519884
-0.00506793 -0.042429 0.52001
-0.00411159 -0.0424121 0.52004
-0.00315249 -0.0424048 0.520216
-0.00219041 -0.0424052 0.52051
-0.00122703 -0.0424074 0.52083
-0.000260058 -0.0424166 0.521258
0.000713369 -0.042439 0.521887
0.00169057 -0.0424656 0.52258
0.00266868 -0.0424897 0.523237
0.00364888 -0.0425141 0.523897
0.0046267 -0.0425299 0.524427
0.0055997 -0.0425339 0.524778
0.0065692 -0.04253 0.525009
0.00754167 -0.0425304 0.525305
0.00851776 -0.0425353 0.525672
0.00949577 -0.0425415 0.526056
0.0104738 -0.0425465 0.526424
0.0114545 -0.0425537 0.526825
0.0124363 -0.0425611 0.52723
0.0134256 -0.0425769 0.527764
0.0144314 -0.0426121 0.528596
0.0154313 -0.0426376 0.529278
0.016439 -0.0426693 0.530058
0.0174389 -0.0426885 0.530647
0.0184402 -0.0427082 0.531242
0.0194285 -0.042711 0.53158
0.0204235 -0.0427201 0.532014
0.0214048 -0.0427136 0.532209
0.0224133 -0.0427344 0.532824
0.0234493 -0.0427812 0.533839
0.0245494 -0.042887 0.535765
0.0257708 -0.0431021 0.539375
0.0270365 -0.0433467 0.543445
0.0282924 -0.0435701 0.547191
0.0295313 -0.0437677 0.550542
0.0307139 -0.0439076 0.553007
0.0317854 -0.0439463 0.55391
0.0328198 -0.0439525 0.554313
0.0339319 -0.0450266 0.555507
0.0338337 -0.0439411 0.554444
-0.059445 -0.044597 0.551934
-0.0583907 -0.0445492 0.551514
-0.0573178 -0.0444825 0.550808
-0.0562219 -0.0443914 0.54973
-0.0551319 -0.0443023 0.548683
-0.0540325 -0.0442001 0.547434
-0.0529381 -0.0440984 0.546193
-0.0518541 -0.0440031 0.545048
-0.0507824 -0.0439166 0.544034
-0.0497213 -0.043838 0.543139
-0.0486692 -0.043766 0.542344
-0.0476206 -0.0436946 0.541559
-0.0465792 -0.0436285 0.540852
-0.0455439 -0.0435667 0.54021
-0.0445141 -0.043509 0.53963
-0.0434563 -0.0434107 0.53843
-0.0423841 -0.0432867 0.536835
-0.0412995 -0.0431366 0.534842
-0.0402051 -0.0429617 0.532466
-0.0391046 -0.0427644 0.529747
-0.0380379 -0.042607 0.527633
-0.0369909 -0.0424701 0.525834
-0.0359588 -0.0423489 0.524269
-0.0349503 -0.0422607 0.52321
-0.0339584 -0.0421974 0.522533
-0.0329731 -0.0421425 0.521982
-0.031997 -0.042103 0.521668
-0.0310306 -0.0420822 0.521639
-0.0300662 -0.0420659 0.521681
-0.0291058 -0.0420593 0.52187
-0.0281448 -0.0420523 0.522055
-0.0271823 -0.0420419 0.522187
-0.0262197 -0.0420314 0.522317
-0.0252567 -0.0420206 0.522443
-0.0242927 -0.0420066 0.522519
-0.0233255 -0.0419786 0.522381
-0.0223581 -0.0419459 0.52217
-0.0213907 -0.0419088 0.521888
-0.0204231 -0.0418618 0.521455
-0.0194555 -0.0418015 0.520817
-0.0184914 -0.0417533 0.520362
-0.0175292 -0.041705 0.519909
-0.0165692 -0.0416654 0.519586
-0.0156106 -0.041631 0.519347
-0.0146531 -0.04161 0.519313
-0.013696 -0.0415888 0.519276
-0.0127391 -0.0415711 0.519292
-0.0117826 -0.0415505 0.519264
-0.0108257 -0.0415366 0.51934
-0.00986889 -0.0415226 0.519415
-0.00891208 -0.0415087 0.51949
-0.0079552 -0.0414947 0.519566
-0.006997 -0.0414874 0.519744
-0.00603823 -0.0414808 0.519933
-0.00507904 -0.0414744 0.520126
-0.00412149 -0.041461 0.520211
-0.0031611 -0.0414566 0.520434
-0.00219999 -0.0414529 0.520669
-0.00123773 -0.0414507 0.520928
-0.000273193 -0.0414527 0.521253
0.000700076 -0.0414735 0.521871
0.00167388 -0.0414918 0.522451
0.00265182 -0.0415149 0.523106
0.00363168 -0.0415381 0.523763
0.00461128 -0.041557 0.524354
0.00558443 -0.041561 0.524711
0.00655605 -0.0415606 0.525003
0.00753059 -0.041564 0.525351
0.008507 -0.0415689 0.525724
0.00948501 -0.0415745 0.526108
0.0104626 -0.0415788 0.526472
0.0114408 -0.0415814 0.526811
0.0124172 -0.0415812 0.527104
0.0134006 -0.0415888 0.527522
0.0144029 -0.0416185 0.528287
0.0153996 -0.0416395 0.528915
0.0164069 -0.0416699 0.529693
0.0174065 -0.041689 0.530291
0.0184043 -0.0417041 0.530829
0.0193845 -0.0416988 0.531046
0.0203675 -0.0416957 0.531297
0.0213336 -0.0416746 0.531264
0.0223154 -0.0416698 0.531488
0.0233139 -0.0416808 0.531963
0.024365 -0.0417399 0.533198
0.0255271 -0.0418978 0.535996
0.0280728 -0.0423848 0.544312
0.029348 -0.0426128 0.548231
0.0305712 -0.0427858 0.551281
0.0316941 -0.0428675 0.552889
0.0327171 -0.0428655 0.55317
0.0337239 -0.0428501 0.553237
-0.0593773 -0.0435024 0.550822
-0.0583291 -0.0434592 0.550461
-0.057252 -0.0433884 0.549671
-0.0561631 -0.0433042 0.548668
-0.0550789 -0.0432208 0.54768
-0.0539854 -0.0431251 0.546497
-0.0528931 -0.0430262 0.545264
-0.0518106 -0.042933 0.544118
-0.0507443 -0.0428525 0.54317
-0.0496881 -0.0427794 0.542334
-0.0486413 -0.0427131 0.541606
-0.0475979 -0.0426479 0.540892
-0.0465636 -0.0425903 0.540298
-0.0455357 -0.0425376 0.539778
-0.0445099 -0.0424851 0.539263
-0.0434635 -0.0424032 0.538286
-0.0424002 -0.0422937 0.536874
-0.0413188 -0.042152 0.534956
-0.0402201 -0.0419752 0.532487
-0.0391184 -0.0417812 0.529744
-0.0380423 -0.0416127 0.527398
-0.0369911 -0.0414716 0.525482
-0.0359577 -0.0413498 0.523865
-0.0349538 -0.0412708 0.522921
-0.0339627 -0.0412095 0.522253
-0.0329795 -0.0411592 0.521759
-0.0320038 -0.0411202 0.521442
-0.0310374 -0.041099 0.521404
-0.0300718 -0.0410789 0.521385
-0.0291131 -0.0410753 0.521624
-0.028154 -0.0410719 0.521868
-0.0271932 -0.0410653 0.522063
-0.0262319 -0.0410585 0.522252
-0.02527 -0.041051 0.522432
-0.024306 -0.041037 0.522508
-0.0233381 -0.0410063 0.52232
-0.02237 -0.0409707 0.522055
-0.0214021 -0.0409304 0.521715
-0.0204342 -0.0408807 0.521226
-0.0194664 -0.0408183 0.520533
-0.0185028 -0.040771 0.52008
-0.0175411 -0.0407238 0.519628
-0.0165815 -0.0406856 0.519318
-0.0156235 -0.0406548 0.519127
-0.0146663 -0.0406379 0.519154
-0.0137094 -0.0406199 0.519166
-0.0127524 -0.0406055 0.519234
-0.0117958 -0.0405881 0.519254
-0.0108389 -0.0405741 0.519329
-0.00988209 -0.0405602 0.519405
-0.00892528 -0.0405463 0.51948
-0.00796841 -0.0405323 0.519555
-0.0070094 -0.0405283 0.519789
-0.00604966 -0.0405254 0.52004
-0.00508911 -0.0405233 0.520304
-0.00413018 -0.0405135 0.520446
-0.00316841 -0.0405117 0.520717
-0.00220817 -0.0405038 0.520888
-0.00124685 -0.0404977 0.52109
-0.000282599 -0.040498 0.521395
0.000689421 -0.0405146 0.521961
0.00166193 -0.0405285 0.522484
0.00263982 -0.0405506 0.523138
0.00361964 -0.0405726 0.523791
0.00459778 -0.0405878 0.524337
0.00557276 -0.0405946 0.524748
0.00654669 -0.0405977 0.525099
0.00752164 -0.040601 0.525454
0.00849856 -0.0406057 0.525832
0.00947606 -0.0406101 0.526206
0.010452 -0.0406104 0.526514
0.0114254 -0.0406062 0.52675
0.0124015 -0.0406052 0.527037
0.0133818 -0.040609 0.527401
0.0143809 -0.0406336 0.528102
0.015375 -0.0406504 0.528677
0.0163778 -0.0406757 0.529391
0.0173708 -0.0406868 0.529876
0.0183604 -0.0406932 0.530284
0.0193324 -0.04068 0.530376
0.0203036 -0.0406657 0.53045
0.0212577 -0.0406339 0.530242
0.0222126 -0.0406044 0.530069
0.023174 -0.0405814 0.530001
0.024178 -0.0405986 0.530587
0.0252791 -0.0407013 0.532561
0.0291637 -0.0414639 0.545892
0.0304316 -0.0416719 0.549594
0.0316097 -0.0417983 0.551968
0.0326225 -0.0417887 0.552131
0.0336228 -0.0417695 0.552134
0.0347009 -0.0428113 0.552934
0.0345968 -0.041731 0.551827
-0.0593024 -0.0424055 0.549617
-0.058255 -0.0423621 0.549238
-0.0571846 -0.0422969 0.548513
-0.0560941 -0.0422113 0.547459
-0.0550125 -0.0421304 0.546481
-0.0539217 -0.0420375 0.545308
-0.0528353 -0.0419447 0.544136
-0.0517583 -0.0418573 0.543049
-0.0507008 -0.0417857 0.542215
-0.0496504 -0.0417185 0.54145
-0.0486125 -0.0416619 0.540853
-0.0475769 -0.0416053 0.540257
-0.0465505 -0.0415567 0.539789
-0.0455297 -0.0415126 0.53939
-0.0445074 -0.0414647 0.538933
-0.0434705 -0.0413961 0.538139
-0.0424134 -0.041297 0.536855
-0.0413337 -0.041161 0.534974
-0.0402325 -0.0409851 0.532451
-0.0391323 -0.0407981 0.529743
-0.0380508 -0.0406254 0.527265
-0.0369957 -0.0404813 0.525245
-0.0359645 -0.0403655 0.52368
-0.034963 -0.040292 0.522794
-0.0339706 -0.0402291 0.522082
-0.0329878 -0.0401799 0.521589
-0.0320102 -0.0401375 0.521205
-0.0310408 -0.0401092 0.521051
-0.0300728 -0.0400822 0.520917
-0.0291147 -0.040078 0.521152
-0.0281566 -0.0400749 0.521405
-0.0271981 -0.0400726 0.52167
-0.0262387 -0.0400695 0.521923
-0.0252794 -0.0400683 0.522208
-0.0243158 -0.0400545 0.522288
-0.023349 -0.0400274 0.522152
-0.0223817 -0.0399955 0.521935
-0.0214141 -0.0399555 0.521589
-0.0204463 -0.0399065 0.521095
-0.0194785 -0.039845 0.520395
-0.0185152 -0.0397989 0.519948
-0.0175537 -0.0397531 0.519504
-0.0165944 -0.0397186 0.519244
-0.0156366 -0.0396887 0.51906
-0.0146795 -0.0396746 0.519133
-0.0137226 -0.0396572 0.519152
-0.0127656 -0.0396429 0.519221
-0.011809 -0.0396257 0.519243
-0.0108521 -0.0396118 0.519319
-0.0098953 -0.0395979 0.519394
-0.00893849 -0.0395839 0.51947
-0.00798162 -0.03957 0.519545
-0.00702196 -0.0395689 0.519832
-0.0060612 -0.0395693 0.520143
-0.00509942 -0.0395707 0.52047
-0.00413904 -0.0395644 0.520671
-0.00317686 -0.0395626 0.520946
-0.00221742 -0.0395509 0.521059
-0.00125608 -0.039544 0.52125
-0.000292863 -0.0395407 0.521502
0.000677938 -0.0395533 0.522016
0.00164913 -0.0395634 0.522488
0.00262678 -0.039584 0.523135
0.00360499 -0.0396019 0.523736
0.00458291 -0.0396161 0.524279
0.00555793 -0.0396227 0.524695
0.00653553 -0.0396314 0.525147
0.00751082 -0.0396347 0.525509
0.00848785 -0.0396386 0.525883
0.00946534 -0.0396425 0.526257
0.0104405 -0.039642 0.526556
0.011412 -0.0396343 0.526739
0.0123881 -0.0396331 0.527028
0.0133689 -0.0396364 0.527393
0.0143627 -0.0396541 0.527998
0.0153502 -0.0396627 0.528451
0.0163432 -0.0396764 0.528988
0.0173252 -0.0396756 0.529287
0.0182983 -0.0396651 0.529424
0.0192591 -0.0396412 0.529338
0.0202174 -0.0396161 0.529231
0.0211589 -0.0395745 0.52885
0.0220903 -0.0395253 0.528339
0.0230223 -0.0394786 0.527872
0.0239848 -0.0394607 0.527885
0.0250313 -0.0395163 0.529125
0.0302238 -0.0405094 0.546995
0.0314552 -0.0406766 0.550119
0.0325248 -0.0407127 0.551046
0.0335184 -0.0406904 0.550997
0.0345012 -0.0406599 0.55081
-0.060344 -0.0414111 0.549702
-0.0592673 -0.0413453 0.548945
-0.0582145 -0.0412972 0.548478
-0.0571256 -0.0412165 0.547475
-0.0560324 -0.0411289 0.546357
-0.0549534 -0.0410505 0.545389
-0.053865 -0.0409603 0.544225
-0.0527807 -0.04087 0.543058
-0.0517092 -0.0407882 0.542031
-0.050654 -0.040719 0.541208
-0.0496093 -0.0406574 0.540511
-0.0485802 -0.0406095 0.540041
-0.0475531 -0.040562 0.539573
-0.0465343 -0.0405216 0.539224
-0.0455207 -0.0404855 0.538946
-0.0445028 -0.0404429 0.53856
-0.043475 -0.0403863 0.537941
-0.0424241 -0.040297 0.536782
-0.0413433 -0.0401627 0.534874
-0.0402396 -0.0399878 0.532293
-0.0391386 -0.0398041 0.529562
-0.0380526 -0.0396287 0.526966
-0.0369941 -0.0394822 0.524847
-0.0359676 -0.0393759 0.523393
-0.0349686 -0.0393074 0.522565
-0.0339782 -0.0392489 0.521903
-0.0329973 -0.0392036 0.521459
-0.0320182 -0.0391586 0.521019
-0.0310458 -0.0391238 0.52075
-0.0300763 -0.0390928 0.520544
-0.0291173 -0.0390848 0.52072
-0.0281588 -0.0390788 0.520928
-0.0272025 -0.0390799 0.521256
-0.026245 -0.03908 0.521568
-0.0252874 -0.039082 0.521911
-0.0243243 -0.0390683 0.521993
-0.0233588 -0.0390449 0.521912
-0.0223927 -0.0390168 0.521752
-0.0214253 -0.0389779 0.521412
-0.0204582 -0.0389325 0.520962
-0.0194917 -0.0388786 0.520369
-0.0185287 -0.0388367 0.519975
-0.0175672 -0.0387924 0.519543
-0.0166081 -0.0387613 0.519331
-0.0156499 -0.0387317 0.519142
-0.0146928 -0.0387143 0.519162
-0.0137358 -0.0386944 0.519136
-0.0127788 -0.0386802 0.519208
-0.0118222 -0.0386633 0.519233
-0.0108653 -0.0386494 0.519309
-0.00990851 -0.0386355 0.519384
-0.0089517 -0.0386215 0.519459
-0.00799482 -0.0386076 0.519535
-0.00703448 -0.0386092 0.519872
-0.00607283 -0.0386124 0.520236
-0.00510998 -0.0386165 0.520618
-0.00414824 -0.0386135 0.520879
-0.00318463 -0.0386145 0.521207
-0.00222572 -0.0386002 0.521278
-0.0012642 -0.0385927 0.521462
-0.000300466 -0.0385893 0.521716
0.000669394 -0.0385983 0.522181
0.00163965 -0.0386052 0.522611
0.00261714 -0.0386241 0.523245
0.0035937 -0.0386377 0.52379
0.00456969 -0.0386476 0.524272
0.0055466 -0.0386566 0.524738
0.00652623 -0.038668 0.525247
0.00750224 -0.0386714 0.52562
0.00847914 -0.0386749 0.525995
0.00945689 -0.0386776 0.526356
0.0104299 -0.0386732 0.526598
0.0113987 -0.0386623 0.526729
0.0123751 -0.038661 0.527022
0.0133558 -0.038664 0.527389
0.014347 -0.0386777 0.52794
0.0153281 -0.0386788 0.528276
0.0163089 -0.0386781 0.528582
0.0172768 -0.0386628 0.528638
0.0182321 -0.0386353 0.528484
0.0191782 -0.0385985 0.528173
0.0201222 -0.0385614 0.527854
0.0210535 -0.0385137 0.527353
0.0219718 -0.0384555 0.526674
0.0228937 -0.0384028 0.526086
0.0238073 -0.0383452 0.525415
0.0247998 -0.0383565 0.525924
0.0262432 -0.03971 0.532673
0.0259479 -0.038496 0.52864
0.0299383 -0.0392957 0.543368
0.0312335 -0.0395106 0.547398
0.0323685 -0.0395972 0.549221
0.0334219 -0.0396202 0.549948
0.0344025 -0.0395904 0.549764
-0.0603594 -0.0403919 0.54971
-0.0592745 -0.040321 0.548843
-0.0581945 -0.0402515 0.547998
-0.0570779 -0.040149 0.546596
-0.0559772 -0.0400559 0.545349
-0.0548995 -0.0399791 0.544376
-0.0538099 -0.0398884 0.543169
-0.0527318 -0.0398043 0.542071
-0.0516656 -0.0397278 0.541101
-0.0506156 -0.0396637 0.540339
-0.0495765 -0.0396076 0.539713
-0.0485556 -0.0395678 0.539363
-0.0475363 -0.0395281 0.539014
-0.0465252 -0.0394959 0.53879
-0.0455187 -0.0394676 0.538634
-0.0445047 -0.0394298 0.538316
-0.0434802 -0.0393779 0.537756
-0.0424323 -0.0392941 0.536655
-0.0413604 -0.0391745 0.534941
-0.0402523 -0.0389985 0.532264
-0.0391531 -0.0388221 0.529577
-0.038067 -0.0386512 0.52698
-0.0370062 -0.0385051 0.524804
-0.0359745 -0.038393 0.523207
-0.0349791 -0.0383316 0.522475
-0.0339874 -0.0382721 0.521774
-0.033002 -0.038219 0.521182
-0.0320201 -0.0381685 0.520632
-0.0310433 -0.0381242 0.520191
-0.0300701 -0.0380839 0.519816
-0.029111 -0.0380723 0.519932
-0.0281548 -0.0380689 0.520188
-0.0272021 -0.0380757 0.520621
-0.0262478 -0.0380817 0.52104
-0.025293 -0.0380894 0.52149
-0.0243316 -0.038079 0.521627
-0.0233684 -0.0380623 0.521657
-0.0224035 -0.038038 0.521557
-0.0214373 -0.038004 0.521288
-0.020471 -0.0379634 0.520905
-0.0195053 -0.0379166 0.520415
-0.0185424 -0.0378759 0.52003
-0.0175807 -0.0378327 0.519601
-0.0166213 -0.0377992 0.519338
-0.0156632 -0.0377693 0.519137
-0.0147059 -0.0377487 0.5191
-0.0137491 -0.0377289 0.519072
-0.0127923 -0.0377149 0.519148
-0.0118354 -0.037701 0.519223
-0.0108785 -0.037687 0.519298
-0.00992171 -0.0376731 0.519374
-0.0089649 -0.0376592 0.519449
-0.00800803 -0.0376452 0.519524
-0.00704769 -0.0376463 0.519862
-0.00608605 -0.037649 0.520225
-0.0051232 -0.0376527 0.520607
-0.00416056 -0.0376525 0.520922
-0.0031967 -0.0376534 0.521256
-0.00223758 -0.0376393 0.52133
-0.00127594 -0.0376317 0.521517
-0.000310828 -0.037631 0.521822
0.000656838 -0.0376341 0.522196
0.00162681 -0.0376398 0.522617
0.00260251 -0.0376544 0.52319
0.00357845 -0.0376662 0.523717
0.00455273 -0.0376727 0.524152
0.00553317 -0.0376871 0.524725
0.00651328 -0.0376985 0.525247
0.0074912 -0.0377043 0.525671
0.00847026 -0.0377104 0.5261
0.00945028 -0.0377154 0.52651
0.0104238 -0.0377108 0.526754
0.0113947 -0.0377027 0.526935
0.0123745 -0.0377039 0.527279
0.0133531 -0.0377035 0.527595
0.0143389 -0.0377101 0.528035
0.0153091 -0.0376981 0.528148
0.016276 -0.0376831 0.528209
0.0172302 -0.0376543 0.528026
0.0181715 -0.0376139 0.527639
0.0191032 -0.0375653 0.527107
0.0200376 -0.0375216 0.526661
0.0209608 -0.0374686 0.526049
0.0218703 -0.037406 0.525266
0.0227867 -0.037352 0.524637
0.023706 -0.0373023 0.524082
0.0246473 -0.0372725 0.523877
0.0257304 -0.0373582 0.525717
0.0320207 -0.0383497 0.544942
0.0331433 -0.0384258 0.546629
0.0341959 -0.0384494 0.547386
-0.0603799 -0.0393765 0.549784
-0.0592896 -0.0393031 0.548846
-0.0581912 -0.0392208 0.547751
-0.0570534 -0.0391033 0.546044
-0.0559408 -0.0390019 0.544613
-0.0548599 -0.0389231 0.543575
-0.053772 -0.0388349 0.542373
-0.0526992 -0.0387565 0.541338
-0.0516386 -0.0386858 0.540438
-0.050593 -0.0386263 0.539732
-0.0495582 -0.0385746 0.53916
-0.0485415 -0.0385388 0.538867
-0.047527 -0.0385039 0.53859
-0.046523 -0.0384791 0.538486
-0.0455233 -0.038458 0.538449
-0.0445128 -0.0384246 0.538195
-0.0434883 -0.0383734 0.537631
-0.0424425 -0.0382941 0.536571
-0.0413733 -0.0381807 0.534912
-0.0402654 -0.0380097 0.532242
-0.0391664 -0.0378383 0.529561
-0.0380823 -0.037675 0.527017
-0.0370211 -0.0375323 0.524835
-0.0359873 -0.0374199 0.523183
-0.034992 -0.0373601 0.522454
-0.0340004 -0.037302 0.521755
-0.0330115 -0.0372437 0.521052
-0.0320263 -0.037188 0.520392
-0.0310479 -0.0371405 0.519877
-0.0300734 -0.0370974 0.519439
-0.0291123 -0.0370799 0.519453
-0.028157 -0.0370762 0.519708
-0.0272049 -0.0370822 0.520139
-0.0262516 -0.0370877 0.52056
-0.0252977 -0.0370954 0.521019
-0.024338 -0.0370882 0.521215
-0.0233771 -0.0370776 0.521352
-0.0224151 -0.0370632 0.52142
-0.0214505 -0.0370368 0.521275
-0.020486 -0.0370065 0.521063
-0.0195211 -0.0369673 0.52069
-0.018558 -0.0369306 0.520362
-0.0175958 -0.0368883 0.519936
-0.0166357 -0.0368549 0.519665
-0.0156768 -0.0368192 0.519354
-0.0147192 -0.0367954 0.519254
-0.0137621 -0.0367723 0.519165
-0.0128053 -0.0367553 0.519187
-0.0118486 -0.0367386 0.519213
-0.0108917 -0.0367246 0.519288
-0.00993492 -0.0367107 0.519363
-0.00897811 -0.0366968 0.519439
-0.00802124 -0.0366828 0.519514
-0.0070616 -0.0366808 0.519801
-0.00610009 -0.0366828 0.520162
-0.0051373 -0.0366858 0.520542
-0.0041747 -0.0366853 0.520858
-0.0032109 -0.0366859 0.521196
-0.00225082 -0.0366747 0.52132
-0.00128918 -0.0366668 0.521506
-0.000322838 -0.0366685 0.521862
0.00064494 -0.0366711 0.522235
0.00161488 -0.0366761 0.522652
0.00258888 -0.0366865 0.523166
0.0035644 -0.0366969 0.523683
0.00453699 -0.0367001 0.524069
0.00551942 -0.0367171 0.524703
0.00650202 -0.0367314 0.525291
0.00748445 -0.0367431 0.52583
0.00846642 -0.0367515 0.526313
0.00944817 -0.036759 0.526778
0.0104225 -0.0367545 0.527028
0.011395 -0.0367466 0.527216
0.012372 -0.0367444 0.527509
0.0133486 -0.0367403 0.527765
0.0143282 -0.0367396 0.528085
0.0152892 -0.0367179 0.528022
0.0162447 -0.0366901 0.527851
0.0171849 -0.0366489 0.527434
0.0181145 -0.0365989 0.52686
0.0190349 -0.0365419 0.526154
0.0199641 -0.0364957 0.525645
0.0208819 -0.0364409 0.524981
0.0217933 -0.0363827 0.524252
0.0227125 -0.0363337 0.523691
0.0236379 -0.0362914 0.52325
0.0245821 -0.0362656 0.523109
0.025604 -0.0363015 0.524095
0.0269189 -0.0375219 0.528941
0.0267192 -0.036406 0.526334
0.0316037 -0.0370685 0.539786
0.0331614 -0.0374446 0.547013
0.0346959 -0.0377895 0.553674
0.0352484 -0.038472 0.548126
0.0357878 -0.0378293 0.554754
0.0362849 -0.0384819 0.54864
0.0368135 -0.0378247 0.555018
0.037806 -0.0388057 0.554741
0.0377045 -0.0377346 0.553714
-0.0614836 -0.0384247 0.550658
-0.0603816 -0.038347 0.549611
-0.0592921 -0.0382758 0.548682
-0.0581763 -0.0381819 0.547343
-0.0570347 -0.038064 0.545574
-0.0559166 -0.0379601 0.544053
-0.0548285 -0.0378765 0.542895
-0.0537425 -0.0377913 0.541705
-0.052679 -0.0377218 0.540798
-0.0516267 -0.0376594 0.540017
-0.0505853 -0.0376045 0.539368
-0.049554 -0.0375566 0.538846
-0.0485412 -0.0375247 0.538612
-0.0475306 -0.037494 0.538397
-0.0465305 -0.0374732 0.53836
-0.0455342 -0.0374557 0.538386
-0.0445265 -0.0374258 0.538184
-0.0434966 -0.0373696 0.53751
-0.0424503 -0.0372915 0.536437
-0.0413863 -0.0371871 0.534888
-0.0402888 -0.0370338 0.532454
-0.039192 -0.0368706 0.529836
-0.0381109 -0.0367164 0.527379
-0.0370483 -0.0365766 0.525179
-0.0360086 -0.0364594 0.523387
-0.035004 -0.036387 0.522405
-0.0340106 -0.0363271 0.521649
-0.0330181 -0.036264 0.520835
-0.0320294 -0.0362025 0.520046
-0.0310479 -0.0361491 0.519406
-0.0300728 -0.036104 0.518916
-0.0291113 -0.036084 0.518881
-0.0281559 -0.0360775 0.519093
-0.0272048 -0.0360827 0.519517
-0.0262524 -0.0360875 0.519936
-0.0253006 -0.0360977 0.520453
-0.024343 -0.036094 0.520715
-0.0233853 -0.0360921 0.521012
-0.0224262 -0.0360868 0.521248
-0.0214639 -0.03607 0.521272
-0.0205006 -0.0360471 0.521186
-0.0195365 -0.036015 0.52093
-0.0185733 -0.0359817 0.520651
-0.0176105 -0.0359402 0.520221
-0.01665 -0.035907 0.519947
-0.0156904 -0.0358689 0.519578
-0.0147325 -0.0358421 0.519419
-0.0137751 -0.0358159 0.519267
-0.0128183 -0.0357958 0.51923
-0.0118618 -0.0357762 0.519202
-0.0109049 -0.0357623 0.519278
-0.00994813 -0.0357484 0.519353
-0.00899132 -0.0357344 0.519428
-0.00803444 -0.0357205 0.519504
-0.00707545 -0.0357151 0.519737
-0.00611496 -0.0357136 0.520042
-0.00515252 -0.0357158 0.520416
-0.00419101 -0.0357121 0.520679
-0.0032275 -0.0357124 0.521019
-0.00226652 -0.0357039 0.521197
-0.00130391 -0.0356985 0.521431
-0.000337652 -0.0356998 0.521789
0.000631119 -0.0357043 0.522208
0.00159979 -0.0357063 0.52258
0.0025734 -0.0357154 0.523083
0.00354897 -0.0357254 0.523605
0.00452139 -0.0357278 0.523986
0.00550423 -0.0357448 0.524637
0.00648865 -0.0357612 0.525281
0.00747349 -0.0357754 0.525883
0.00845764 -0.0357864 0.526425
0.009443 -0.0357967 0.526956
0.0104204 -0.0357955 0.527271
0.0113978 -0.0357932 0.527568
0.0123754 -0.0357908 0.527862
0.0133498 -0.0357831 0.528059
0.0143242 -0.0357755 0.528256
0.0152765 -0.0357442 0.528013
0.0162189 -0.0357046 0.527611
0.0171461 -0.035652 0.526965
0.0180662 -0.0355945 0.526228
0.0189754 -0.0355299 0.525356
0.0198969 -0.035479 0.52474
0.0208093 -0.0354223 0.524015
0.0217234 -0.0353687 0.523347
0.0226447 -0.0353239 0.522845
0.0235773 -0.035289 0.522526
0.0245271 -0.0352689 0.522487
0.0254924 -0.0352608 0.522672
0.0265419 -0.0353148 0.524027
0.033186 -0.0364669 0.547485
-0.0614727 -0.0373854 0.550328
-0.0603811 -0.0373166 0.549411
-0.0592978 -0.0372514 0.54856
-0.0581721 -0.0371524 0.547083
-0.0570342 -0.0370402 0.545361
-0.0559159 -0.0369386 0.543832
-0.0548202 -0.0368508 0.542557
-0.0537344 -0.0367674 0.541362
-0.0526762 -0.0367037 0.54053
-0.0516255 -0.0366437 0.539768
-0.0505852 -0.0365906 0.539129
-0.0495603 -0.0365494 0.53871
-0.0485479 -0.0365181 0.538478
-0.0475379 -0.0364884 0.538271
-0.0465414 -0.036471 0.538297
-0.0455479 -0.0364565 0.538375
-0.0445402 -0.036427 0.538174
-0.04351 -0.0363719 0.537495
-0.0424664 -0.0362987 0.536476
-0.0414124 -0.036209 0.535152
-0.0403279 -0.0360764 0.533023
-0.0392446 -0.0359361 0.53075
-0.0381656 -0.0357913 0.528386
-0.0370983 -0.035651 0.526109
-0.0360474 -0.0355232 0.524059
-0.0350291 -0.0354339 0.522727
-0.0340222 -0.0353551 0.521591
-0.033026 -0.0352872 0.520657
-0.032037 -0.0352261 0.51985
-0.0310543 -0.0351712 0.519158
-0.0300798 -0.0351272 0.518671
-0.0291175 -0.0351052 0.518594
-0.0281612 -0.0350954 0.518748
-0.0272081 -0.0350938 0.519057
-0.0262562 -0.0350976 0.519466
-0.0253053 -0.0351071 0.519984
-0.0243505 -0.0351093 0.520364
-0.0233953 -0.0351135 0.520782
-0.0224387 -0.0351166 0.521181
-0.0214785 -0.0351087 0.521372
-0.0205163 -0.0350927 0.52141
-0.0195527 -0.0350668 0.521261
-0.0185897 -0.0350399 0.521093
-0.0176261 -0.0349987 0.520654
-0.0166646 -0.0349635 0.520329
-0.0157044 -0.034926 0.519958
-0.0147456 -0.0348942 0.519695
-0.0137881 -0.0348623 0.51943
-0.0128312 -0.034839 0.519329
-0.0118748 -0.0348165 0.519242
-0.0109181 -0.0347999 0.519267
-0.00996133 -0.0347859 0.519343
-0.00900452 -0.034772 0.519418
-0.00804765 -0.0347581 0.519493
-0.00708946 -0.0347496 0.519672
-0.00612991 -0.0347445 0.519916
-0.00516786 -0.0347454 0.520275
-0.00420674 -0.0347414 0.520539
-0.00324317 -0.0347416 0.520884
-0.00228126 -0.0347358 0.521117
-0.00131743 -0.0347331 0.521408
-0.000351147 -0.034734 0.521768
0.000617732 -0.0347382 0.522192
0.0015879 -0.0347425 0.522617
0.00256188 -0.0347514 0.523131
0.00353751 -0.0347607 0.523654
0.00450992 -0.0347624 0.524032
0.0054944 -0.0347808 0.524728
0.00647738 -0.0347939 0.525325
0.00746447 -0.0348102 0.525984
0.00845095 -0.0348236 0.526588
0.00944136 -0.0348392 0.527236
0.0104221 -0.0348406 0.52761
0.0114054 -0.0348439 0.528022
0.0123841 -0.0348413 0.528319
0.0133562 -0.0348304 0.52846
0.0143251 -0.0348164 0.528537
0.0152689 -0.0347767 0.528118
0.0162025 -0.0347289 0.527545
0.0171207 -0.0346687 0.52673
0.0180368 -0.0346095 0.525932
0.0189392 -0.0345407 0.524949
0.0198604 -0.0344911 0.524336
0.0207723 -0.0344358 0.52361
0.0216887 -0.0343864 0.522999
0.0226103 -0.034343 0.522503
0.0235457 -0.0343117 0.522243
0.0244919 -0.0342893 0.522156
0.0254566 -0.0342809 0.522339
0.0264444 -0.0342893 0.522847
0.027672 -0.0354243 0.526429
0.0275058 -0.0343479 0.524334
-0.0614716 -0.0363536 0.550123
-0.0603859 -0.0362903 0.549279
-0.0593065 -0.0362294 0.548479
-0.0581717 -0.0361264 0.546875
-0.0570348 -0.0360178 0.545162
-0.0559162 -0.0359185 0.543626
-0.0548165 -0.0358297 0.542287
-0.0537315 -0.0357488 0.541099
-0.0526774 -0.0356896 0.540323
-0.0516281 -0.035632 0.539578
-0.0505918 -0.0355833 0.539002
-0.0495705 -0.0355459 0.538641
-0.0485583 -0.0355153 0.53841
-0.0475486 -0.0354862 0.538208
-0.0465551 -0.0354717 0.538286
-0.0455616 -0.0354572 0.538364
-0.0445539 -0.0354283 0.538163
-0.043524 -0.0353746 0.537488
-0.042483 -0.0353064 0.53653
-0.0414414 -0.0352331 0.535476
-0.0403723 -0.0351233 0.533715
-0.0393037 -0.0350065 0.531817
-0.0382272 -0.0348712 0.52956
-0.0371561 -0.0347327 0.527237
-0.0360895 -0.0345895 0.524822
-0.0350562 -0.0344825 0.523104
-0.0340335 -0.0343826 0.52152
-0.0330319 -0.0343076 0.520416
-0.0320402 -0.0342427 0.519508
-0.0310582 -0.0341896 0.518824
-0.0300831 -0.0341446 0.518299
-0.0291214 -0.0341226 0.518217
-0.0281653 -0.0341118 0.518354
-0.0272114 -0.0341065 0.518597
-0.026259 -0.0341064 0.518941
-0.025309 -0.0341153 0.519463
-0.024356 -0.03412 0.5199
-0.0234035 -0.0341297 0.520439
-0.0224497 -0.0341412 0.521009
-0.0214924 -0.0341443 0.521419
-0.0205313 -0.0341342 0.52157
-0.0195683 -0.0341145 0.521535
-0.0186052 -0.0340905 0.521416
-0.0176413 -0.0340528 0.52103
-0.016679 -0.034016 0.520659
-0.0157182 -0.0339794 0.520292
-0.014759 -0.0339453 0.519974
-0.013801 -0.0339107 0.519645
-0.0128441 -0.033882 0.519431
-0.0118877 -0.0338567 0.519285
-0.0109314 -0.0338375 0.519257
-0.00997454 -0.0338236 0.519332
-0.00901773 -0.0338097 0.519408
-0.00806086 -0.0337957 0.519483
-0.00710336 -0.0337843 0.519608
-0.00614406 -0.0337783 0.51984
-0.0051823 -0.0337785 0.520193
-0.00422127 -0.0337739 0.520453
-0.00325666 -0.0337768 0.520862
-0.00229229 -0.0337765 0.521205
-0.001328 -0.0337741 0.52151
-0.000360318 -0.0337772 0.521923
0.000610398 -0.0337836 0.522401
0.00158109 -0.0337875 0.522832
0.0025542 -0.0337937 0.523307
0.00353006 -0.033802 0.523826
0.004501 -0.0338006 0.524152
0.00548328 -0.0338145 0.524781
0.00646427 -0.0338238 0.52532
0.00745322 -0.0338417 0.526029
0.00844441 -0.0338596 0.526741
0.00943984 -0.0338801 0.527505
0.0104256 -0.0338869 0.527995
0.0114149 -0.0338952 0.52852
0.0123951 -0.0338925 0.528823
0.0133656 -0.0338792 0.528916
0.0143299 -0.0338595 0.52888
0.0152672 -0.0338143 0.528337
0.0161953 -0.0337617 0.527646
0.0171069 -0.0336973 0.526716
0.0180201 -0.0336367 0.525862
0.0189193 -0.0335671 0.524826
0.01984 -0.0335185 0.52421
0.0207489 -0.0334621 0.523437
0.0216677 -0.0334162 0.522873
0.0225901 -0.0333741 0.522384
0.0235287 -0.0333461 0.522177
0.0244717 -0.0333218 0.522045
0.0254398 -0.0333158 0.52228
0.0264284 -0.0333238 0.522795
0.0274292 -0.0333389 0.523456
0.028583 -0.0344137 0.525965
0.0284367 -0.0333574 0.524185
-0.061454 -0.0353117 0.549706
-0.0603759 -0.0352547 0.548952
-0.0592977 -0.0351957 0.548162
-0.0581682 -0.035099 0.546625
-0.0570405 -0.0349997 0.545037
-0.0559231 -0.0349039 0.543515
-0.0548196 -0.0348146 0.542118
-0.0537375 -0.0347379 0.54097
-0.0526832 -0.0346798 0.540188
-0.0516344 -0.034624 0.539449
-0.050602 -0.0345794 0.538933
-0.0495843 -0.0345457 0.53863
-0.048572 -0.0345156 0.538399
-0.0475623 -0.034487 0.538197
-0.0465688 -0.0344725 0.538275
-0.0455725 -0.0344553 0.538301
-0.0445647 -0.0344266 0.538095
-0.0435401 -0.0343798 0.537529
-0.042505 -0.0343194 0.536694
-0.0414645 -0.0342498 0.535674
-0.0404119 -0.0341623 0.534296
-0.0393556 -0.0340646 0.532713
-0.0382833 -0.0339403 0.530597
-0.0372095 -0.0338048 0.528253
-0.0361381 -0.0336617 0.525756
-0.0350893 -0.0335381 0.523647
-0.0340515 -0.0334203 0.521649
