ply
format ascii 1.0
element vertex 1574
property float x
property float y
property float z
end_header
-0.0697177 -0.0862908 0.494921
-0.0690206 -0.0855917 0.495648
-0.0683205 -0.084891 0.496365
-0.0676074 -0.0841702 0.49692
-0.0668887 -0.0834417 0.497413
-0.0661676 -0.082711 0.497891
-0.0654492 -0.0819849 0.498416
-0.0647399 -0.0812716 0.499074
-0.0640488 -0.0805856 0.500002
-0.0633738 -0.079925 0.50119
-0.0627186 -0.0792947 0.5027
-0.0620733 -0.0786817 0.504409
-0.0614311 -0.0780743 0.506213
-0.0608156 -0.0775097 0.50849
-0.0601853 -0.0769256 0.510617
-0.0595582 -0.0763476 0.51286
-0.0589105 -0.0757407 0.514851
-0.0582385 -0.0750988 0.516515
-0.0575229 -0.0743895 0.517496
-0.0568099 -0.0736851 0.518553
-0.0560678 -0.0729358 0.519136
-0.055322 -0.0721806 0.519666
-0.0545939 -0.0714553 0.520543
-0.0538716 -0.0707407 0.52156
-0.053157 -0.0700389 0.522755
-0.0524408 -0.0693362 0.523967
-0.0509906 -0.0695218 0.526455
-0.0517091 -0.068609 0.524915
-0.0974144 -0.113447 0.496759
-0.0965979 -0.112592 0.496397
-0.0957815 -0.111736 0.496026
-0.0949154 -0.110818 0.49523
-0.0940316 -0.109874 0.494262
-0.0931244 -0.108902 0.493077
-0.092206 -0.107913 0.491766
-0.0912906 -0.106928 0.490448
-0.0904066 -0.105981 0.489372
-0.0895418 -0.10506 0.488443
-0.0887151 -0.104187 0.487834
-0.0879105 -0.103342 0.487402
-0.0871323 -0.102531 0.487203
-0.0863802 -0.101755 0.487238
-0.0856381 -0.10099 0.487359
-0.084921 -0.100259 0.48772
-0.0842156 -0.0995443 0.488198
-0.0835101 -0.0988285 0.488679
-0.0827861 -0.0980894 0.48899
-0.0820715 -0.0973623 0.489396
-0.0813564 -0.0966341 0.489799
-0.0806363 -0.0958996 0.490158
-0.0798821 -0.0951204 0.490174
-0.0791349 -0.0943504 0.490258
-0.0783755 -0.0935635 0.490209
-0.0776035 -0.0927591 0.490019
-0.0768393 -0.0919656 0.489907
-0.0761007 -0.091207 0.49007
-0.0753625 -0.0904485 0.490235
-0.0746256 -0.0896916 0.490413
-0.0739144 -0.0889695 0.490884
-0.0732042 -0.0882496 0.491377
-0.0725087 -0.0875506 0.492053
-0.0718225 -0.0868636 0.492848
-0.0711489 -0.0861956 0.493817
-0.0704559 -0.085501 0.494571
-0.0697692 -0.0848156 0.49542
-0.0690794 -0.084127 0.496253
-0.0683756 -0.0834191 0.496926
-0.0676576 -0.0826906 0.497425
-0.0669406 -0.0819658 0.497958
-0.066227 -0.0812449 0.49854
-0.0655191 -0.0805316 0.499209
-0.0648333 -0.0798524 0.500209
-0.0641685 -0.0792038 0.50153
-0.0635151 -0.078572 0.503048
-0.0628704 -0.077955 0.504742
-0.0622266 -0.0773411 0.506505
-0.0615795 -0.0767241 0.508275
-0.0609215 -0.076093 0.509938
-0.0602714 -0.0754739 0.51177
-0.059603 -0.0748302 0.51338
-0.0589129 -0.0741549 0.514689
-0.0582068 -0.0734574 0.515784
-0.0574968 -0.0727543 0.516843
-0.0567644 -0.072017 0.517547
-0.0560278 -0.0712745 0.518205
-0.0553063 -0.0705563 0.519154
-0.0545872 -0.0698432 0.520182
-0.0538748 -0.0691407 0.521367
-0.053161 -0.0684385 0.522578
-0.0524342 -0.0677168 0.523582
-0.0509448 -0.0678285 0.525236
-0.0516821 -0.0669535 0.524103
-0.0501648 -0.0670219 0.525234
-0.0509136 -0.0661654 0.524317
-0.049438 -0.0663048 0.526359
-0.0501416 -0.0653704 0.524449
-0.098188 -0.112683 0.496699
-0.0973829 -0.111844 0.496436
-0.0965801 -0.111007 0.496183
-0.0957294 -0.11011 0.495526
-0.0948464 -0.109171 0.494582
-0.0939444 -0.108209 0.493459
-0.0930235 -0.107221 0.492144
-0.0920919 -0.10622 0.49071
-0.0911843 -0.105248 0.48945
-0.0902971 -0.1043 0.488333
-0.0894546 -0.103409 0.48759
-0.0886359 -0.102548 0.487042
-0.0878518 -0.10173 0.486788
-0.0870996 -0.100954 0.48682
-0.0863582 -0.100192 0.486951
-0.085642 -0.0994608 0.487312
-0.084937 -0.0987453 0.487787
-0.0842313 -0.0980278 0.488258
-0.0835072 -0.0972875 0.48856
-0.0827934 -0.0965617 0.48897
-0.0820735 -0.0958266 0.48932
-0.0813548 -0.0950934 0.489687
-0.0806013 -0.0943154 0.489707
-0.079855 -0.0935466 0.489797
-0.0790961 -0.0927601 0.489749
-0.0783236 -0.0919573 0.48956
-0.0775543 -0.0911571 0.489389
-0.0768115 -0.0903916 0.489496
-0.0760689 -0.0896269 0.489605
-0.0753271 -0.0888644 0.489728
-0.0746159 -0.088141 0.490185
-0.0739058 -0.0874197 0.490665
-0.0732156 -0.0867261 0.491386
-0.0725344 -0.0860455 0.492232
-0.0718725 -0.0853906 0.49332
-0.0711908 -0.0847095 0.494195
-0.07052 -0.0840441 0.495227
-0.069837 -0.0833622 0.49613
-0.0691384 -0.08266 0.496861
-0.0684252 -0.0819382 0.497421
-0.067714 -0.0812189 0.498017
-0.0670061 -0.0805045 0.49867
-0.0663075 -0.079804 0.499464
-0.0656273 -0.0791298 0.50053
-0.0649637 -0.0784802 0.501859
-0.0643065 -0.0778393 0.503307
-0.0636498 -0.077201 0.50481
-0.0629852 -0.0765533 0.506247
-0.0623224 -0.0759081 0.507747
-0.0616455 -0.0752447 0.509086
-0.060977 -0.0745957 0.510605
-0.0602989 -0.0739329 0.512016
-0.0596069 -0.0732511 0.51325
-0.0588965 -0.0725433 0.514227
-0.0581859 -0.0718347 0.515223
-0.0574584 -0.0711041 0.515982
-0.0567244 -0.0703634 0.516645
-0.0560066 -0.069647 0.517608
-0.0552946 -0.0689403 0.518709
-0.0545846 -0.0682384 0.519891
-0.0538758 -0.0675403 0.521145
-0.0531548 -0.0668238 0.522208
-0.0524109 -0.066073 0.522865
-0.051654 -0.0653017 0.523279
-0.0508961 -0.0645293 0.523685
-0.0493684 -0.0645751 0.524568
-0.050131 -0.0637453 0.523948
-0.0486453 -0.0638629 0.525784
-0.049361 -0.0629535 0.52411
-0.0989715 -0.111932 0.49672
-0.0981743 -0.111103 0.496525
-0.0973762 -0.110273 0.496316
-0.0965327 -0.109387 0.495726
-0.0956557 -0.10846 0.49485
-0.0947526 -0.107498 0.493729
-0.0938281 -0.106512 0.492409
-0.0928862 -0.105501 0.490903
-0.0919555 -0.104504 0.489463
-0.0910516 -0.103539 0.48822
-0.090194 -0.102632 0.487354
-0.0893616 -0.101756 0.486689
-0.0885701 -0.10093 0.486373
-0.0878185 -0.100155 0.486407
-0.0870833 -0.0993995 0.486589
-0.0863688 -0.0986705 0.486962
-0.0856648 -0.0979552 0.48744
-0.0849589 -0.0972372 0.487905
-0.0842339 -0.0964955 0.488195
-0.0835146 -0.0957609 0.488542
-0.0827901 -0.0950199 0.488842
-0.0820721 -0.0942872 0.489211
-0.0813196 -0.0935105 0.489237
-0.0805694 -0.0927365 0.489282
-0.0798057 -0.0919452 0.489187
-0.0790385 -0.091149 0.489047
-0.0782736 -0.0903558 0.488924
-0.077536 -0.0895978 0.489086
-0.076794 -0.088834 0.489199
-0.0760522 -0.0880705 0.489313
-0.0753353 -0.0873395 0.489703
-0.0746152 -0.0866043 0.490062
-0.0739209 -0.0859033 0.490721
-0.0732508 -0.0852346 0.491674
-0.0726008 -0.0845928 0.492883
-0.0719357 -0.0839319 0.493943
-0.0712771 -0.0832804 0.495108
-0.0706002 -0.0826049 0.496076
-0.069903 -0.0819023 0.496812
-0.0691943 -0.0811859 0.497427
-0.0684888 -0.0804733 0.498092
-0.0677911 -0.079772 0.498876
-0.0671033 -0.0790838 0.499804
-0.0664275 -0.0784138 0.500925
-0.0657641 -0.0777607 0.50224
-0.0650943 -0.0770993 0.503502
-0.0644209 -0.0764351 0.504757
-0.0637362 -0.0757555 0.505883
-0.0630538 -0.0750792 0.50707
-0.0623574 -0.0743853 0.508092
-0.0616753 -0.073712 0.509359
-0.0609915 -0.0730367 0.510636
-0.0602977 -0.0723488 0.511801
-0.0595889 -0.071641 0.512766
-0.0588765 -0.0709278 0.513699
-0.0581555 -0.0702024 0.514512
-0.0574227 -0.0694621 0.515165
-0.0567112 -0.0687516 0.516191
-0.056005 -0.0680509 0.517353
-0.0553011 -0.0673541 0.518594
-0.0545949 -0.0666558 0.519845
-0.0538785 -0.0659432 0.520951
-0.0531401 -0.0651982 0.521674
-0.0523923 -0.0644395 0.522237
-0.0516465 -0.0636838 0.522854
-0.0508919 -0.0629156 0.523316
-0.0501341 -0.0621433 0.52373
-0.0486508 -0.0622591 0.525595
-0.0493691 -0.0613584 0.523984
-0.0989664 -0.110362 0.496614
-0.0981707 -0.109536 0.49643
-0.0973375 -0.108665 0.495935
-0.0964673 -0.107748 0.495126
-0.0955544 -0.106779 0.493944
-0.0946132 -0.105775 0.492499
-0.09366 -0.104756 0.49092
-0.0927194 -0.103751 0.489414
-0.0918069 -0.10278 0.488112
-0.0909411 -0.101865 0.487186
-0.0901008 -0.100981 0.48646
-0.089301 -0.100147 0.486074
-0.088549 -0.0993712 0.486105
-0.0878146 -0.0986168 0.486291
-0.0871018 -0.0978894 0.486676
-0.0863988 -0.0971744 0.487157
-0.0856929 -0.0964558 0.487617
-0.0849624 -0.0957067 0.487851
-0.0842371 -0.0949642 0.488136
-0.0835123 -0.0942223 0.488429
-0.0827936 -0.0934881 0.488784
-0.0820412 -0.0927118 0.488809
-0.0812916 -0.0919388 0.488858
-0.0805283 -0.0911487 0.488766
-0.0797662 -0.0903598 0.488679
-0.0790069 -0.0895744 0.488616
-0.078275 -0.0888235 0.488834
-0.0775385 -0.0880669 0.489006
-0.0768016 -0.0873096 0.489172
-0.0760799 -0.0865719 0.489506
-0.0753595 -0.0858359 0.489858
-0.0746612 -0.0851285 0.490464
-0.0739885 -0.0844541 0.491374
-0.0733408 -0.0838125 0.492593
-0.0726832 -0.0831587 0.493726
-0.0720272 -0.0825076 0.494904
-0.0713567 -0.0818383 0.495937
-0.0706643 -0.081141 0.496727
-0.0699606 -0.0804292 0.497394
-0.0692649 -0.0797283 0.498177
-0.0685786 -0.0790402 0.499099
-0.0678968 -0.0783585 0.500102
-0.0672223 -0.0776872 0.501228
-0.0665541 -0.0770247 0.502467
-0.0658701 -0.0763422 0.503528
-0.0651844 -0.0756579 0.504593
-0.0644877 -0.0749594 0.505532
-0.0637932 -0.0742647 0.50653
-0.0630848 -0.0735516 0.507353
-0.0623914 -0.0728589 0.508417
-0.0616927 -0.07216 0.509437
-0.060989 -0.0714556 0.510413
-0.060275 -0.0707373 0.511256
-0.0595572 -0.070014 0.512062
-0.0588343 -0.0692837 0.512805
-0.0581068 -0.0685487 0.513504
-0.0574013 -0.0678439 0.514585
-0.0567014 -0.0671486 0.515805
-0.0560005 -0.0664529 0.517053
-0.0553003 -0.0657584 0.51835
-0.0545866 -0.0650458 0.519451
-0.0538564 -0.0643115 0.520293
-0.0531213 -0.0635687 0.521055
-0.0523876 -0.0628293 0.521878
-0.0516443 -0.0620769 0.522543
-0.0508996 -0.0613229 0.523201
-0.0501444 -0.0605529 0.523656
-0.10056 -0.110452 0.49692
-0.0997755 -0.10964 0.496833
-0.0989867 -0.108823 0.496711
-0.0981653 -0.107968 0.496321
-0.0972931 -0.107052 0.495511
-0.09637 -0.106074 0.494263
-0.095418 -0.105062 0.492751
-0.0944471 -0.104026 0.491046
-0.0934968 -0.103014 0.489477
-0.0925761 -0.102037 0.488123
-0.0917024 -0.101116 0.487142
-0.0908605 -0.100232 0.486411
-0.0900529 -0.0993899 0.485963
-0.0892876 -0.0985985 0.485879
-0.0885527 -0.0978436 0.486059
-0.0878401 -0.0971159 0.486442
-0.0871391 -0.0964022 0.486935
-0.0864341 -0.095684 0.4874
-0.0857093 -0.0949416 0.487685
-0.084978 -0.0941914 0.487911
-0.0842469 -0.0934415 0.488141
-0.0835219 -0.0926991 0.488431
-0.0827683 -0.0919215 0.488442
-0.0820119 -0.0911407 0.488424
-0.0812538 -0.0903574 0.488382
-0.0804979 -0.0895769 0.488358
-0.0797456 -0.0888006 0.488366
-0.0790214 -0.0880591 0.488663
-0.0782916 -0.0873109 0.488905
-0.0775552 -0.0865543 0.489077
-0.076828 -0.0858093 0.489349
-0.0761075 -0.0850727 0.489698
-0.0754049 -0.0843585 0.490249
-0.0747288 -0.0836779 0.491109
-0.0740778 -0.0830293 0.492274
-0.0734265 -0.0823808 0.493463
-0.0727718 -0.0817285 0.49464
-0.0721078 -0.0810652 0.495737
-0.0714204 -0.0803724 0.496576
-0.0707263 -0.0796716 0.497353
-0.070041 -0.0789823 0.498256
-0.0693659 -0.0783066 0.499311
-0.068691 -0.0776317 0.500395
-0.0680174 -0.076959 0.501523
-0.0673437 -0.0762868 0.502681
-0.0666504 -0.0755898 0.503606
-0.0659517 -0.0748861 0.504482
-0.0652427 -0.0741694 0.505238
-0.0645354 -0.0734556 0.50604
-0.0638142 -0.0727236 0.506661
-0.063104 -0.0720067 0.50746
-0.0623902 -0.0712852 0.508225
-0.0616759 -0.0705635 0.509004
-0.0609553 -0.0698339 0.509709
-0.0602282 -0.0690958 0.510331
-0.0595031 -0.068361 0.511004
-0.0587782 -0.0676267 0.511696
-0.0580755 -0.066923 0.512776
-0.0573827 -0.0662336 0.514061
-0.056689 -0.0655438 0.515374
-0.0559914 -0.0648497 0.516667
-0.0552836 -0.0641426 0.517824
-0.0545629 -0.063417 0.518778
-0.0538367 -0.0626862 0.519676
-0.0531128 -0.0619585 0.520646
-0.0523818 -0.0612202 0.521502
-0.0516514 -0.0604851 0.522417
-0.0509095 -0.0597339 0.523128
-0.049402 -0.0598032 0.524407
-0.050181 -0.0590019 0.524142
-0.100593 -0.108926 0.497111
-0.0998085 -0.108116 0.49703
-0.0989943 -0.10727 0.496707
-0.0981217 -0.106356 0.495907
-0.097187 -0.105369 0.494586
-0.096217 -0.10434 0.492947
-0.0952286 -0.103288 0.49112
-0.0942691 -0.10227 0.489493
-0.0933465 -0.101295 0.488141
-0.0924661 -0.100368 0.487115
-0.0916281 -0.0994924 0.48643
-0.0908257 -0.0986576 0.486035
-0.0900534 -0.0978586 0.485892
-0.089324 -0.0971103 0.486123
-0.0886173 -0.096389 0.486558
-0.0879101 -0.0956673 0.486995
-0.0871996 -0.0949418 0.487408
-0.0864745 -0.0941986 0.487689
-0.0857312 -0.0934339 0.487804
-0.0849882 -0.0926698 0.487921
-0.084257 -0.0919193 0.488147
-0.0834966 -0.0911342 0.488094
-0.082734 -0.0903464 0.488014
-0.0819759 -0.0895636 0.487972
-0.0812208 -0.0887846 0.487955
-0.0804755 -0.0880171 0.488033
-0.0797593 -0.087285 0.488408
-0.0790363 -0.0865445 0.488716
-0.0783059 -0.0857954 0.488951
-0.077584 -0.0850565 0.489279
-0.0768637 -0.0843196 0.489627
-0.0761555 -0.0835977 0.490112
-0.0754793 -0.0829149 0.49096
-0.0748176 -0.0822507 0.491993
-0.074166 -0.0815989 0.493161
-0.073512 -0.080945 0.494331
-0.0728541 -0.0802867 0.495483
-0.0721695 -0.0795955 0.496342
-0.0714905 -0.0789118 0.497291
-0.0708115 -0.0782284 0.498262
-0.0701477 -0.0775644 0.499445
-0.069479 -0.0768951 0.500598
-0.0688063 -0.076221 0.501728
-0.0681241 -0.0755354 0.502763
-0.0674214 -0.0748245 0.503556
-0.0667094 -0.0741021 0.504244
-0.0659876 -0.0733678 0.504816
-0.0652676 -0.0726357 0.505423
-0.0645335 -0.071886 0.505847
-0.0638107 -0.071151 0.506443
-0.0630853 -0.0704126 0.507013
-0.0623629 -0.0696786 0.507642
-0.0616349 -0.0689376 0.508205
-0.0609049 -0.0681941 0.508749
-0.0601741 -0.0674499 0.509295
-0.0594481 -0.0667123 0.509931
-0.0587447 -0.0660045 0.51095
-0.0580559 -0.0653169 0.512246
-0.0573655 -0.0646277 0.513557
-0.0566749 -0.0639391 0.514912
-0.0559729 -0.0632363 0.516117
-0.0552586 -0.0625174 0.517141
-0.0545425 -0.0617968 0.51817
-0.0538283 -0.0610796 0.519273
-0.0531065 -0.0603525 0.52027
-0.0523881 -0.0596308 0.521373
-0.051661 -0.0588979 0.522344
-0.0509411 -0.0581755 0.523499
-0.101436 -0.108239 0.497578
-0.100642 -0.107419 0.497433
-0.0998293 -0.106577 0.497131
-0.0989593 -0.105668 0.496366
-0.0980074 -0.104665 0.494927
-0.0970185 -0.103619 0.493158
-0.0960192 -0.10256 0.491265
-0.0950485 -0.101534 0.489566
-0.0941171 -0.100552 0.488158
-0.0932353 -0.0996274 0.487134
-0.0924036 -0.0987607 0.486512
-0.0916079 -0.0979354 0.486183
-0.0908286 -0.097129 0.485985
-0.0901048 -0.0963872 0.486267
-0.0893971 -0.0956641 0.486693
-0.0886905 -0.0949422 0.487134
-0.0879799 -0.0942161 0.487547
-0.0872538 -0.0934718 0.487822
-0.0865033 -0.0926986 0.487872
-0.0857533 -0.0919264 0.487925
-0.0850101 -0.0911618 0.48804
-0.0842379 -0.0903633 0.487875
-0.083469 -0.0895686 0.487736
-0.082705 -0.0887796 0.487637
-0.0819503 -0.0880013 0.487623
-0.0812113 -0.0872416 0.487763
-0.0805008 -0.0865157 0.488192
-0.0797892 -0.0857885 0.488614
-0.0790701 -0.0850525 0.488966
-0.0783493 -0.0843144 0.489303
-0.0776289 -0.0835771 0.48965
-0.0769145 -0.0828472 0.490068
-0.0762218 -0.0821429 0.490727
-0.0755438 -0.0814568 0.491565
-0.0748864 -0.0807954 0.49265
-0.0742289 -0.0801343 0.49376
-0.0735791 -0.0794831 0.494985
-0.0729064 -0.0788046 0.495971
-0.0722447 -0.0781397 0.49711
-0.0715773 -0.0774682 0.498207
-0.07092 -0.0768096 0.499457
-0.0702524 -0.0761388 0.50061
-0.0695804 -0.0754629 0.501734
-0.0688895 -0.0747647 0.502649
-0.0681782 -0.0740415 0.50332
-0.0674572 -0.0733069 0.503879
-0.0667265 -0.0725601 0.50432
-0.0659936 -0.071811 0.50474
-0.0652509 -0.0710499 0.505033
-0.0645163 -0.0702988 0.505442
-0.0637786 -0.0695437 0.505813
-0.0630448 -0.068794 0.506251
-0.0623096 -0.0680427 0.506678
-0.061577 -0.0672944 0.50715
-0.0608442 -0.0665463 0.50763
-0.0601237 -0.0658138 0.508314
-0.0594264 -0.0651113 0.509389
-0.0587441 -0.0644285 0.51074
-0.0580565 -0.0637395 0.512049
-0.0573722 -0.0630554 0.513459
-0.0566764 -0.0623573 0.514722
-0.0559686 -0.061644 0.515815
-0.0552588 -0.060929 0.516913
-0.054554 -0.0602211 0.518143
-0.053841 -0.0595031 0.519265
-0.0531286 -0.0587863 0.52044
-0.0524074 -0.0580589 0.521491
-0.0516932 -0.0573413 0.522722
-0.0502292 -0.0574654 0.524874
-0.050984 -0.056631 0.524103
-0.101587 -0.106845 0.498679
-0.100744 -0.10597 0.49816
-0.0998638 -0.105053 0.497338
-0.0988497 -0.103984 0.495433
-0.0978514 -0.102932 0.493613
-0.0968472 -0.101873 0.491706
-0.0958702 -0.100844 0.489981
-0.0949278 -0.0998543 0.488503
-0.0940312 -0.0989161 0.487373
-0.0932121 -0.0980657 0.486868
-0.092423 -0.0972494 0.486605
-0.0916444 -0.0964448 0.486423
-0.0909269 -0.0957099 0.486764
-0.0902128 -0.0949788 0.487138
-0.0894992 -0.0942485 0.487521
-0.0887817 -0.0935138 0.487873
-0.088048 -0.0927604 0.488082
-0.0872897 -0.091979 0.488068
-0.0865324 -0.0911986 0.488058
-0.085782 -0.090426 0.488108
-0.0850024 -0.0896199 0.48788
-0.0842269 -0.0888184 0.487682
-0.0834569 -0.088023 0.487528
-0.0827012 -0.087244 0.487506
-0.0819555 -0.0864766 0.48758
-0.0812388 -0.0857429 0.487942
-0.0805275 -0.0850154 0.488364
-0.0798094 -0.08428 0.488721
-0.0790851 -0.0835376 0.48902
-0.0783652 -0.0828004 0.489367
-0.0776504 -0.082069 0.489774
-0.0769411 -0.0813442 0.490246
-0.0762525 -0.0806438 0.490952
-0.0755907 -0.0799749 0.491971
-0.0749343 -0.0793128 0.493074
-0.0742934 -0.078669 0.494376
-0.0736433 -0.0780149 0.495605
-0.0729998 -0.077369 0.496941
-0.0723444 -0.0767092 0.498167
-0.0716884 -0.0760494 0.499417
-0.0710207 -0.0753759 0.500555
-0.0703443 -0.0746926 0.501614
-0.069645 -0.0739823 0.50241
-0.0689295 -0.0732527 0.503017
-0.0682036 -0.0725109 0.503503
-0.0674636 -0.0717525 0.503814
-0.0667226 -0.0709929 0.504115
-0.0659755 -0.070226 0.504336
-0.0652333 -0.0694648 0.504626
-0.0644876 -0.0686997 0.504872
-0.0637466 -0.0679403 0.505188
-0.0630043 -0.0671793 0.50549
-0.0622691 -0.0664272 0.505901
-0.0615343 -0.0656755 0.506326
-0.0608191 -0.0649481 0.507062
-0.0601237 -0.064245 0.508126
-0.0594471 -0.0635658 0.509523
-0.0587585 -0.0628721 0.510772
-0.05808 -0.0621918 0.512232
-0.0573873 -0.0614943 0.513501
-0.0566852 -0.0607856 0.514654
-0.0559817 -0.0600756 0.51582
-0.0552826 -0.0593717 0.517109
-0.0545749 -0.0586577 0.518289
-0.0538711 -0.0579491 0.519585
-0.0531584 -0.0572298 0.520759
-0.0524469 -0.0565126 0.522003
-0.0517427 -0.0558054 0.523444
-0.0502762 -0.0559238 0.525577
-0.0510368 -0.0550968 0.524911
-0.10264 -0.106384 0.50073
-0.101736 -0.105444 0.499767
-0.100828 -0.104498 0.498752
-0.0998279 -0.10345 0.496994
-0.0987808 -0.102349 0.494823
-0.0977459 -0.101262 0.492704
-0.0967634 -0.100232 0.490963
-0.0958071 -0.0992307 0.489399
-0.0948911 -0.0982743 0.488132
-0.0940451 -0.0973956 0.487419
-0.0932619 -0.0965871 0.487217
-0.0924768 -0.0957762 0.48699
-0.0917587 -0.0950404 0.487331
-0.0910375 -0.0943009 0.487648
-0.0903166 -0.0935618 0.487971
-0.0895859 -0.092812 0.488211
-0.0888512 -0.0920573 0.488415
-0.0880852 -0.0912679 0.488338
-0.0873143 -0.0904726 0.48821
-0.086556 -0.0896916 0.488192
-0.0857682 -0.0888774 0.487894
-0.0849855 -0.0880685 0.487633
-0.0842084 -0.0872661 0.487416
-0.0834463 -0.0864804 0.487334
-0.0826937 -0.0857054 0.48734
-0.0819705 -0.0849637 0.487634
-0.0812528 -0.0842283 0.487986
-0.0805352 -0.083493 0.488344
-0.0798178 -0.082758 0.488707
-0.0790989 -0.0820214 0.48906
-0.0783844 -0.0812899 0.489465
-0.0776697 -0.0805582 0.489873
-0.0769712 -0.0798449 0.490462
-0.0763049 -0.0791687 0.491414
-0.0756512 -0.0785072 0.492529
-0.0750177 -0.0778689 0.493894
-0.0743812 -0.0772277 0.495259
-0.0737507 -0.0765937 0.496725
-0.0730979 -0.0759343 0.497965
-0.0724428 -0.0752727 0.49921
-0.0717702 -0.0745911 0.500273
-0.0710889 -0.0738997 0.501256
-0.0703814 -0.0731782 0.501938
-0.0696618 -0.0724428 0.502481
-0.0689315 -0.0716951 0.5029
-0.0681869 -0.0709309 0.503142
-0.0674418 -0.070166 0.503377
-0.0666917 -0.0693953 0.503548
-0.0659459 -0.0686297 0.503777
-0.0651965 -0.0678598 0.503958
-0.0644556 -0.0671001 0.504259
-0.0637144 -0.0663399 0.504561
-0.0629812 -0.0655892 0.504982
-0.0622517 -0.0648431 0.505467
-0.0615424 -0.064121 0.506268
-0.0608489 -0.0634178 0.507333
-0.060171 -0.0627337 0.508675
-0.0594873 -0.0620431 0.509968
-0.058811 -0.0613618 0.511424
-0.0581203 -0.0606638 0.512692
-0.0574203 -0.059955 0.513847
-0.0567186 -0.0592444 0.51501
-0.0560213 -0.0585396 0.516292
-0.0553155 -0.057825 0.517468
-0.0546138 -0.0571159 0.518764
-0.0539032 -0.0563962 0.519939
-0.0531933 -0.0556782 0.521176
-0.0524875 -0.0549656 0.522539
-0.0517836 -0.0542557 0.523996
-0.104114 -0.106373 0.505931
-0.102983 -0.105187 0.50329
-0.101946 -0.104104 0.50133
-0.100899 -0.10301 0.499245
-0.0998225 -0.101883 0.496889
-0.0988056 -0.100821 0.494955
-0.0978023 -0.0997732 0.49309
-0.0968156 -0.0987435 0.491319
-0.0958549 -0.0977419 0.489722
-0.0949667 -0.0968193 0.488687
-0.0941606 -0.0959868 0.488312
-0.0933797 -0.0951817 0.488138
-0.0926547 -0.0944378 0.48843
-0.0919245 -0.0936883 0.488681
-0.0911876 -0.0929314 0.488875
-0.0904342 -0.0921563 0.488926
-0.0896733 -0.0913731 0.488907
-0.088894 -0.0905696 0.48872
-0.0881159 -0.0897672 0.488535
-0.0873439 -0.0889716 0.488399
-0.0865415 -0.0881423 0.487974
-0.0857506 -0.0873256 0.487643
-0.0849606 -0.0865097 0.487309
-0.0841808 -0.0857052 0.487062
-0.0834212 -0.084923 0.487
-0.0826916 -0.0841739 0.487228
-0.0819683 -0.0834318 0.487518
-0.0812513 -0.0826966 0.487874
-0.0805443 -0.0819727 0.488338
-0.0798267 -0.081237 0.488699
-0.0791137 -0.0805065 0.489112
-0.0784048 -0.0797806 0.489576
-0.0777076 -0.0790678 0.490171
-0.0770372 -0.0783851 0.491067
-0.0763899 -0.0777282 0.492235
-0.075758 -0.0770887 0.4936
-0.0751239 -0.0764472 0.494973
-0.0745006 -0.0758178 0.496501
-0.0738496 -0.0751579 0.497747
-0.0731856 -0.0744833 0.498868
-0.0725078 -0.0737937 0.499855
-0.0718217 -0.0730947 0.500763
-0.0711012 -0.0723573 0.501272
-0.0703734 -0.0716117 0.501701
-0.0696388 -0.0708584 0.502052
-0.0688944 -0.070094 0.502282
-0.0681459 -0.0693252 0.502463
-0.0674016 -0.068561 0.502697
-0.0666568 -0.0677964 0.502928
-0.0659119 -0.0670315 0.503158
-0.0651716 -0.0662719 0.503453
-0.0644355 -0.0655172 0.503813
-0.0637081 -0.0647724 0.504301
-0.0629846 -0.0640323 0.504859
-0.0622772 -0.0633108 0.505669
-0.0615854 -0.0626072 0.506735
-0.0609054 -0.0619177 0.508015
-0.0602201 -0.0612223 0.509252
-0.0595459 -0.0605398 0.510704
-0.0588603 -0.0598449 0.512023
-0.0581622 -0.0591356 0.513178
-0.0574618 -0.058424 0.514333
-0.0567695 -0.0577222 0.515668
-0.0560652 -0.0570067 0.516839
-0.0553621 -0.0562929 0.518074
-0.054653 -0.0555725 0.519244
-0.0539444 -0.054853 0.520467
-0.053237 -0.0541354 0.52176
-0.0525349 -0.0534243 0.523207
-0.0510746 -0.0535404 0.525411
-0.0518311 -0.0527117 0.52468
-0.104212 -0.104893 0.506613
-0.103083 -0.103716 0.503994
-0.101975 -0.102563 0.501491
-0.100875 -0.101417 0.498997
-0.0998778 -0.100382 0.49726
-0.0988799 -0.0993449 0.495481
-0.0978666 -0.0982917 0.49354
-0.0968781 -0.0972648 0.491758
-0.0959502 -0.0963028 0.490433
-0.0951106 -0.0954356 0.489805
-0.094306 -0.094606 0.489453
-0.0935656 -0.0938452 0.48963
-0.0928119 -0.0930703 0.489694
-0.0920512 -0.0922879 0.489695
-0.0912809 -0.0914951 0.48961
-0.0904975 -0.090688 0.489405
-0.0897038 -0.0898697 0.489099
-0.0889176 -0.0890597 0.488852
-0.0881319 -0.08825 0.488599
-0.0873155 -0.0874071 0.488056
-0.0865164 -0.0865829 0.487658
-0.0857187 -0.08576 0.487259
-0.0849263 -0.0849428 0.486897
-0.0841546 -0.0841481 0.486723
-0.0834187 -0.0833919 0.486885
-0.0826894 -0.082643 0.487113
-0.0819673 -0.0819019 0.487414
-0.0812673 -0.0811848 0.487939
-0.0805621 -0.0804621 0.48842
-0.0798559 -0.0797383 0.488899
-0.0791538 -0.0790192 0.489428
-0.078462 -0.0783112 0.490074
-0.0777873 -0.0776219 0.490915
-0.0771405 -0.0769631 0.492075
-0.0765044 -0.0763159 0.493376
-0.0758709 -0.0756721 0.494738
-0.0752437 -0.0750353 0.496204
-0.0745881 -0.0743673 0.497378
-0.0739097 -0.0736749 0.498319
-0.0732269 -0.0729776 0.499227
-0.0725323 -0.0722675 0.500017
-0.0718029 -0.0715194 0.500405
-0.071071 -0.0707687 0.500771
-0.070332 -0.07001 0.501052
-0.0695881 -0.069246 0.501275
-0.0688412 -0.0684787 0.50146
-0.0681035 -0.0677215 0.501765
-0.0673605 -0.0669586 0.502006
-0.0666205 -0.0661991 0.502289
-0.0658808 -0.0654397 0.502578
-0.0651505 -0.0646909 0.503002
-0.0644298 -0.0639527 0.503568
-0.0637164 -0.0632229 0.504255
-0.063018 -0.0625096 0.505174
-0.0623279 -0.0618056 0.506242
-0.0616454 -0.0611103 0.507456
-0.0609612 -0.0604136 0.508685
-0.0602885 -0.0597297 0.510129
-0.059602 -0.0590307 0.511402
-0.0589092 -0.0583249 0.512614
-0.0582103 -0.0576124 0.513766
-0.0575161 -0.0569055 0.515036
-0.056813 -0.0561889 0.516198
-0.0561153 -0.0554783 0.517493
-0.0554048 -0.0547538 0.518607
-0.0546974 -0.054033 0.519819
-0.0539914 -0.0533139 0.5211
-0.0532909 -0.0526015 0.522538
-0.0525896 -0.0518883 0.524016
-0.0511302 -0.0520031 0.526275
-0.0518914 -0.0511792 0.525618
-0.106602 -0.105784 0.512615
-0.105354 -0.104489 0.50921
-0.104174 -0.103267 0.506266
-0.103027 -0.102078 0.503506
-0.101926 -0.100938 0.501049
-0.100942 -0.0999215 0.499453
-0.0999539 -0.0989006 0.497795
-0.0989414 -0.0978535 0.495905
-0.0979331 -0.0968106 0.494007
-0.0969664 -0.0958114 0.492406
-0.0960972 -0.0949151 0.491566
-0.0952674 -0.0940602 0.491029
-0.0944964 -0.0932673 0.490968
-0.093719 -0.0924676 0.490849
-0.0929324 -0.0916583 0.490645
-0.0921252 -0.0908272 0.490257
-0.0913182 -0.0899962 0.489859
-0.0905078 -0.0891614 0.489418
-0.0897003 -0.0883299 0.488991
-0.0889011 -0.0875071 0.488625
-0.0880832 -0.0866644 0.488078
-0.0872762 -0.0858331 0.487614
-0.0864714 -0.0850043 0.487158
-0.0856771 -0.0841864 0.486784
-0.0849042 -0.0833911 0.486602
-0.0841672 -0.0826339 0.486754
-0.0834331 -0.0818798 0.486935
-0.0827057 -0.0811328 0.487181
-0.0820069 -0.0804159 0.487711
-0.0813025 -0.0796935 0.488197
-0.0805984 -0.0789711 0.48869
-0.0799086 -0.0782639 0.489339
-0.0792281 -0.077567 0.490099
-0.0785548 -0.0768773 0.490947
-0.0779079 -0.0762161 0.492094
-0.0772664 -0.0755605 0.493326
-0.0766274 -0.0749077 0.494612
-0.0759851 -0.0742516 0.495891
-0.0753197 -0.073571 0.496941
-0.0746312 -0.0728657 0.49775
-0.0739387 -0.0721562 0.498531
-0.0732299 -0.0714295 0.499138
-0.0724959 -0.070676 0.499458
-0.0717601 -0.0699206 0.499761
-0.0710165 -0.0691567 0.499971
-0.0702738 -0.0683937 0.500193
-0.0695282 -0.0676279 0.500381
-0.0687976 -0.0668778 0.500759
-0.0680609 -0.0661215 0.501067
-0.0673271 -0.0653681 0.501416
-0.0665966 -0.0646184 0.501816
-0.0658769 -0.0638804 0.50237
-0.0651621 -0.0631476 0.503003
-0.0644552 -0.0624233 0.503763
-0.0637582 -0.0617096 0.504683
-0.0630642 -0.0609993 0.505674
-0.0623781 -0.0602978 0.50681
-0.0616917 -0.0595957 0.507973
-0.0610177 -0.0589074 0.509365
-0.0603331 -0.0582076 0.510634
-0.0596462 -0.0575056 0.511908
-0.0589496 -0.0567932 0.513068
-0.0582571 -0.0560853 0.514332
-0.0575559 -0.0553683 0.515495
-0.0568599 -0.0546568 0.516785
-0.0561477 -0.0539281 0.517837
-0.0554427 -0.0532073 0.519058
-0.0547388 -0.0524878 0.520338
-0.0540406 -0.0517746 0.521776
-0.0533415 -0.0510608 0.523254
-0.0526487 -0.0503539 0.524913
-0.109954 -0.109253 0.519593
-0.110834 -0.11016 0.520134
-0.111542 -0.109266 0.519388
-0.110679 -0.108378 0.518969
-0.109022 -0.108291 0.518659
-0.109775 -0.107449 0.518249
-0.1079 -0.10713 0.516311
-0.108783 -0.106428 0.516863
-0.107567 -0.105176 0.51381
-0.106347 -0.103919 0.510658
-0.105163 -0.1027 0.507724
-0.104038 -0.101542 0.505179
-0.102925 -0.100396 0.50267
-0.101945 -0.0993879 0.50114
-0.100963 -0.0983775 0.499561
-0.0999628 -0.0973479 0.497802
-0.0989658 -0.0963217 0.496034
-0.0979722 -0.0952993 0.494256
-0.0970765 -0.0943779 0.49323
-0.0962258 -0.0935031 0.492548
-0.0954209 -0.0926757 0.492226
-0.0946187 -0.0918511 0.491917
-0.093809 -0.0910188 0.491535
-0.0929717 -0.0901578 0.490906
-0.0921333 -0.0892957 0.490252
-0.0912985 -0.0884373 0.489612
-0.0904689 -0.0875843 0.489001
-0.0896556 -0.0867482 0.488517
-0.0888369 -0.0859064 0.48797
-0.088029 -0.0850759 0.487506
-0.0872235 -0.0842479 0.48705
-0.0864285 -0.0834306 0.486677
-0.085655 -0.0826356 0.486492
-0.0849179 -0.0818782 0.486644
-0.0841832 -0.0811234 0.486818
-0.0834561 -0.0803765 0.487067
-0.0827575 -0.0796591 0.487595
-0.0820592 -0.078942 0.488136
-0.0813558 -0.0782197 0.488634
-0.0806726 -0.0775183 0.489346
-0.0799994 -0.0768273 0.490173
-0.0793323 -0.0761426 0.49108
-0.0786815 -0.075475 0.492178
-0.0780347 -0.0748113 0.493341
-0.0773851 -0.0741448 0.4945
-0.0767272 -0.0734698 0.495593
-0.0760467 -0.0727713 0.49646
-0.0753424 -0.0720481 0.497079
-0.0746398 -0.0713267 0.497728
-0.0739163 -0.0705837 0.49815
-0.0731733 -0.0698204 0.49835
-0.0724282 -0.0690549 0.498526
-0.0716809 -0.0682871 0.498675
-0.0709348 -0.0675206 0.498839
-0.0701952 -0.0667608 0.499082
-0.0694711 -0.0660172 0.499523
-0.0687413 -0.0652676 0.4999
-0.0680143 -0.0645209 0.500318
-0.0672948 -0.063782 0.500842
-0.0665853 -0.0630536 0.501513
-0.0658776 -0.062327 0.502223
-0.0651769 -0.0616077 0.503048
-0.0644851 -0.0608976 0.504018
-0.0637916 -0.0601859 0.504993
-0.0630988 -0.0594749 0.506004
-0.0624126 -0.058771 0.507144
-0.0617406 -0.0580815 0.508529
-0.0610623 -0.0573858 0.509863
-0.060382 -0.0566879 0.511207
-0.059691 -0.055979 0.512425
-0.0590044 -0.0552746 0.513755
-0.0583044 -0.0545563 0.514907
-0.0576064 -0.0538402 0.516133
-0.0568928 -0.0531077 0.517131
-0.0561897 -0.0523865 0.51835
-0.0554846 -0.0516629 0.519574
-0.0547887 -0.0509492 0.521013
-0.054095 -0.0502378 0.522548
-0.0534079 -0.0495333 0.524269
-0.0519427 -0.0496328 0.526378
-0.0527073 -0.0488147 0.525797
-0.113099 -0.109246 0.518954
-0.112276 -0.108401 0.518833
-0.111417 -0.107519 0.518446
-0.110515 -0.106594 0.517743
-0.109517 -0.105571 0.516327
-0.108345 -0.104371 0.513613
-0.107171 -0.10317 0.510838
-0.106011 -0.101982 0.50811
-0.104879 -0.100824 0.505542
-0.103811 -0.0997296 0.503399
-0.102868 -0.0987632 0.502174
-0.101884 -0.0977552 0.500608
-0.100892 -0.0967388 0.498945
-0.0999113 -0.0957341 0.497335
-0.0989387 -0.0947374 0.495756
-0.0980255 -0.0938013 0.494617
-0.0971614 -0.092915 0.49385
-0.0963378 -0.0920698 0.493394
-0.0955104 -0.0912209 0.492895
-0.0946775 -0.0903663 0.492337
-0.0938103 -0.089477 0.491475
-0.0929413 -0.0885858 0.490577
-0.0920813 -0.0877037 0.489733
-0.0912416 -0.0868425 0.489045
-0.090421 -0.0860005 0.488505
-0.0896019 -0.0851599 0.487963
-0.088794 -0.0843309 0.487507
-0.0879874 -0.0835033 0.487049
-0.0871865 -0.0826814 0.486629
-0.0864072 -0.0818814 0.486396
-0.0856709 -0.081125 0.486556
-0.0849362 -0.0803701 0.48673
-0.0842025 -0.0796164 0.486915
-0.0835029 -0.078897 0.487428
-0.0828044 -0.0781789 0.487962
-0.0821014 -0.0774563 0.488461
-0.081425 -0.0767604 0.489232
-0.0807644 -0.0760805 0.490179
-0.0801052 -0.075402 0.491159
-0.0794567 -0.0747344 0.492271
-0.0788047 -0.0740632 0.49337
-0.0781443 -0.0733835 0.494403
-0.0774701 -0.0726898 0.495309
-0.076774 -0.0719737 0.495993
-0.076054 -0.0712336 0.496427
-0.075341 -0.0705006 0.496947
-0.0746069 -0.0697462 0.497234
-0.0738584 -0.0689774 0.49736
-0.073109 -0.0682075 0.497472
-0.0723633 -0.0674414 0.497628
-0.0716225 -0.0666804 0.497841
-0.0708889 -0.0659265 0.498145
-0.0701702 -0.0651877 0.498637
-0.0694468 -0.0644441 0.499079
-0.0687304 -0.0637075 0.499618
-0.0680133 -0.0629702 0.500159
-0.0673098 -0.0622467 0.500892
-0.0666079 -0.0615247 0.501663
-0.0659083 -0.0608049 0.502485
-0.0652144 -0.0600909 0.503406
-0.064522 -0.0593783 0.504373
-0.0638258 -0.058662 0.505314
-0.0631377 -0.0579537 0.506398
-0.0624672 -0.0572631 0.507775
-0.0617945 -0.0565702 0.50916
-0.0611169 -0.0558722 0.510513
-0.0604324 -0.0551673 0.511803
-0.0597481 -0.0544626 0.513138
-0.0590494 -0.0537434 0.514284
-0.0583528 -0.053026 0.515501
-0.0576432 -0.0522958 0.51654
-0.0569421 -0.0515739 0.517761
-0.0562421 -0.0508531 0.519044
-0.0555482 -0.0501383 0.520481
-0.0548562 -0.0494254 0.52201
-0.0541684 -0.0487165 0.523673
-0.0534699 -0.0479969 0.525201
-0.114604 -0.109175 0.518177
-0.113799 -0.108349 0.518177
-0.112966 -0.107494 0.517977
-0.112112 -0.106619 0.517625
-0.111197 -0.105683 0.516831
-0.110181 -0.104646 0.515295
-0.109029 -0.103474 0.512748
-0.107871 -0.102295 0.510104
-0.106722 -0.101125 0.507476
-0.105609 -0.0999921 0.505066
-0.10457 -0.0989331 0.503165
-0.103624 -0.0979672 0.50193
-0.102659 -0.0969821 0.500522
-0.101691 -0.0959941 0.499061
-0.100742 -0.0950248 0.497715
-0.0997996 -0.0940628 0.496396
-0.0988925 -0.0931358 0.495325
-0.0980116 -0.0922351 0.494441
-0.0971767 -0.0913801 0.493907
-0.0963402 -0.0905236 0.493347
-0.0954927 -0.0896563 0.492681
-0.0946147 -0.0887587 0.491744
-0.0937413 -0.0878657 0.490824
-0.0928645 -0.0869695 0.489852
-0.0920102 -0.0860957 0.489049
-0.0911885 -0.0852544 0.488509
-0.0903752 -0.0844213 0.488027
-0.0895612 -0.0835876 0.487525
-0.0887534 -0.0827604 0.487065
-0.0879571 -0.0819445 0.486694
-0.0871775 -0.0811451 0.486465
-0.086442 -0.0803895 0.486634
-0.0857131 -0.0796404 0.486865
-0.0849845 -0.0788916 0.4871
-0.0842784 -0.0781651 0.487552
-0.0835736 -0.0774398 0.488022
-0.0828643 -0.07671 0.488456
-0.0821831 -0.076008 0.489174
-0.081524 -0.0753279 0.490128
-0.0808723 -0.0746549 0.491176
-0.080226 -0.0739871 0.4923
-0.0795755 -0.0733151 0.493404
-0.078909 -0.0726273 0.494363
-0.078218 -0.0719153 0.495082
-0.077505 -0.0711815 0.495576
-0.076769 -0.0704252 0.495827
-0.0760407 -0.0696761 0.496164
-0.0752958 -0.068911 0.496321
-0.0745476 -0.0681426 0.49644
-0.073794 -0.0673689 0.496494
-0.0730543 -0.0666088 0.496708
-0.0723151 -0.0658491 0.496929
-0.0715828 -0.0650963 0.497234
-0.0708654 -0.064358 0.497725
-0.0701526 -0.0636242 0.498282
-0.0694381 -0.0628886 0.498829
-0.0687313 -0.0621606 0.499487
-0.068038 -0.0614457 0.500334
-0.0673416 -0.0607277 0.501162
-0.0666437 -0.0600082 0.50199
-0.0659505 -0.0592931 0.502902
-0.0652555 -0.0585761 0.503814
-0.0645568 -0.0578555 0.504699
-0.0638663 -0.0571428 0.505724
-0.0631936 -0.0564472 0.507037
-0.0625234 -0.0557539 0.508428
-0.0618515 -0.0550589 0.509835
-0.0611733 -0.0543576 0.511192
-0.0604914 -0.0536524 0.512531
-0.0597943 -0.0529324 0.513675
-0.0590985 -0.0522137 0.514877
-0.0583866 -0.0514791 0.515851
-0.057687 -0.0507564 0.517065
-0.0569926 -0.0500383 0.518409
-0.0563007 -0.0493226 0.519845
-0.0556107 -0.0486085 0.521369
-0.0549279 -0.0479009 0.52308
-0.0542317 -0.0471804 0.524609
-0.0527582 -0.047264 0.526531
-0.0535222 -0.0464471 0.525946
-0.116155 -0.109151 0.517719
-0.115348 -0.108324 0.517714
-0.114524 -0.10748 0.517581
-0.113654 -0.10659 0.517125
-0.112778 -0.105694 0.516613
-0.111834 -0.104731 0.515614
-0.110783 -0.103665 0.51384
-0.109652 -0.10252 0.511454
-0.108519 -0.101372 0.509003
-0.107397 -0.100236 0.50659
-0.106312 -0.0991365 0.504406
-0.105304 -0.0981127 0.502747
-0.104357 -0.0971488 0.501512
-0.103398 -0.0961734 0.500162
-0.102451 -0.09521 0.498876
-0.101517 -0.0942591 0.497659
-0.100596 -0.0933212 0.496517
-0.0996952 -0.0924037 0.495514
-0.0988203 -0.0915113 0.49469
-0.0979787 -0.0906514 0.494113
-0.0971404 -0.0897949 0.493548
-0.0962973 -0.0889339 0.49293
-0.0954245 -0.088044 0.492051
-0.0945499 -0.0871524 0.491135
-0.0936712 -0.086257 0.490163
-0.0928087 -0.0853775 0.489306
-0.091979 -0.0845301 0.488709
-0.0911589 -0.083692 0.488178
-0.0903437 -0.0828588 0.487675
-0.0895343 -0.0820313 0.48721
-0.0887417 -0.0812203 0.486881
-0.0879667 -0.0804262 0.4867
-0.0872315 -0.0796709 0.486876
-0.0865033 -0.0789223 0.487117
-0.0857748 -0.0781735 0.487356
-0.0850628 -0.0774406 0.487753
-0.0843457 -0.0767028 0.488108
-0.0836302 -0.0759663 0.488479
-0.0829424 -0.0752566 0.489128
-0.0822835 -0.0745749 0.490076
-0.081639 -0.0739068 0.491185
-0.0809891 -0.0732333 0.492263
-0.0803341 -0.0725548 0.493309
-0.0796613 -0.0718591 0.494194
-0.0789537 -0.0711297 0.494729
-0.0782236 -0.0703788 0.495033
-0.0774814 -0.0696164 0.495211
-0.0767422 -0.0688568 0.495422
-0.0759882 -0.0680828 0.495468
-0.0752402 -0.0673148 0.49558
-0.074488 -0.0665427 0.495641
-0.0737549 -0.065789 0.495921
-0.0730224 -0.0650356 0.49621
-0.0722961 -0.0642882 0.496576
-0.0715848 -0.063555 0.497128
-0.0708772 -0.0628254 0.497737
-0.0701641 -0.0620904 0.49829
-0.0694588 -0.0613626 0.498952
-0.0687671 -0.0606477 0.499802
-0.0680669 -0.0599247 0.500564
-0.06737 -0.0592046 0.501387
-0.0666739 -0.0584852 0.502242
-0.0659845 -0.0577717 0.503208
-0.0652871 -0.0570508 0.50409
-0.0645977 -0.0563373 0.50511
-0.0639228 -0.055637 0.506364
-0.0632583 -0.0549463 0.507805
-0.0625884 -0.0542504 0.509213
-0.0619166 -0.0535523 0.510633
-0.0612363 -0.052846 0.511969
-0.0605409 -0.0521255 0.513112
-0.0598387 -0.0513985 0.514185
-0.0591245 -0.05066 0.515095
-0.0584233 -0.0499336 0.516251
-0.0577316 -0.0492155 0.517603
-0.0570422 -0.0484993 0.519042
-0.0563543 -0.0477841 0.52056
-0.055673 -0.0470745 0.522251
-0.054979 -0.0463531 0.523777
-0.0542745 -0.0456217 0.525165
-0.116815 -0.10822 0.516701
-0.115997 -0.107383 0.51661
-0.115156 -0.106522 0.516356
-0.114263 -0.105612 0.515741
-0.113364 -0.104696 0.515066
-0.112418 -0.103735 0.514055
-0.111375 -0.10268 0.512337
-0.110276 -0.101572 0.510188
-0.109179 -0.100465 0.508009
-0.108086 -0.0993631 0.505819
-0.107027 -0.0982946 0.503839
-0.106027 -0.0972829 0.502253
-0.105086 -0.0963286 0.501076
-0.104135 -0.0953639 0.499792
-0.103195 -0.0944113 0.498573
-0.102275 -0.0934773 0.497475
-0.101375 -0.0925622 0.496504
-0.100473 -0.0916458 0.4955
-0.0996042 -0.0907622 0.494738
-0.0987686 -0.0899097 0.494217
-0.0979239 -0.0890489 0.493611
-0.0970804 -0.0881892 0.492998
-0.096228 -0.0873213 0.492298
-0.0953679 -0.086446 0.491516
-0.0944976 -0.0855613 0.490631
-0.0936403 -0.0846891 0.489833
-0.0928064 -0.0838393 0.489214
-0.0919695 -0.082987 0.488554
-0.0911398 -0.0821415 0.487937
-0.0903235 -0.081309 0.487423
-0.0895289 -0.0804971 0.487084
-0.0887527 -0.0797029 0.486901
-0.0880172 -0.0789472 0.487077
-0.0872899 -0.0781992 0.487328
-0.0865618 -0.0774506 0.487574
-0.0858444 -0.0767119 0.487921
-0.0851204 -0.0759671 0.48821
-0.0843968 -0.0752227 0.488507
-0.0837023 -0.0745056 0.489087
-0.0830381 -0.0738169 0.489973
-0.0823942 -0.0731472 0.491077
-0.0817396 -0.0724671 0.492096
-0.0810791 -0.0717817 0.493077
-0.0803955 -0.071074 0.493839
-0.079676 -0.070333 0.494244
-0.0789346 -0.0695711 0.494422
-0.0781819 -0.0687988 0.494481
-0.0774323 -0.0680295 0.494571
-0.0766779 -0.0672556 0.494606
-0.0759312 -0.066489 0.494722
-0.0751812 -0.0657193 0.4948
-0.074455 -0.0649717 0.495147
-0.0737332 -0.0642283 0.49555
-0.0730134 -0.0634864 0.49598
-0.0723081 -0.0627579 0.496591
-0.0716069 -0.0620331 0.497263
-0.0708996 -0.0613027 0.497877
-0.0701907 -0.0605706 0.498483
-0.0694993 -0.0598545 0.499322
-0.0687955 -0.0591268 0.500023
-0.0680954 -0.0584024 0.500788
-0.0674003 -0.0576824 0.501638
-0.0667121 -0.0569684 0.5026
-0.0660113 -0.0562429 0.503417
-0.0653273 -0.0555323 0.504487
-0.0646541 -0.0548313 0.505737
-0.0639872 -0.0541357 0.507115
-0.0633193 -0.0534387 0.508519
-0.0626531 -0.052743 0.509992
-0.0619716 -0.0520331 0.511279
-0.0612817 -0.0513154 0.512478
-0.0605808 -0.0505876 0.513544
-0.059867 -0.0498481 0.514439
-0.0591676 -0.0491208 0.515591
-0.0584816 -0.0484054 0.517006
-0.0577953 -0.0476892 0.518462
-0.0571097 -0.0469731 0.519983
-0.05643 -0.0462617 0.52166
-0.0557372 -0.0455384 0.523167
-0.055035 -0.0448064 0.52456
-0.0535669 -0.0448873 0.526547
-0.0543334 -0.0440745 0.526018
-0.11745 -0.10727 0.51553
-0.116608 -0.10641 0.515271
-0.115744 -0.105528 0.514852
-0.114812 -0.104584 0.513971
-0.113911 -0.103667 0.513273
-0.112973 -0.102716 0.51231
-0.111949 -0.101685 0.510731
-0.110898 -0.100628 0.508926
-0.109839 -0.0995629 0.50703
-0.108775 -0.0984937 0.50506
-0.10774 -0.0974533 0.50327
-0.106755 -0.0964595 0.501801
-0.105813 -0.0955075 0.500626
-0.104869 -0.0945535 0.499408
-0.103932 -0.0936059 0.498214
-0.103005 -0.0926684 0.497074
-0.102103 -0.0917552 0.496104
-0.101206 -0.0908462 0.495145
-0.100337 -0.0899643 0.494388
-0.0995091 -0.0891207 0.49393
-0.0986786 -0.0882749 0.493441
-0.0978487 -0.08743 0.492945
-0.0970191 -0.0865852 0.492437
-0.0961828 -0.0857345 0.491862
-0.0953288 -0.0848675 0.491126
-0.094482 -0.0840072 0.490431
-0.0936505 -0.0831615 0.489848
-0.0927952 -0.0822938 0.489047
-0.0919556 -0.0814409 0.488361
-0.0911377 -0.0806084 0.487845
-0.0903374 -0.0797924 0.487468
-0.0895545 -0.0789927 0.487234
-0.0888171 -0.0782351 0.487397
-0.0880825 -0.0774803 0.487587
-0.087348 -0.0767254 0.487777
-0.0866299 -0.0759858 0.48812
-0.0858993 -0.0752345 0.48835
-0.0851687 -0.0744833 0.488581
-0.084462 -0.0737539 0.489041
-0.0837861 -0.0730529 0.489806
-0.0831313 -0.0723711 0.490793
-0.0824656 -0.071679 0.49169
-0.0817941 -0.0709815 0.492546
-0.0810989 -0.0702621 0.493178
-0.0803684 -0.0695104 0.49346
-0.079617 -0.0687396 0.493527
-0.0788639 -0.0679673 0.493574
-0.07811 -0.0671944 0.493608
-0.0773618 -0.0664266 0.493701
-0.0766261 -0.0656701 0.493927
-0.0758872 -0.0649108 0.49412
-0.0751681 -0.0641693 0.494537
-0.0744631 -0.0634404 0.49512
-0.0737492 -0.0627035 0.495612
-0.07305 -0.0619796 0.496285
-0.0723549 -0.0612591 0.49702
-0.0716534 -0.0605328 0.497695
-0.0709407 -0.0597964 0.498247
-0.0702493 -0.0590788 0.499074
-0.0695402 -0.0583452 0.499698
-0.0688358 -0.0576157 0.500396
-0.0681377 -0.0568916 0.501191
-0.0674468 -0.0561736 0.502101
-0.0667469 -0.0554474 0.502913
-0.06606 -0.0547323 0.503922
-0.0653836 -0.0540262 0.505103
-0.0647146 -0.0533262 0.506423
-0.0640445 -0.0526247 0.507765
-0.0633763 -0.0519245 0.509175
-0.0626966 -0.0512138 0.510457
-0.0620086 -0.0504957 0.511655
-0.0613096 -0.0497677 0.51272
-0.0606013 -0.0490313 0.513672
-0.0599028 -0.0483031 0.514811
-0.0592194 -0.0475871 0.516229
-0.0585353 -0.0468701 0.517684
-0.0578488 -0.0461505 0.519149
-0.0571682 -0.0454352 0.520766
-0.0564768 -0.0447103 0.522254
-0.0557769 -0.0439779 0.523647
-0.0550819 -0.0432487 0.525177
-0.118089 -0.106328 0.514403
-0.117109 -0.105339 0.513218
-0.116251 -0.104466 0.512833
-0.115322 -0.103525 0.511957
-0.114421 -0.102612 0.511258
-0.113497 -0.101678 0.510388
-0.112506 -0.10068 0.509028
-0.111496 -0.099666 0.507515
-0.110477 -0.0986437 0.505908
-0.109441 -0.0976062 0.504152
-0.10843 -0.0965928 0.502544
-0.107459 -0.0956158 0.501184
-0.106516 -0.0946662 0.50001
-0.105588 -0.09373 0.498917
-0.104667 -0.0928005 0.49785
-0.103748 -0.0918735 0.496779
-0.102846 -0.0909623 0.495814
-0.101947 -0.090055 0.494855
-0.101076 -0.0891733 0.494088
-0.100249 -0.0883314 0.493637
-0.0994258 -0.0874942 0.493213
-0.0986107 -0.0866645 0.49284
-0.0978091 -0.0858472 0.492564
-0.0969959 -0.0850192 0.492184
-0.0961647 -0.0841751 0.491647
-0.0953326 -0.0833301 0.491088
-0.0945043 -0.082489 0.490547
-0.093637 -0.0816125 0.489664
-0.0927873 -0.0807523 0.488908
-0.0919613 -0.0799138 0.488336
-0.091154 -0.0790927 0.487911
-0.0903632 -0.0782868 0.487619
-0.0896183 -0.0775224 0.487721
-0.0888747 -0.0767592 0.487834
-0.0881324 -0.0759972 0.487958
-0.0874077 -0.0752512 0.488241
-0.0866706 -0.074494 0.488413
-0.0859279 -0.0737316 0.488531
-0.0852086 -0.0729904 0.488871
-0.0845153 -0.0722724 0.489462
-0.0838431 -0.0715732 0.490267
-0.0831598 -0.0708638 0.490979
-0.0824762 -0.070154 0.4917
-0.0817706 -0.0694245 0.492214
-0.0810354 -0.0686684 0.492436
-0.0802841 -0.0678981 0.492494
-0.0795327 -0.0671278 0.492548
-0.0787802 -0.0663565 0.492588
-0.0780328 -0.0655898 0.492678
-0.0773036 -0.0648391 0.492963
-0.0765723 -0.0640865 0.493227
-0.0758653 -0.0633553 0.493764
-0.0751726 -0.0626363 0.494471
-0.07447 -0.0619086 0.49508
-0.073778 -0.0611899 0.495823
-0.0730937 -0.0604776 0.496672
-0.072394 -0.0597518 0.497356
-0.0716817 -0.0590149 0.497905
-0.0709861 -0.0582923 0.498668
-0.070272 -0.0575536 0.499219
-0.0695631 -0.056819 0.499847
-0.0688618 -0.0560909 0.500585
-0.0681677 -0.0553686 0.501434
-0.0674735 -0.0546461 0.502304
-0.0667876 -0.0539301 0.503305
-0.0661092 -0.0532201 0.504434
-0.0654374 -0.0525153 0.505686
-0.0647677 -0.0518119 0.507005
-0.0640969 -0.051107 0.508346
-0.0634233 -0.0503991 0.509683
-0.0627383 -0.0496814 0.510896
-0.0620416 -0.0489535 0.511969
-0.0613348 -0.0482168 0.512918
-0.0606376 -0.0474876 0.514047
-0.059952 -0.0467674 0.515394
-0.0592741 -0.0460529 0.516912
-0.0585897 -0.0453324 0.518374
-0.0579112 -0.044616 0.519985
-0.0572216 -0.0438899 0.521464
-0.056524 -0.0431568 0.522855
-0.055828 -0.0424243 0.524329
-0.0543839 -0.0425166 0.526715
-0.0551428 -0.0416994 0.52605
-0.11773 -0.104388 0.511989
-0.116753 -0.103407 0.51081
-0.115837 -0.102482 0.510019
-0.114941 -0.101575 0.509341
-0.114039 -0.100664 0.508616
-0.11308 -0.0996996 0.507478
-0.112118 -0.0987336 0.5063
-0.111138 -0.0977513 0.504972
-0.110129 -0.0967425 0.503411
-0.109126 -0.0957404 0.501869
-0.108154 -0.0947663 0.500512
-0.107211 -0.0938192 0.499341
-0.106291 -0.0928936 0.498313
-0.105377 -0.0919739 0.49731
-0.104474 -0.0910642 0.496364
-0.103578 -0.0901614 0.495453
-0.102685 -0.0892616 0.494544
-0.101814 -0.0883822 0.493784
-0.100987 -0.0875423 0.493341
-0.100165 -0.0867067 0.492923
-0.0993639 -0.0858911 0.492666
-0.0985768 -0.0850879 0.492509
-0.0977862 -0.0842815 0.492315
-0.0969769 -0.0834586 0.491965
-0.0961593 -0.0826283 0.491536
-0.0953379 -0.0817949 0.491065
-0.0944634 -0.0809142 0.490138
-0.0936107 -0.0800534 0.489372
-0.0927813 -0.0792136 0.488786
-0.0919662 -0.0783866 0.488305
-0.0911669 -0.077574 0.487948
-0.090413 -0.0768018 0.487978
-0.0896545 -0.0760256 0.487964
-0.0888983 -0.0752514 0.487966
-0.0881668 -0.074499 0.488188
-0.0874237 -0.0737365 0.488305
-0.0866745 -0.0729687 0.488365
-0.0859485 -0.0722212 0.488639
-0.0852422 -0.0714909 0.489101
-0.0845507 -0.0707734 0.489711
-0.0838435 -0.070042 0.49018
-0.0831483 -0.0693211 0.490773
-0.0824313 -0.068581 0.491161
-0.0816916 -0.0678212 0.491326
-0.080942 -0.0670527 0.49139
-0.0802024 -0.0662932 0.491555
-0.0794571 -0.0655284 0.491659
-0.0787121 -0.0647641 0.491767
-0.0779896 -0.0640192 0.492111
-0.0772693 -0.063276 0.492484
-0.0765703 -0.0625508 0.493095
-0.0758907 -0.0618419 0.493932
-0.0752056 -0.0611281 0.494726
-0.0745201 -0.0604137 0.495532
-0.0738371 -0.0597011 0.496383
-0.0731378 -0.0589746 0.497064
-0.0724168 -0.0582295 0.4975
-0.0717125 -0.0574984 0.498146
-0.0709941 -0.0567553 0.498633
-0.0702808 -0.0560164 0.499192
-0.0695802 -0.0552877 0.499923
-0.0688874 -0.0545652 0.500771
-0.0681951 -0.0538428 0.501645
-0.067515 -0.0531298 0.502699
-0.066838 -0.0524191 0.503826
-0.066163 -0.0517097 0.50501
-0.0654949 -0.051005 0.50632
-0.0648208 -0.0502952 0.507586
-0.0641447 -0.049583 0.508859
-0.0634659 -0.0488681 0.51013
-0.0627723 -0.0481409 0.511221
-0.0620712 -0.0474073 0.512232
-0.06138 -0.046681 0.513423
-0.0606955 -0.0459593 0.514757
-0.0600154 -0.0452405 0.516205
-0.0593327 -0.0445186 0.517656
-0.0586527 -0.0437983 0.519204
-0.0579653 -0.0430714 0.520681
-0.0572695 -0.0423373 0.522064
-0.0565753 -0.0416037 0.523529
-0.0558956 -0.0408801 0.525304
-0.0544442 -0.0409634 0.527594
-0.0552032 -0.0401459 0.526914
-0.119688 -0.104748 0.514272
-0.118371 -0.103462 0.510916
-0.117272 -0.102373 0.508932
-0.116395 -0.101486 0.508394
-0.115521 -0.100601 0.507859
-0.11464 -0.0997103 0.507269
-0.113709 -0.0987748 0.506324
-0.112775 -0.0978362 0.505333
-0.111805 -0.0968666 0.504081
-0.110805 -0.0958701 0.502593
-0.109818 -0.0948863 0.501171
-0.108853 -0.093923 0.499879
-0.107911 -0.0929797 0.498719
-0.106999 -0.0920644 0.497759
-0.106093 -0.0911539 0.496815
-0.105197 -0.0902534 0.495931
-0.104302 -0.0893537 0.495031
-0.103424 -0.0884701 0.494244
-0.10256 -0.0875985 0.493539
-0.10174 -0.0867661 0.493154
-0.100917 -0.085932 0.492741
-0.100124 -0.0851237 0.492543
-0.0993365 -0.0843214 0.492389
-0.098553 -0.0835221 0.492256
-0.0977512 -0.0827068 0.491971
-0.0969415 -0.0818849 0.491613
-0.096129 -0.0810606 0.491222
-0.0952613 -0.0801884 0.490365
-0.0944077 -0.0793288 0.489605
-0.0935766 -0.078489 0.489015
-0.0927579 -0.0776605 0.488515
-0.0919501 -0.0768416 0.488094
-0.0911883 -0.0760628 0.488059
-0.0904219 -0.0752801 0.487979
-0.0896581 -0.0744998 0.487918
-0.0889203 -0.0737419 0.488084
-0.0881767 -0.0729791 0.488197
-0.0874211 -0.0722059 0.488199
-0.0866881 -0.0714522 0.488406
-0.0859679 -0.0707094 0.488734
-0.0852522 -0.0699704 0.489108
-0.0845248 -0.0692213 0.489374
-0.0838168 -0.0684888 0.489832
-0.0830895 -0.0677396 0.490105
-0.0823518 -0.0669817 0.490279
-0.0816146 -0.0662242 0.490458
-0.0808828 -0.0654712 0.490691
-0.0801444 -0.0647128 0.490859
-0.0794058 -0.0639541 0.491025
-0.0786848 -0.06321 0.491374
-0.0779709 -0.0624718 0.491804
-0.0772739 -0.0617475 0.492425
-0.076602 -0.0610437 0.49333
-0.0759252 -0.0603354 0.4942
-0.0752461 -0.0596251 0.495065
-0.0745646 -0.0589123 0.495919
-0.0738699 -0.0581884 0.496639
-0.0731493 -0.0574433 0.497074
-0.0724409 -0.056708 0.497659
-0.0717228 -0.0559646 0.49814
-0.071005 -0.0552212 0.498634
-0.0703008 -0.0544886 0.499305
-0.0696052 -0.0537626 0.500099
-0.0689183 -0.053043 0.501022
-0.0682405 -0.0523303 0.502086
-0.0675657 -0.0516194 0.503219
