ply
format ascii 1.0
element vertex 1540
property float x
property float y
property float z
end_header
-0.00740009 -0.0229246 0.173238
-0.00778054 -0.0233127 0.173381
-0.00816387 -0.0237016 0.173641
-0.00854627 -0.0240908 0.173835
-0.00892825 -0.0244802 0.173993
-0.00931126 -0.0248702 0.174177
-0.00969323 -0.02526 0.174308
-0.0100756 -0.0256503 0.174443
-0.010459 -0.0260411 0.174599
-0.0108437 -0.0264327 0.174786
-0.0112253 -0.0268231 0.174864
-0.0116087 -0.0272145 0.174993
-0.0119924 -0.0276062 0.175117
-0.0123794 -0.0279998 0.175332
-0.0127677 -0.0283943 0.175568
-0.0131621 -0.0287925 0.175952
-0.0135611 -0.0291936 0.176434
-0.0139637 -0.0295974 0.176978
-0.0143704 -0.0300042 0.177592
-0.0147776 -0.0304119 0.178185
-0.01519 -0.0308234 0.178864
-0.0156039 -0.0312365 0.179543
-0.0160224 -0.0316531 0.180287
-0.0164389 -0.0320691 0.180951
-0.0168541 -0.0324847 0.181554
-0.017261 -0.0328954 0.181961
-0.0176618 -0.0333021 0.182226
-0.0180484 -0.0336995 0.182203
-0.0184295 -0.034093 0.182077
-0.0188031 -0.034481 0.181815
-0.0191739 -0.0348669 0.181515
-0.0195437 -0.0352519 0.18121
-0.0199188 -0.0356405 0.18101
-0.0202996 -0.0360331 0.180916
-0.0206901 -0.0364327 0.180988
-0.0210887 -0.0368384 0.181192
-0.021492 -0.0372477 0.181463
-0.0219 -0.0376606 0.1818
-0.0223088 -0.0380744 0.182137
-0.0227221 -0.0384918 0.182529
-0.0231389 -0.0389122 0.182961
-0.023559 -0.0393354 0.183429
-0.0241621 -0.0399002 0.186529
0.00852312 -0.00713325 0.187996
0.00810688 -0.00757192 0.187241
0.0076967 -0.00800196 0.186648
0.00728722 -0.00843167 0.186026
0.00690062 -0.00882456 0.18629
0.00650428 -0.00923347 0.186156
0.00610178 -0.00965312 0.185727
0.00569675 -0.010078 0.185123
0.00529233 -0.0105029 0.184478
0.00488675 -0.0109312 0.183687
0.00448475 -0.0113543 0.182992
0.00408457 -0.0117755 0.18231
0.00368782 -0.0121912 0.181751
0.00329381 -0.0126025 0.181295
0.00290257 -0.013009 0.180975
0.00251125 -0.0134166 0.18058
0.00212066 -0.0138238 0.180166
0.00172988 -0.0142334 0.179612
0.00134003 -0.0146426 0.179014
0.000951145 -0.0150519 0.178342
0.000564587 -0.0154569 0.177805
0.000179667 -0.0158586 0.177366
-0.00020415 -0.0162592 0.176933
-0.000586891 -0.0166582 0.176526
-0.00096865 -0.0170555 0.176172
-0.00134955 -0.0174517 0.175825
-0.00172971 -0.0178467 0.175513
-0.00210895 -0.0182415 0.175147
-0.00248713 -0.0186359 0.174736
-0.00286476 -0.0190286 0.174407
-0.00324152 -0.0194205 0.174068
-0.00361783 -0.0198112 0.173773
-0.00399497 -0.0202002 0.173651
-0.00437178 -0.0205889 0.173526
-0.0047483 -0.0209773 0.173405
-0.00512532 -0.0213652 0.173347
-0.00550306 -0.0217529 0.173351
-0.00588001 -0.0221406 0.173304
-0.00625814 -0.0225283 0.173336
-0.00663677 -0.0229161 0.173396
-0.00701626 -0.0233042 0.173494
-0.00739672 -0.0236927 0.173632
-0.00778048 -0.0240824 0.173913
-0.00816363 -0.0244724 0.174138
-0.00854663 -0.0248626 0.174333
-0.00893051 -0.0252535 0.174546
-0.00931283 -0.025644 0.174678
-0.00969467 -0.0260344 0.17478
-0.0100775 -0.0264255 0.174909
-0.0104622 -0.0268177 0.175096
-0.010845 -0.027209 0.175203
-0.0112299 -0.0276016 0.17537
-0.0116141 -0.027994 0.175501
-0.0120024 -0.0283889 0.175747
-0.0123938 -0.028786 0.176066
-0.0127908 -0.0291867 0.176521
-0.0131927 -0.0295908 0.177077
-0.013598 -0.0299978 0.177691
-0.0140062 -0.030407 0.178339
-0.0144111 -0.0308146 0.17887
-0.0148205 -0.0312258 0.179479
-0.015234 -0.0316402 0.18015
-0.0156527 -0.0320587 0.180903
-0.0160701 -0.0324768 0.181586
-0.0164874 -0.0328955 0.182236
-0.0168961 -0.0333085 0.182674
-0.0172959 -0.0337154 0.182908
-0.0176817 -0.0341122 0.182852
-0.0180635 -0.0345062 0.182721
-0.0184378 -0.0348944 0.182452
-0.0188078 -0.0352794 0.182117
-0.0191785 -0.0356645 0.181808
-0.0195558 -0.0360545 0.18163
-0.019934 -0.0364451 0.181475
-0.0203231 -0.036844 0.181514
-0.0207234 -0.0372516 0.18174
-0.0211273 -0.0376621 0.182017
-0.021536 -0.0380764 0.182359
-0.0219492 -0.0384946 0.182762
-0.0223628 -0.0389133 0.183156
-0.0227777 -0.0393331 0.183555
-0.0231938 -0.0397542 0.183958
0.00817595 -0.00828674 0.189318
0.00773367 -0.00876234 0.187609
0.0073226 -0.00919242 0.18697
0.00692354 -0.0096047 0.186764
0.006519 -0.0100258 0.1863
0.00611322 -0.0104496 0.185727
0.00570788 -0.0108735 0.185111
0.00530125 -0.0113005 0.184353
0.00489805 -0.0117229 0.183684
0.00449602 -0.0121443 0.18299
0.00409619 -0.0125631 0.182331
0.00369986 -0.0129767 0.181802
0.00330628 -0.013386 0.181383
0.0029135 -0.0137947 0.180949
0.00252174 -0.0142023 0.180512
0.0021302 -0.0146108 0.179994
0.00173948 -0.0150191 0.179431
0.00134953 -0.0154275 0.178788
0.000961693 -0.0158325 0.178244
0.000575589 -0.0162348 0.177775
0.000190718 -0.0166354 0.177339
-0.000193103 -0.0170349 0.176901
-0.00057575 -0.0174322 0.176547
-0.000957527 -0.0178289 0.176173
-0.00133847 -0.0182235 0.175893
-0.00171863 -0.0186183 0.175526
-0.00209777 -0.0190127 0.175121
-0.00247623 -0.0194054 0.174788
-0.00285385 -0.0197974 0.174439
-0.00323075 -0.0201885 0.17411
-0.00360798 -0.020578 0.173932
-0.00398526 -0.0209669 0.173806
-0.00436255 -0.0213554 0.173713
-0.00474037 -0.0217436 0.173683
-0.00511861 -0.0221317 0.173695
-0.0054968 -0.0225198 0.173706
-0.00587578 -0.0229081 0.173767
-0.00625445 -0.0232964 0.1738
-0.00663375 -0.023685 0.173866
-0.0070138 -0.0240738 0.173967
-0.00739697 -0.024464 0.174214
-0.00777972 -0.0248544 0.174415
-0.00816297 -0.0252453 0.174617
-0.00854714 -0.0256369 0.17484
-0.00892966 -0.0260279 0.17497
-0.00931163 -0.0264187 0.175071
-0.0096945 -0.0268102 0.175195
-0.0100803 -0.0272035 0.175414
-0.0104644 -0.0275959 0.175556
-0.0108514 -0.0279903 0.175784
-0.0112376 -0.0283844 0.175973
-0.0116282 -0.0287815 0.176282
-0.012022 -0.029181 0.176664
-0.0124207 -0.0295839 0.177162
-0.0128239 -0.0299904 0.177753
-0.0132297 -0.030399 0.178377
-0.0136354 -0.0308082 0.178961
-0.0140376 -0.0312152 0.17942
-0.0144466 -0.0316276 0.180023
-0.0148603 -0.0320436 0.1807
-0.0152806 -0.0324651 0.181498
-0.0157009 -0.032887 0.18225
-0.0161193 -0.0333079 0.182923
-0.0165278 -0.0337219 0.183351
-0.0169275 -0.0341295 0.183571
-0.0173124 -0.0345257 0.18348
-0.0176935 -0.034919 0.183317
-0.0180674 -0.0353066 0.183021
-0.0184371 -0.0356907 0.182659
-0.0188076 -0.0360753 0.182327
-0.0191848 -0.0364649 0.182131
-0.0195639 -0.036856 0.181978
-0.0199533 -0.0372554 0.182014
-0.0203538 -0.0376636 0.182237
-0.0207577 -0.0380748 0.182509
-0.0211668 -0.0384904 0.182856
-0.0215804 -0.0389098 0.183263
-0.0219943 -0.0393297 0.18366
-0.0224072 -0.0397489 0.184026
-0.0228232 -0.0401709 0.184426
0.00862213 -0.00780721 0.191021
0.00868762 -0.00854215 0.192881
0.00820781 -0.00906357 0.19005
0.00776405 -0.00953675 0.188321
0.00734259 -0.00997974 0.187307
0.00693741 -0.0104002 0.186865
0.00653051 -0.0108236 0.186304
0.00612471 -0.011246 0.185731
0.00571825 -0.0116701 0.185062
0.00531455 -0.0120907 0.184452
0.00491021 -0.0125132 0.183728
0.00450813 -0.012933 0.183035
0.004109 -0.0133489 0.182426
0.00371257 -0.0137612 0.181898
0.00331725 -0.0141725 0.181361
0.00292404 -0.014581 0.180889
0.00253146 -0.0149892 0.180376
0.00213968 -0.0153971 0.179821
0.00174848 -0.0158052 0.179182
0.0013595 -0.0162101 0.178632
0.000972079 -0.016613 0.178121
0.000586078 -0.017014 0.17765
0.000201319 -0.0174135 0.177206
-0.000182017 -0.0178103 0.176882
-0.000564621 -0.0182066 0.176536
-0.000946346 -0.0186012 0.176264
-0.00132737 -0.0189961 0.175904
-0.00170752 -0.0193901 0.175528
-0.0020868 -0.0197832 0.175164
-0.00246527 -0.0201752 0.174815
-0.00284315 -0.0205662 0.174513
-0.00322126 -0.0209559 0.174359
-0.00359899 -0.0213453 0.174207
-0.00397717 -0.0217341 0.17414
-0.00435552 -0.0221228 0.174115
-0.00473424 -0.0225114 0.174127
-0.00511336 -0.0229002 0.17417
-0.00549323 -0.0232892 0.174262
-0.00587245 -0.0236781 0.174294
-0.00625172 -0.0240671 0.174328
-0.00663166 -0.0244565 0.174394
-0.00701392 -0.0248469 0.174582
-0.00739637 -0.0252378 0.174757
-0.0077793 -0.025629 0.174935
-0.00816361 -0.0260213 0.175158
-0.00854693 -0.0264131 0.175316
-0.00892923 -0.0268045 0.175415
-0.00931316 -0.0271971 0.175571
-0.00969994 -0.0275916 0.17582
-0.0100852 -0.0279853 0.175995
-0.0104734 -0.0283811 0.176256
-0.0108619 -0.0287773 0.176509
-0.0112547 -0.0291768 0.176879
-0.011651 -0.0295789 0.17733
-0.0120521 -0.0299849 0.177895
-0.0124558 -0.0303932 0.178498
-0.0128602 -0.0308025 0.17908
-0.0132623 -0.0312103 0.17956
-0.0136608 -0.0316157 0.179919
-0.0140674 -0.0320275 0.180464
-0.0144812 -0.0324453 0.181153
-0.014903 -0.0328696 0.181994
-0.0153231 -0.0332932 0.182752
-0.0157407 -0.0337151 0.183411
-0.0161459 -0.0341275 0.183763
-0.016541 -0.0345318 0.18388
-0.0169234 -0.034926 0.183726
-0.0173035 -0.0353182 0.183533
-0.0176797 -0.035707 0.18327
-0.0180536 -0.0360938 0.182975
-0.0184286 -0.0364815 0.182715
-0.0188084 -0.036873 0.182556
-0.0191903 -0.0372662 0.182442
-0.0195802 -0.0376661 0.182475
-0.0199791 -0.0380736 0.182666
-0.0203814 -0.0384841 0.182907
-0.0207905 -0.0389005 0.183254
-0.0212039 -0.0393208 0.183657
-0.0216182 -0.0397419 0.18406
-0.0220311 -0.040162 0.184426
-0.0224469 -0.0405849 0.184825
-0.0233182 -0.0406592 0.186001
-0.0228603 -0.0410057 0.185172
0.00822881 -0.00985815 0.190389
0.00777979 -0.0103339 0.18848
0.00735314 -0.0107813 0.187271
0.00694818 -0.0112003 0.186837
0.00654354 -0.0116193 0.186374
0.00613841 -0.0120393 0.185836
0.00573388 -0.012459 0.185266
0.00532767 -0.0128816 0.184542
0.00492209 -0.0133041 0.183757
0.00451969 -0.0137226 0.183049
0.00412002 -0.0141379 0.182407
0.00372229 -0.0145509 0.181793
0.0033274 -0.0149603 0.18128
0.00293447 -0.0153671 0.180825
0.00254189 -0.0157742 0.180305
0.00214935 -0.0161821 0.179665
0.00175909 -0.016587 0.179113
0.00136993 -0.016991 0.178532
0.000982416 -0.0173929 0.177993
0.000596369 -0.0177932 0.177486
0.000212153 -0.0181903 0.177131
-0.000171162 -0.0185865 0.176788
-0.00055342 -0.0189805 0.176574
-0.000935222 -0.019375 0.176247
-0.00131628 -0.0197686 0.175931
-0.00169649 -0.0201616 0.175574
-0.00207595 -0.0205537 0.17525
-0.00245484 -0.0209447 0.174978
-0.00283389 -0.0213347 0.17486
-0.00321244 -0.0217245 0.174713
-0.00359167 -0.0221138 0.174699
-0.00397072 -0.0225031 0.174672
-0.00434984 -0.0228924 0.174659
-0.00472924 -0.0232817 0.174675
-0.00510959 -0.0236715 0.174765
-0.00548862 -0.0240607 0.174742
-0.00586796 -0.0244501 0.174746
-0.0062478 -0.0248397 0.174781
-0.00662974 -0.0252306 0.174935
-0.0070123 -0.025622 0.175103
-0.00739534 -0.0260138 0.175277
-0.00777974 -0.0264067 0.175498
-0.00816325 -0.0267991 0.175655
-0.00854649 -0.0271915 0.175782
-0.00893085 -0.0275848 0.175945
-0.00931869 -0.0279807 0.176231
-0.00970592 -0.0283764 0.176469
-0.0100968 -0.0287749 0.176819
-0.0104876 -0.0291736 0.177141
-0.010882 -0.0295751 0.177552
-0.0112798 -0.0299797 0.178044
-0.011681 -0.0303872 0.178608
-0.0120816 -0.0307945 0.179113
-0.0124816 -0.0312015 0.179567
-0.012881 -0.0316083 0.179972
-0.0132781 -0.0320134 0.180293
-0.0136835 -0.0324256 0.180811
-0.0140985 -0.0328459 0.181541
-0.0145199 -0.0332719 0.182388
-0.0149382 -0.0336956 0.18311
-0.0153526 -0.0341164 0.183706
-0.0157534 -0.0345259 0.18396
-0.0161443 -0.0349269 0.183981
-0.0165267 -0.0353208 0.183822
-0.0169072 -0.0357128 0.183628
-0.0172842 -0.0361018 0.183372
-0.0176616 -0.036491 0.183138
-0.0180404 -0.0368814 0.182942
-0.0184225 -0.0372746 0.182818
-0.0188065 -0.0376694 0.182734
-0.0191985 -0.0380712 0.1828
-0.0195977 -0.0384795 0.182994
-0.0199999 -0.0388905 0.183231
-0.0204089 -0.0393077 0.183576
-0.0208221 -0.0397287 0.183978
-0.0212362 -0.0401507 0.18438
-0.0216474 -0.0405701 0.18472
-0.0220634 -0.0409941 0.185123
-0.0224766 -0.0414155 0.185467
0.00824095 -0.0106651 0.19041
0.00778829 -0.0111407 0.188368
0.00736368 -0.0115826 0.187235
0.00696074 -0.0119981 0.186884
0.00655749 -0.0124142 0.186482
0.00615292 -0.0128321 0.185978
0.00574575 -0.0132538 0.185289
0.00533818 -0.0136764 0.184497
0.00493336 -0.0140959 0.183753
0.00453037 -0.0145135 0.183013
0.00412995 -0.0149282 0.182322
0.00373281 -0.015339 0.18174
0.0033383 -0.0157465 0.181251
0.00294497 -0.0161529 0.180764
0.00255145 -0.0165601 0.180156
0.0021599 -0.0169649 0.1796
0.00176889 -0.0173697 0.178957
0.0013799 -0.0177721 0.178377
0.000992155 -0.0181734 0.177776
0.000606827 -0.0185711 0.177358
0.000222816 -0.0189671 0.177016
-0.000159889 -0.019361 0.17683
-0.000542401 -0.0197553 0.176506
-0.000924108 -0.0201485 0.176248
-0.00130517 -0.0205412 0.17595
-0.00168552 -0.0209332 0.175664
-0.00206535 -0.0213243 0.175429
-0.00244521 -0.0217147 0.175345
-0.00282469 -0.0221049 0.175228
-0.0032046 -0.0224948 0.175223
-0.0035843 -0.0228848 0.175191
-0.003964 -0.0232746 0.175173
-0.00434394 -0.0236646 0.175183
-0.00472416 -0.0240547 0.175217
-0.00510334 -0.0244442 0.175161
-0.00548279 -0.0248338 0.175135
-0.00586256 -0.0252236 0.175137
-0.00624381 -0.0256145 0.175231
-0.0066259 -0.026006 0.175363
-0.00700836 -0.0263978 0.175499
-0.00739211 -0.0267907 0.175687
-0.0077757 -0.0271836 0.175845
-0.00815981 -0.027577 0.176009
-0.00854505 -0.0279714 0.176208
-0.0089343 -0.0283691 0.176554
-0.00932399 -0.0287673 0.176885
-0.00971674 -0.0291682 0.177303
-0.0101098 -0.0295696 0.177696
-0.0105062 -0.029974 0.178176
-0.010905 -0.0303805 0.178697
-0.0113044 -0.0307878 0.179198
-0.0117028 -0.0311944 0.179631
-0.0121005 -0.0316006 0.180013
-0.0124985 -0.0320072 0.180381
-0.0128948 -0.0324124 0.180675
-0.0133013 -0.0328267 0.181226
-0.0137148 -0.0332474 0.181928
-0.0141343 -0.0336737 0.182739
-0.0145482 -0.0340952 0.183366
-0.0149583 -0.0345134 0.183866
-0.0153549 -0.0349197 0.184027
-0.0157447 -0.0353198 0.184021
-0.0161258 -0.0357121 0.183828
-0.0165066 -0.036104 0.183635
-0.0168852 -0.0364938 0.183407
-0.0172646 -0.0368843 0.183206
-0.0176453 -0.037276 0.183041
-0.0180292 -0.0376705 0.182946
-0.0184149 -0.0380668 0.182891
-0.0188087 -0.0384705 0.182989
-0.0192081 -0.0388794 0.183186
-0.019609 -0.0392897 0.183401
-0.0200173 -0.0397071 0.183738
-0.0204317 -0.0401301 0.184166
-0.020844 -0.0405514 0.184542
-0.0212553 -0.0409717 0.184886
-0.0216728 -0.041398 0.185318
-0.0220856 -0.0418199 0.18566
0.00822405 -0.0115051 0.18939
0.00777668 -0.0119698 0.187504
0.00737559 -0.0123822 0.187254
0.00697395 -0.0127953 0.186957
0.00656969 -0.0132116 0.186516
0.00616296 -0.0136308 0.185915
0.00575488 -0.0140518 0.185181
0.00534895 -0.0144706 0.184468
0.00494361 -0.0148889 0.183695
0.004542 -0.015303 0.183031
0.00414229 -0.0157152 0.182385
0.0037455 -0.0161241 0.181834
0.00335042 -0.0165311 0.181315
0.00295588 -0.0169378 0.180737
0.00256266 -0.0173431 0.180153
0.00216959 -0.0177486 0.17945
0.00177894 -0.0181514 0.178828
0.0013896 -0.0185529 0.178187
0.00100284 -0.0189513 0.177704
0.00061781 -0.0193476 0.177328
0.000234508 -0.0197416 0.177142
-0.000148697 -0.0201358 0.176846
-0.000531041 -0.0205289 0.176624
-0.00091289 -0.0209216 0.176361
-0.00129411 -0.0213137 0.176109
-0.00167485 -0.021705 0.175929
-0.00205551 -0.0220958 0.175882
-0.0024359 -0.0224865 0.175801
-0.00281652 -0.0228772 0.1758
-0.0031971 -0.0232679 0.175793
-0.00357732 -0.0236583 0.175742
-0.0039576 -0.0240487 0.175715
-0.00433807 -0.0244392 0.175714
-0.00471783 -0.0248292 0.175652
-0.0050975 -0.0252191 0.175593
-0.00547742 -0.0256092 0.175564
-0.00585816 -0.0259999 0.175597
-0.00623954 -0.0263911 0.175667
-0.0066212 -0.0267827 0.175743
-0.00700397 -0.0271752 0.175873
-0.00738761 -0.0275685 0.176031
-0.00777292 -0.0279633 0.176254
-0.00815962 -0.0283595 0.176517
-0.00855106 -0.02876 0.176961
-0.00894308 -0.0291611 0.177385
-0.00933846 -0.0295655 0.177904
-0.00973358 -0.0299697 0.178368
-0.0101313 -0.0303764 0.178884
-0.0105276 -0.0307819 0.179312
-0.0109248 -0.0311884 0.179736
-0.0113211 -0.0315941 0.180098
-0.0117169 -0.0319995 0.18042
-0.0121144 -0.0324065 0.18077
-0.0125131 -0.0328146 0.18113
-0.0129197 -0.0332304 0.181688
-0.0133295 -0.0336492 0.182296
-0.0137444 -0.0340731 0.183003
-0.0141536 -0.0344915 0.183521
-0.0145593 -0.0349068 0.183923
-0.0149534 -0.035311 0.184025
-0.0153418 -0.0357098 0.183988
-0.015723 -0.0361017 0.183791
-0.0161039 -0.0364932 0.183598
-0.0164828 -0.0368828 0.183371
-0.0168641 -0.0372747 0.183205
-0.0172465 -0.0376675 0.18307
-0.0176306 -0.0380621 0.182977
-0.0180179 -0.0384596 0.18295
-0.0184117 -0.0388636 0.18305
-0.0188095 -0.0392715 0.18322
-0.0192102 -0.0396821 0.183435
-0.0196181 -0.0400998 0.18377
-0.0200323 -0.0405237 0.184203
-0.0204442 -0.0409454 0.184579
-0.0208553 -0.0413664 0.184927
-0.021272 -0.0417928 0.185353
-0.0216823 -0.0422131 0.185661
0.0082232 -0.0123233 0.188947
0.00780462 -0.0127533 0.18812
0.00738863 -0.0131807 0.187315
0.00698341 -0.0135969 0.186876
0.00657626 -0.014015 0.186307
0.00616825 -0.0144341 0.185638
0.00576245 -0.014851 0.184998
0.00535693 -0.0152675 0.184296
0.00495498 -0.0156804 0.183695
0.00455407 -0.0160922 0.183073
0.0041557 -0.0165014 0.182518
0.0037587 -0.0169091 0.181964
0.00336223 -0.0173164 0.181352
0.00296753 -0.0177218 0.180768
0.00257252 -0.0181276 0.180033
0.00218036 -0.0185304 0.179406
0.0017892 -0.0189322 0.178725
0.00140068 -0.0193313 0.178174
0.00101418 -0.0197282 0.177731
0.000629979 -0.0201226 0.177513
0.000245735 -0.0205172 0.177161
-0.00013716 -0.0209103 0.176971
-0.000519678 -0.0213031 0.176742
-0.000901624 -0.0216952 0.176521
-0.00128308 -0.0220868 0.176373
-0.00166447 -0.0224782 0.176405
-0.00204578 -0.0228696 0.176387
-0.00242712 -0.023261 0.176393
-0.00280842 -0.0236524 0.176392
-0.00318935 -0.0240434 0.17633
-0.0035699 -0.0244341 0.176243
-0.00395048 -0.0248247 0.17618
-0.0043306 -0.0252149 0.176088
-0.00471045 -0.0256049 0.175992
-0.00509048 -0.025995 0.17593
-0.00547083 -0.0263854 0.175903
-0.00585161 -0.0267762 0.175913
-0.00623289 -0.0271676 0.175953
-0.0066157 -0.0275604 0.176078
-0.00699995 -0.0279547 0.176267
-0.00738607 -0.0283509 0.17653
-0.00777406 -0.028749 0.176856
-0.00816684 -0.0291519 0.177367
-0.00855968 -0.0295549 0.17783
-0.00895599 -0.0299614 0.178392
-0.00935193 -0.0303675 0.178886
-0.00974961 -0.0307755 0.179404
-0.010145 -0.0311811 0.179793
-0.0105412 -0.0315876 0.18018
-0.0109365 -0.0319931 0.180505
-0.0113325 -0.0323995 0.180832
-0.0117306 -0.0328079 0.181198
-0.0121298 -0.0332175 0.181571
-0.0125354 -0.0336335 0.182102
-0.0129412 -0.0340498 0.182608
-0.0133506 -0.0344697 0.183178
-0.013754 -0.0348836 0.183554
-0.0141562 -0.0352963 0.18388
-0.0145487 -0.0356991 0.183945
-0.0149359 -0.0360965 0.18388
-0.0153173 -0.0364881 0.183686
-0.0156995 -0.0368805 0.183518
-0.0160786 -0.0372697 0.18329
-0.0164602 -0.0376615 0.18313
-0.0168445 -0.038056 0.183034
-0.0172303 -0.038452 0.182974
-0.0176176 -0.0388496 0.182947
-0.0180113 -0.0392536 0.183045
-0.0184088 -0.0396615 0.183214
-0.0188092 -0.0400723 0.183427
-0.0192166 -0.0404904 0.183763
-0.0196303 -0.0409148 0.184196
-0.0200403 -0.0413355 0.184546
-0.0204492 -0.041755 0.184863
-0.0208631 -0.0421797 0.185254
-0.0212709 -0.042598 0.185525
0.00869512 -0.0126592 0.191143
0.00825342 -0.0131096 0.189617
0.00781675 -0.013555 0.188144
0.00739455 -0.0139863 0.187099
0.00698725 -0.0144033 0.186564
0.0065792 -0.0148209 0.185941
0.00617455 -0.0152352 0.185407
0.00576987 -0.0156494 0.184809
0.00536851 -0.0160603 0.184307
0.00496734 -0.016471 0.183749
0.0045685 -0.0168794 0.183252
0.00417029 -0.0172871 0.18272
0.00377203 -0.0176947 0.1821
0.00337486 -0.018101 0.181451
0.00297769 -0.0185072 0.180681
0.00258395 -0.0189101 0.18005
0.00219088 -0.0193122 0.179338
0.00180017 -0.0197119 0.178701
0.00141195 -0.0201094 0.178188
0.00102665 -0.0205044 0.177924
0.000640943 -0.0208994 0.177477
0.000257195 -0.0212928 0.177232
-0.000125811 -0.0216855 0.177035
-0.000508339 -0.0220777 0.176842
-0.00089036 -0.0224696 0.176693
-0.00127208 -0.0228614 0.176725
-0.00165385 -0.0232533 0.176742
-0.00203562 -0.0236451 0.17675
-0.00241738 -0.024037 0.176753
-0.00279878 -0.0244283 0.176687
-0.00317987 -0.0248193 0.176599
-0.00356071 -0.02521 0.176504
-0.00394135 -0.0256005 0.176413
-0.0043217 -0.0259907 0.176317
-0.00470217 -0.0263811 0.176253
-0.00508288 -0.0267718 0.176222
-0.00546399 -0.0271629 0.176226
-0.00584554 -0.0275546 0.176262
-0.00622854 -0.027948 0.176386
-0.00661344 -0.0283435 0.176605
-0.00700023 -0.028741 0.176902
-0.0073891 -0.0291409 0.177269
-0.00778306 -0.0295463 0.177846
-0.00817727 -0.029952 0.178371
-0.00857423 -0.0303605 0.178963
-0.00897028 -0.030768 0.179459
-0.00936723 -0.0311764 0.179945
-0.00976111 -0.0315813 0.18027
-0.0101556 -0.0319868 0.180592
-0.0105502 -0.0323924 0.180889
-0.0109467 -0.0328 0.181227
-0.0113459 -0.0332106 0.18163
-0.0117453 -0.0336212 0.182006
-0.0121485 -0.0340359 0.182471
-0.0125496 -0.0344483 0.182844
-0.0129525 -0.0348626 0.183243
-0.0133504 -0.0352715 0.183483
-0.0137472 -0.0356792 0.183678
-0.0141381 -0.0360805 0.183712
-0.0145251 -0.0364776 0.183647
-0.0149067 -0.0368688 0.183455
-0.0152886 -0.0372605 0.183284
-0.0156704 -0.037652 0.183118
-0.0160536 -0.0380451 0.182992
-0.0164397 -0.0384413 0.182936
-0.0168286 -0.0388404 0.18294
-0.0172174 -0.0392395 0.182945
-0.0176093 -0.0396419 0.18301
-0.0180064 -0.0400498 0.183175
-0.0184061 -0.0404604 0.183381
-0.0188117 -0.0408773 0.183691
-0.0192248 -0.0413021 0.184123
-0.0196342 -0.041723 0.184471
-0.0200406 -0.0421407 0.184753
-0.0204502 -0.0425617 0.185078
0.00871976 -0.0134573 0.191591
0.00825786 -0.0139216 0.189364
0.00781545 -0.0143683 0.187668
0.00739811 -0.0147928 0.186792
0.00699216 -0.0152073 0.186298
0.00658882 -0.0156194 0.185866
0.00618451 -0.016032 0.185342
0.00578337 -0.0164419 0.18491
0.00538156 -0.016852 0.184392
0.00498089 -0.0172609 0.18387
0.00458182 -0.0176683 0.183367
0.00418243 -0.0180756 0.182771
0.00378397 -0.0184819 0.182142
0.00338497 -0.018888 0.181367
0.00299038 -0.0192905 0.180794
0.0025956 -0.0196925 0.180087
0.00220326 -0.0200925 0.179452
0.00181262 -0.0204907 0.178839
0.00142559 -0.0208865 0.178497
0.00103794 -0.0212819 0.177942
0.000652796 -0.0216757 0.1776
0.00026897 -0.0220686 0.177373
-0.000114184 -0.0224611 0.177183
-0.000496853 -0.0228531 0.177008
-0.000878914 -0.0232453 0.177039
-0.00126105 -0.0236377 0.177081
-0.0016432 -0.0240299 0.177068
-0.0020254 -0.0244223 0.177102
-0.00240742 -0.0248142 0.177065
-0.00278922 -0.0252058 0.177
-0.00317066 -0.0255969 0.176913
-0.00355214 -0.0259882 0.176853
-0.00393295 -0.0263785 0.176735
-0.00431425 -0.0267697 0.176695
-0.0046952 -0.0271604 0.176636
-0.00507642 -0.0275516 0.17661
-0.00545801 -0.0279432 0.176617
-0.00584169 -0.0283377 0.176767
-0.00622735 -0.0287346 0.177023
-0.00661494 -0.0291339 0.177358
-0.00700506 -0.0295362 0.17779
-0.0073995 -0.0299437 0.178395
-0.00779373 -0.0303506 0.178921
-0.00818991 -0.0307596 0.179478
-0.00858589 -0.0311682 0.179972
-0.00898208 -0.0315768 0.180426
-0.0093762 -0.0319828 0.180753
-0.00977102 -0.0323894 0.181079
-0.0101658 -0.032796 0.181378
-0.0105625 -0.0332045 0.181714
-0.0109609 -0.0336151 0.182086
-0.0113583 -0.0340243 0.182397
-0.011758 -0.0344361 0.182757
-0.0121545 -0.0348441 0.182994
-0.0125504 -0.0352513 0.183199
-0.0129423 -0.0356538 0.183278
-0.0133339 -0.0360561 0.183345
-0.013722 -0.0364543 0.183317
-0.0141076 -0.0368497 0.183226
-0.0144903 -0.0372418 0.183069
-0.0148746 -0.0376357 0.182958
-0.0152601 -0.038031 0.182885
-0.0156462 -0.038427 0.182826
-0.0160352 -0.0388264 0.182838
-0.0164269 -0.0392287 0.182907
-0.0168172 -0.0396295 0.182943
-0.0172075 -0.0400302 0.182977
-0.0176027 -0.0404364 0.183108
-0.0180004 -0.0408453 0.183281
-0.0184038 -0.0412606 0.183558
-0.0188129 -0.041682 0.183928
-0.0192197 -0.042101 0.184241
-0.0196232 -0.0425162 0.184483
-0.0200563 -0.0429639 0.185233
0.00871813 -0.0142783 0.191138
0.00825694 -0.0147366 0.18892
0.00782517 -0.0151708 0.187603
0.00741004 -0.0155914 0.186812
0.00699887 -0.0160086 0.186106
0.00659732 -0.0164183 0.18574
0.00619791 -0.0168261 0.185432
0.00579691 -0.0172348 0.185013
0.00539743 -0.0176421 0.18462
0.00499761 -0.0180493 0.184158
0.00459662 -0.0184568 0.183566
0.00419639 -0.0188633 0.182934
0.00379538 -0.0192695 0.18215
0.00339873 -0.0196725 0.181546
0.003003 -0.0200743 0.180902
0.00260866 -0.0204746 0.180244
0.00221538 -0.0208734 0.17954
0.0018263 -0.0212698 0.17911
0.00143659 -0.0216654 0.178474
0.00104973 -0.0220595 0.178034
0.00066494 -0.0224527 0.177776
0.000281072 -0.0228453 0.177586
-0.000102404 -0.0232375 0.177378
-0.000484872 -0.0236302 0.177406
-0.000867411 -0.0240231 0.177446
-0.00125 -0.0244159 0.177463
-0.0016327 -0.0248091 0.177527
-0.00201529 -0.0252015 0.177498
-0.00239767 -0.0255936 0.177433
-0.00277993 -0.0259855 0.177376
-0.00316222 -0.0263777 0.177351
-0.00354383 -0.0267686 0.17724
-0.00392631 -0.0271613 0.177263
-0.00430829 -0.0275531 0.177231
-0.00469029 -0.027945 0.177208
-0.00507263 -0.0283375 0.177218
-0.00545725 -0.0287335 0.177402
-0.0058434 -0.0291316 0.177662
-0.00623142 -0.0295321 0.178
-0.00662184 -0.0299358 0.178436
-0.00701576 -0.030344 0.179011
-0.00741005 -0.0307522 0.179533
-0.00780559 -0.0311617 0.180059
-0.00820107 -0.0315707 0.180523
-0.00859673 -0.0319797 0.180948
-0.0089911 -0.0323867 0.181277
-0.00938543 -0.0327934 0.181573
-0.00977977 -0.0332 0.181845
-0.0101756 -0.0336083 0.182147
-0.0105712 -0.0340162 0.18242
-0.0109655 -0.0344222 0.182624
-0.0113609 -0.0348296 0.182849
-0.0117529 -0.0352326 0.182954
-0.0121431 -0.0356333 0.182994
-0.012533 -0.0360338 0.183027
-0.0129219 -0.0364328 0.183027
-0.0133086 -0.0368293 0.182968
-0.013694 -0.0372243 0.18288
-0.0140788 -0.0376186 0.182784
-0.0144645 -0.038014 0.182714
-0.0148528 -0.0384124 0.182709
-0.0152417 -0.0388117 0.182722
-0.0156323 -0.0392129 0.182772
-0.016024 -0.0396154 0.182843
-0.0164141 -0.040016 0.182877
-0.0168029 -0.040415 0.182881
-0.0171963 -0.0408195 0.182982
-0.0175935 -0.0412283 0.183153
-0.0179961 -0.0416434 0.183423
-0.0184012 -0.0420612 0.183729
-0.0188053 -0.0424778 0.184003
-0.0192064 -0.0428909 0.184209
0.00871319 -0.0150995 0.190574
0.0082657 -0.0155426 0.188823
0.00783769 -0.015971 0.187643
0.00741551 -0.0163945 0.18658
0.00700696 -0.0168081 0.18597
0.00661006 -0.0172139 0.185798
0.00621164 -0.0176204 0.185537
0.00581383 -0.0180262 0.185276
0.00541459 -0.0184326 0.184912
0.00501263 -0.01884 0.184355
0.00461135 -0.0192463 0.18376
0.00420932 -0.0196522 0.183033
0.00381137 -0.0200554 0.182461
0.00341419 -0.0204573 0.181846
0.00301716 -0.0208582 0.181129
0.00262083 -0.0212575 0.180325
0.00222894 -0.0216545 0.179766
0.0018367 -0.0220502 0.179024
0.00144791 -0.0224443 0.17849
0.00106205 -0.0228377 0.178203
0.000677585 -0.0232307 0.178037
0.000293159 -0.023623 0.177793
-8.98969e-05 -0.0240161 0.177788
-0.000472889 -0.0244092 0.177793
-0.000855865 -0.0248027 0.177841
-0.00123895 -0.0251962 0.177883
-0.00162204 -0.0255894 0.177885
-0.00200513 -0.0259825 0.17788
-0.00238807 -0.0263753 0.177852
-0.00277105 -0.0267682 0.177836
-0.00315353 -0.02716 0.177755
-0.00353684 -0.0275539 0.177809
-0.00391951 -0.0279463 0.177779
-0.00430256 -0.0283396 0.177794
-0.00468594 -0.0287334 0.177837
-0.00507146 -0.0291311 0.178052
-0.00545806 -0.0295303 0.17831
-0.00584642 -0.0299319 0.178649
-0.00623706 -0.0303369 0.179083
-0.00663058 -0.0307458 0.179628
-0.00702439 -0.0311545 0.180119
-0.00741938 -0.0315644 0.180612
-0.0078144 -0.0319738 0.181049
-0.00820957 -0.032383 0.181446
-0.00860416 -0.032791 0.181776
-0.00899796 -0.0331977 0.182041
-0.00939096 -0.0336029 0.18225
-0.00978505 -0.0340095 0.182481
-0.0101779 -0.0344143 0.182649
-0.0105693 -0.0348169 0.182752
-0.0109608 -0.0352196 0.182849
-0.0113495 -0.0356185 0.182851
-0.0117362 -0.0360148 0.182789
-0.0121245 -0.0364133 0.182781
-0.0125109 -0.0368092 0.182715
-0.0128972 -0.0372051 0.182655
-0.0132834 -0.0376009 0.182595
-0.0136681 -0.0379949 0.182502
-0.0140528 -0.0383888 0.182411
-0.0144423 -0.038789 0.182447
-0.0148327 -0.0391901 0.182501
-0.0152231 -0.0395912 0.182554
-0.0156157 -0.0399951 0.182653
-0.016008 -0.0403985 0.182743
-0.0163981 -0.0407992 0.182779
-0.0167914 -0.0412038 0.182881
-0.0171882 -0.0416126 0.183051
-0.01759 -0.0420273 0.183313
-0.0179914 -0.0424415 0.183555
-0.0183932 -0.0428561 0.183794
-0.0187919 -0.0432669 0.183967
0.0087236 -0.0159083 0.190534
0.00828155 -0.0163438 0.188978
0.00784674 -0.0167735 0.187554
0.00742811 -0.0171923 0.186626
0.00702384 -0.0176021 0.186193
0.00662782 -0.0180071 0.186069
0.00623135 -0.0184122 0.185912
0.00583244 -0.0188182 0.18562
0.00543088 -0.0192249 0.18516
0.00502839 -0.0196313 0.18459
0.00462455 -0.0200373 0.183866
0.00422441 -0.0204409 0.183264
0.00382634 -0.0208429 0.182703
0.00342689 -0.0212441 0.181948
0.00302854 -0.0216434 0.181138
0.00263483 -0.0220408 0.180564
0.00224069 -0.0224366 0.179816
0.00184926 -0.0228308 0.17917
0.00146176 -0.0232244 0.178822
0.0010761 -0.0236178 0.17862
0.000690134 -0.0240099 0.178279
0.000306208 -0.0244032 0.178211
-7.74956e-05 -0.0247963 0.178158
-0.000460841 -0.0251903 0.178204
-0.000844305 -0.0255843 0.178248
-0.00122785 -0.0259783 0.178282
-0.00161146 -0.0263724 0.178312
-0.0019951 -0.0267664 0.178342
-0.00237878 -0.0271604 0.178355
-0.00276229 -0.0275537 0.178332
-0.00314659 -0.0279494 0.17845
-0.00353054 -0.0283439 0.178483
-0.00391492 -0.0287393 0.178561
-0.00429974 -0.0291354 0.178665
-0.00468637 -0.0295351 0.178912
-0.00507368 -0.0299355 0.17917
-0.00546265 -0.0303387 0.179508
-0.00585325 -0.0307442 0.179906
-0.00624618 -0.0311531 0.180392
-0.00663924 -0.0315615 0.180821
-0.00703348 -0.0319712 0.181258
-0.00742757 -0.03238 0.181633
-0.00782165 -0.0327883 0.181966
-0.00821508 -0.0331951 0.182231
-0.00860769 -0.0336005 0.182435
-0.00899997 -0.034005 0.182603
-0.00939183 -0.0344087 0.18274
-0.00978297 -0.0348113 0.182838
-0.0101726 -0.0352116 0.182873
-0.0105605 -0.0356094 0.182844
-0.0109456 -0.0360031 0.182721
-0.0113291 -0.0363948 0.18256
-0.011715 -0.0367899 0.182484
-0.0120982 -0.0371815 0.182332
-0.0124833 -0.0375756 0.182246
-0.012869 -0.0379707 0.182183
-0.0132544 -0.0383655 0.182117
-0.0136376 -0.0387574 0.181998
-0.0140278 -0.0391586 0.182064
-0.0144187 -0.0395607 0.182146
-0.0148099 -0.0399631 0.182227
-0.0152033 -0.0403684 0.182358
-0.0155978 -0.040775 0.182507
-0.0159904 -0.0411791 0.182607
-0.0163851 -0.0415858 0.182747
-0.0167817 -0.0419948 0.182918
-0.0171815 -0.0424078 0.183149
-0.0175819 -0.0428214 0.183381
-0.0179818 -0.0432342 0.183592
-0.0183801 -0.0436451 0.183765
0.00918652 -0.015458 0.192656
0.00967018 -0.0149921 0.195274
0.0101212 -0.0153759 0.19635
0.00965367 -0.0158279 0.194382
0.00918559 -0.0162781 0.192244
0.00873145 -0.0167184 0.190409
0.00828744 -0.017151 0.188778
0.00786071 -0.017573 0.187647
0.00745029 -0.0179857 0.187043
0.00705201 -0.0183921 0.186874
0.00665445 -0.0187979 0.18672
0.00625215 -0.0192053 0.186335
0.00584972 -0.0196122 0.185899
0.00544628 -0.0200186 0.185361
0.00504131 -0.0204245 0.184673
0.00463994 -0.0208283 0.184097
0.00424068 -0.0212306 0.183566
0.00383951 -0.0216318 0.182826
0.00343949 -0.0220313 0.182042
0.00304406 -0.0224291 0.181471
0.00264828 -0.0228251 0.180753
0.00225487 -0.0232196 0.180099
0.00186498 -0.0236135 0.179658
0.0014773 -0.0240072 0.179359
0.00108955 -0.0243993 0.178948
0.000704392 -0.0247927 0.178817
0.000319608 -0.025186 0.1787
-6.44443e-05 -0.0255802 0.178711
-0.000448456 -0.0259749 0.17875
-0.000832581 -0.0263692 0.178759
-0.00121673 -0.0267643 0.178822
-0.00160103 -0.0271597 0.17889
-0.00198543 -0.0275548 0.178933
-0.00236976 -0.0279493 0.178942
-0.00275478 -0.0283465 0.17909
-0.00313968 -0.0287425 0.179161
-0.00352508 -0.0291396 0.179274
-0.00391115 -0.0295382 0.179443
-0.00429872 -0.0299399 0.179725
-0.00468672 -0.0303418 0.179986
-0.00507583 -0.0307454 0.18029
-0.00546646 -0.0311514 0.180655
-0.00585839 -0.0315592 0.181051
-0.00625074 -0.031967 0.181416
-0.00664406 -0.0323758 0.181787
-0.00703704 -0.0327834 0.182091
-0.00743062 -0.0331915 0.18239
-0.00782348 -0.0335979 0.182618
-0.0082149 -0.0340015 0.182755
-0.00860653 -0.0344053 0.182888
-0.00899697 -0.034807 0.182957
-0.00938597 -0.0352063 0.182962
-0.00977411 -0.0356042 0.182935
-0.0101603 -0.0359992 0.182841
-0.0105428 -0.0363886 0.182622
-0.0109243 -0.0367769 0.18239
-0.0113082 -0.0371689 0.182252
-0.0116894 -0.0375571 0.18204
-0.0120733 -0.0379495 0.181927
-0.0124587 -0.0383441 0.181863
-0.0128438 -0.0387383 0.181795
-0.0132264 -0.0391292 0.181667
-0.0136157 -0.0395295 0.181722
-0.0140069 -0.0399324 0.181823
-0.014399 -0.0403364 0.181939
-0.0147935 -0.0407436 0.182107
-0.0151893 -0.0411525 0.182298
-0.0155845 -0.0415604 0.182463
-0.0159792 -0.0419676 0.182612
-0.0163755 -0.0423767 0.182787
-0.0167749 -0.0427898 0.183016
-0.0171733 -0.0432015 0.183217
-0.0175861 -0.0436319 0.183697
-0.0180089 -0.0440749 0.184351
0.0101024 -0.0162138 0.195421
0.0096441 -0.0166559 0.193713
0.00918854 -0.0170944 0.19196
0.00873898 -0.0175279 0.190271
0.00830813 -0.0179508 0.189105
0.00789363 -0.0183652 0.188441
0.00749207 -0.0187736 0.188218
0.00708923 -0.0191821 0.18792
0.00668321 -0.0195911 0.187458
0.00627736 -0.0199992 0.186954
0.00587065 -0.0204066 0.186351
0.00546237 -0.0208132 0.185598
0.00505796 -0.0212176 0.184955
0.00465631 -0.0216203 0.184382
0.00425285 -0.0220217 0.183616
0.00385157 -0.0224212 0.182874
0.00345505 -0.0228194 0.182346
0.00305777 -0.0232158 0.18166
0.00266239 -0.0236106 0.180998
0.0022704 -0.0240048 0.180509
0.00188036 -0.0243984 0.180105
0.00149091 -0.0247906 0.179656
0.00110431 -0.0251841 0.17946
0.000718246 -0.0255773 0.179277
0.000333346 -0.0259718 0.179251
-5.13116e-05 -0.026367 0.17928
-0.000436136 -0.0267616 0.179261
-0.000820776 -0.027158 0.179359
-0.00120563 -0.0275546 0.179463
-0.00159068 -0.027951 0.179538
-0.00197588 -0.0283475 0.179612
-0.00236156 -0.0287459 0.179766
-0.00274738 -0.0291436 0.179874
-0.00313361 -0.0295423 0.180017
-0.00352066 -0.0299429 0.180221
-0.00390863 -0.0303453 0.180482
-0.00429702 -0.0307478 0.180722
-0.00468627 -0.0311518 0.180993
-0.00507653 -0.0315572 0.181292
-0.00546781 -0.0319641 0.181619
-0.0058595 -0.032371 0.18192
-0.00625184 -0.0327786 0.18222
-0.00664381 -0.0331847 0.182454
-0.00703673 -0.0335922 0.182712
-0.00742853 -0.033997 0.182879
-0.00781886 -0.0343988 0.182954
-0.00820986 -0.0348017 0.183052
-0.00859894 -0.035201 0.183056
-0.00898659 -0.035598 0.183001
-0.00937393 -0.0359944 0.182938
-0.00975945 -0.0363879 0.182811
-0.0101403 -0.036774 0.182525
-0.0105209 -0.0371601 0.182253
-0.0109045 -0.0375513 0.182104
-0.0112838 -0.037936 0.18183
-0.0116667 -0.0383266 0.181686
-0.0120517 -0.0387206 0.181618
-0.0124354 -0.0391126 0.181517
-0.0128147 -0.0394983 0.181299
-0.0132023 -0.0398964 0.181321
-0.0135926 -0.0402985 0.181413
-0.0139853 -0.0407039 0.181562
-0.0143809 -0.0411134 0.181773
-0.0147805 -0.0415283 0.182069
-0.015178 -0.0419401 0.182302
-0.015575 -0.0423509 0.182509
-0.0159712 -0.0427605 0.182688
-0.0163714 -0.0431754 0.182945
-0.0167695 -0.0435873 0.183146
-0.0171986 -0.0440412 0.183974
0.00963241 -0.0174815 0.192977
0.00919207 -0.0179091 0.191697
0.00875685 -0.0183328 0.190487
0.00833792 -0.0187488 0.189754
0.00793185 -0.0191594 0.189431
0.00752392 -0.01957 0.189006
0.00711461 -0.0199801 0.188485
0.00670664 -0.020389 0.187967
0.00629732 -0.020797 0.187335
0.00588736 -0.0212038 0.186601
0.0054807 -0.0216087 0.185945
0.00507583 -0.0220119 0.185301
0.00466978 -0.0224135 0.184502
0.00426761 -0.0228134 0.183824
0.00386914 -0.023212 0.183284
0.00346993 -0.0236087 0.1826
0.00307246 -0.0240038 0.181925
0.00267825 -0.0243983 0.181391
0.00228596 -0.0247919 0.18092
0.00189495 -0.0251845 0.180464
0.00150684 -0.0255784 0.180232
0.00111943 -0.0259719 0.180019
0.000733361 -0.0263668 0.179953
0.000347635 -0.026762 0.179922
-3.80922e-05 -0.0271568 0.179866
-0.00042339 -0.0275535 0.179933
-0.00080884 -0.0279504 0.180009
-0.00119446 -0.0283477 0.180092
-0.00158034 -0.0287463 0.180228
-0.00196656 -0.0291457 0.180389
-0.00235318 -0.0295456 0.180555
-0.00274037 -0.0299467 0.180757
-0.00312823 -0.0303492 0.180996
-0.00351664 -0.0307523 0.181233
-0.00390561 -0.031156 0.181471
-0.00429479 -0.0315592 0.181674
-0.00468477 -0.0319638 0.181906
-0.00507562 -0.0323698 0.182167
-0.00546639 -0.0327748 0.182376
-0.00585792 -0.0331809 0.182606
-0.00624949 -0.0335864 0.182802
-0.00664147 -0.0339924 0.182997
-0.00703241 -0.0343957 0.183109
-0.00742295 -0.0347979 0.183185
-0.00781343 -0.0351998 0.18325
-0.00820195 -0.0355979 0.183216
-0.00858909 -0.0359934 0.183127
-0.00897586 -0.0363885 0.183029
-0.00936009 -0.0367792 0.18284
-0.00973962 -0.037162 0.182488
-0.0101187 -0.0375446 0.182151
-0.0105004 -0.0379322 0.181934
-0.010878 -0.0383133 0.181596
-0.0112596 -0.0387013 0.181412
-0.0116434 -0.0390933 0.181313
-0.0120259 -0.0394833 0.181182
-0.0124041 -0.0398669 0.180937
-0.0127901 -0.0402627 0.180926
-0.0131799 -0.0406646 0.18102
-0.0135733 -0.0410717 0.181203
-0.0139699 -0.0414835 0.181458
-0.0143702 -0.0419005 0.181789
-0.0147696 -0.042316 0.182083
-0.0151673 -0.0427286 0.182318
-0.0155631 -0.0431381 0.182497
-0.0159628 -0.0435532 0.182757
-0.0163619 -0.0439671 0.182987
-0.0168055 -0.0444443 0.184149
0.00963436 -0.0182988 0.192673
0.00920768 -0.0187185 0.191828
0.00878454 -0.0191358 0.191035
0.00837339 -0.0195484 0.190601
0.00796043 -0.0199607 0.190061
0.00754732 -0.0203718 0.189466
0.00713663 -0.0207814 0.188912
0.00672472 -0.0211899 0.188249
0.00631187 -0.021597 0.187473
0.00590313 -0.0220022 0.186806
0.0054955 -0.0224057 0.186114
0.00508851 -0.0228074 0.185368
0.00468502 -0.0232076 0.184721
0.00428528 -0.0236068 0.184209
0.00388406 -0.0240038 0.183519
0.00348414 -0.0243989 0.182806
0.00308741 -0.0247933 0.182208
0.00269322 -0.025187 0.181706
0.00230073 -0.0255801 0.181252
0.00191142 -0.0259746 0.181022
0.00152305 -0.0263693 0.180838
0.00113594 -0.0267651 0.180772
0.000749176 -0.0271613 0.180739
0.000362513 -0.0275573 0.180705
-2.38149e-05 -0.0279545 0.180741
-0.000410143 -0.0283524 0.180811
-0.000796611 -0.0287507 0.180892
-0.00118326 -0.0291504 0.181028
-0.00157021 -0.0295497 0.181133
-0.00195756 -0.0299514 0.181328
-0.00234545 -0.0303538 0.181532
-0.00273381 -0.0307568 0.181743
-0.00312279 -0.0311609 0.181976
-0.0035123 -0.0315655 0.182204
-0.00390154 -0.0319678 0.182339
-0.00429138 -0.0323714 0.182505
-0.00468195 -0.0327764 0.182705
-0.00507198 -0.0331791 0.182818
-0.00546256 -0.0335828 0.182955
-0.0058534 -0.0339867 0.183088
-0.00624457 -0.034391 0.183223
-0.00663522 -0.0347937 0.183308
-0.00702536 -0.035195 0.183354
-0.0074159 -0.035597 0.183415
-0.0078046 -0.0359951 0.183378
-0.00819195 -0.0363906 0.183282
-0.00857836 -0.0367844 0.183156
-0.00896218 -0.0371735 0.182934
-0.00934066 -0.037553 0.182518
-0.00971849 -0.037932 0.182114
-0.0100971 -0.0383133 0.181775
-0.010473 -0.0386904 0.18137
-0.0108527 -0.0390747 0.181123
-0.0112351 -0.0394641 0.180985
-0.0116173 -0.0398535 0.180852
-0.0119975 -0.0402398 0.18067
-0.0123835 -0.0406358 0.180667
-0.012774 -0.0410393 0.180794
-0.0131679 -0.0414479 0.181002
-0.0135639 -0.0418597 0.181256
-0.0139626 -0.0422754 0.181563
-0.0143614 -0.0426908 0.181854
-0.0147572 -0.0431013 0.182058
-0.0151521 -0.0435102 0.182229
-0.0155528 -0.0439277 0.182525
-0.0159543 -0.044346 0.182821
-0.0164116 -0.0448472 0.184315
0.00922562 -0.019528 0.192036
0.00881025 -0.0199419 0.191516
0.00839383 -0.0203549 0.190915
0.00797817 -0.0207665 0.190291
0.00756521 -0.0211765 0.189712
0.00715148 -0.0215852 0.189046
0.00673752 -0.0219923 0.188305
0.00632755 -0.0223977 0.187663
0.0059174 -0.0228014 0.186939
0.00550945 -0.0232033 0.18624
0.00510394 -0.0236038 0.185583
0.0047019 -0.0240033 0.185034
0.00429831 -0.0244002 0.18431
0.00389682 -0.0247955 0.183612
0.00349797 -0.0251899 0.182984
0.0031016 -0.0255834 0.182431
0.00270843 -0.0259776 0.182039
0.0023183 -0.0263733 0.181847
0.00192901 -0.0267692 0.181697
0.00154091 -0.0271661 0.181642
0.0011533 -0.0275638 0.181638
0.000765523 -0.0279609 0.181608
0.000378147 -0.0283591 0.181636
-9.26726e-06 -0.0287575 0.181673
-0.000396705 -0.0291567 0.181742
-0.000784266 -0.0295568 0.181843
-0.00117201 -0.0299558 0.181888
-0.00156003 -0.0303578 0.182053
-0.00194843 -0.0307605 0.182227
-0.00233717 -0.0311629 0.182375
-0.0027263 -0.0315663 0.182545
-0.0031158 -0.0319697 0.182704
-0.003505 -0.0323707 0.182773
-0.00389461 -0.0327729 0.182874
-0.00428482 -0.0331766 0.18301
-0.00467463 -0.0335784 0.183086
-0.00506501 -0.0339815 0.183191
-0.00545589 -0.0343856 0.183318
-0.00584723 -0.0347904 0.183456
-0.00623841 -0.0351944 0.183565
-0.00662884 -0.0355961 0.183611
-0.00701903 -0.0359972 0.183639
-0.00740805 -0.0363955 0.183603
-0.00779523 -0.0367899 0.183481
-0.00818084 -0.0371812 0.183298
-0.00856429 -0.0375685 0.183037
-0.00894317 -0.0379471 0.182612
-0.00932 -0.0383227 0.182144
-0.0096974 -0.0387003 0.181741
-0.0100728 -0.0390751 0.181301
-0.0104516 -0.0394569 0.181014
-0.0108331 -0.0398443 0.180844
-0.0112153 -0.0402334 0.180713
-0.0115968 -0.0406213 0.180566
-0.0119828 -0.0410175 0.180568
-0.0123741 -0.0414227 0.180724
-0.0127674 -0.0418312 0.180928
-0.0131618 -0.0422411 0.181147
-0.0135585 -0.0426546 0.181415
-0.0139554 -0.0430679 0.181671
-0.0143481 -0.0434741 0.181808
-0.0147413 -0.043881 0.18195
-0.0151439 -0.0443025 0.182305
-0.0155492 -0.044728 0.182705
-0.0160173 -0.0452506 0.184482
0.00881695 -0.0207528 0.191349
0.00840283 -0.021164 0.190824
0.00798943 -0.0215739 0.19028
0.00757504 -0.0219824 0.189646
0.00715958 -0.0223894 0.18891
0.00674831 -0.0227948 0.188275
0.00633601 -0.0231983 0.187528
0.00592658 -0.0236001 0.186832
0.00551883 -0.0240003 0.186138
0.00511538 -0.0243998 0.185585
0.00471003 -0.0247964 0.184849
0.00430751 -0.0251918 0.18418
0.00390767 -0.0255864 0.18358
0.00351073 -0.0259807 0.183085
0.00311679 -0.0263756 0.18273
0.00272635 -0.0267729 0.182602
0.00233673 -0.0271705 0.182521
0.0019482 -0.0275695 0.182532
0.00155981 -0.0279689 0.182566
0.00117161 -0.028369 0.182631
0.000782916 -0.028768 0.182638
0.000394187 -0.0291671 0.182646
5.53078e-06 -0.0295666 0.182675
-0.000383132 -0.0299662 0.182706
-0.000771932 -0.0303645 0.18268
-0.00116071 -0.0307661 0.182782
-0.0015497 -0.031168 0.18289
-0.00193879 -0.0315687 0.182942
-0.00232816 -0.0319708 0.183043
-0.0027176 -0.0323721 0.183106
-0.00310721 -0.0327736 0.183174
-0.003497 -0.0331755 0.183246
-0.0038872 -0.0335786 0.18335
-0.00427731 -0.0339807 0.183419
-0.00466782 -0.0343839 0.183514
-0.00505862 -0.0347875 0.183614
-0.0054501 -0.0351928 0.18375
-0.00584196 -0.0355985 0.183889
-0.00623314 -0.0360019 0.183964
-0.00662325 -0.0364022 0.183965
-0.00701272 -0.0368009 0.18393
-0.00739993 -0.0371942 0.183777
-0.00778483 -0.0375827 0.183531
-0.0081669 -0.0379655 0.183179
-0.0085462 -0.0383432 0.182741
-0.00892225 -0.0387151 0.182208
-0.00929868 -0.0390892 0.181743
-0.00967374 -0.0394616 0.181268
-0.0100518 -0.0398409 0.180942
-0.0104317 -0.0402248 0.180714
-0.010815 -0.0406154 0.180616
-0.0111985 -0.0410069 0.180535
-0.0115857 -0.0414051 0.180573
-0.0119768 -0.0418106 0.18073
-0.0123696 -0.0422188 0.180925
-0.0127613 -0.0426246 0.181075
-0.0131552 -0.0430341 0.181278
-0.0135492 -0.0434434 0.18147
-0.01394 -0.043847 0.181568
-0.0143335 -0.0442551 0.18173
-0.014738 -0.044681 0.182147
-0.0151462 -0.0451126 0.182629
-0.0156021 -0.0456209 0.184178
0.00799163 -0.0223809 0.189935
0.00757659 -0.0227874 0.189262
0.00716523 -0.0231926 0.188672
0.00675231 -0.0235958 0.187958
0.00634154 -0.0239974 0.187264
0.00593175 -0.024397 0.186537
0.00552665 -0.0247961 0.185958
0.00511997 -0.0251923 0.185225
0.00471675 -0.0255878 0.184586
0.00431665 -0.0259828 0.184045
0.00392 -0.0263783 0.183644
0.00352583 -0.0267744 0.183352
0.00313533 -0.0271732 0.183286
0.00274555 -0.0275726 0.183269
0.00235652 -0.0279731 0.183315
0.00196762 -0.0283743 0.183388
0.00157904 -0.0287768 0.183521
0.00118919 -0.0291764 0.183508
0.000799256 -0.029576 0.18349
0.000409475 -0.0299757 0.183483
1.95478e-05 -0.0303739 0.183415
-0.000370324 -0.0307712 0.18332
-0.000759799 -0.0311717 0.183353
-0.00114935 -0.0315725 0.183389
-0.00153889 -0.0319715 0.183367
-0.00192858 -0.0323732 0.183429
-0.00231817 -0.032773 0.183431
-0.00270794 -0.033174 0.183469
-0.00309783 -0.0335753 0.183513
-0.00348798 -0.0339776 0.183583
-0.00387828 -0.03438 0.183651
-0.00426897 -0.0347837 0.183747
-0.00465998 -0.0351878 0.18385
-0.00505194 -0.0355949 0.184018
-0.00544447 -0.0360026 0.184195
-0.00583636 -0.0364079 0.184303
-0.00622701 -0.0368089 0.184309
-0.00661733 -0.0372091 0.184299
-0.00700452 -0.0376009 0.184111
-0.00738942 -0.0379878 0.183827
-0.00777027 -0.0383655 0.183374
-0.00814959 -0.0387412 0.1829
-0.00852507 -0.0391094 0.182305
-0.00890082 -0.0394799 0.181781
-0.0092763 -0.0398514 0.181298
-0.0096547 -0.0402303 0.180972
-0.0100349 -0.0406137 0.18074
-0.0104194 -0.0410064 0.180677
-0.010805 -0.0414016 0.180661
-0.0111925 -0.0418006 0.180708
-0.0115845 -0.0422081 0.180892
-0.0119753 -0.0426129 0.181028
-0.0123656 -0.0430166 0.181139
-0.012757 -0.0434222 0.181276
-0.0131484 -0.0438273 0.181403
-0.0135355 -0.0442248 0.181409
-0.0139297 -0.0446345 0.181595
-0.0143324 -0.045059 0.181987
-0.0147402 -0.0454914 0.182476
-0.0151807 -0.0459788 0.183712
0.00716218 -0.0239927 0.188086
0.00675251 -0.0243942 0.187482
0.00634157 -0.0247933 0.186755
0.00593546 -0.025192 0.186174
0.00552712 -0.0255873 0.185414
0.00512358 -0.0259826 0.184813
0.00472277 -0.0263775 0.184285
0.00432599 -0.0267733 0.183922
0.00393207 -0.0271703 0.183691
0.00354199 -0.0275705 0.18369
0.00315176 -0.0279704 0.183675
0.00276265 -0.0283721 0.183754
0.00237427 -0.0287756 0.183917
0.00198558 -0.0291797 0.184086
0.00159506 -0.0295802 0.18408
0.00120468 -0.0299811 0.184089
0.000813931 -0.0303806 0.184046
0.000422743 -0.0307768 0.18388
3.20026e-05 -0.0311729 0.183722
-0.000358102 -0.0315719 0.183685
-0.000748056 -0.0319712 0.183656
-0.0026975 -0.0339718 0.183669
-0.0030876 -0.0343734 0.183713
-0.00347797 -0.0347761 0.183781
-0.00386873 -0.03518 0.183878
-0.00425983 -0.0355847 0.183988
-0.00465188 -0.0359924 0.184165
-0.00504472 -0.036402 0.184374
-0.00543647 -0.0368067 0.184462
-0.00582687 -0.0372065 0.184439
-0.00621693 -0.0376055 0.184398
-0.0066042 -0.0379966 0.184196
-0.00698892 -0.0383813 0.183875
-0.00737022 -0.0387582 0.183414
-0.00775073 -0.0391347 0.182967
-0.00812697 -0.0395022 0.182371
-0.00850282 -0.0398707 0.181819
-0.00887959 -0.0402431 0.181363
-0.00925845 -0.0406216 0.181034
-0.00963985 -0.0410068 0.180835
-0.0100262 -0.0414032 0.180836
-0.010413 -0.0418007 0.180855
-0.0108009 -0.0422003 0.180909
-0.011193 -0.0426085 0.181095
-0.0115818 -0.0430096 0.181166
-0.01197 -0.0434093 0.181212
-0.0123602 -0.0438129 0.181315
-0.0127494 -0.0442142 0.181381
-0.0131342 -0.0446073 0.181326
-0.0135268 -0.0450149 0.181479
0.0043363 -0.0275642 0.18386
0.003947 -0.0279657 0.183924
0.00355646 -0.028366 0.18391
0.00316717 -0.0287679 0.183985
0.00277901 -0.0291725 0.184174
-0.00346722 -0.0355712 0.183876
-0.00385821 -0.0359761 0.183988
-0.00658635 -0.0387691 0.183806
-0.00696822 -0.0391456 0.183349
-0.00735039 -0.0395248 0.182965
-0.00772743 -0.0398918 0.182372
-0.0081052 -0.0402629 0.18188
-0.00848337 -0.0406367 0.181457
-0.00886352 -0.0410169 0.181163
-0.00924627 -0.0414042 0.181001
-0.00963363 -0.0418027 0.181034
-0.0100209 -0.0422008 0.181059
-0.0104088 -0.0426005 0.181108
-0.0108 -0.043007 0.181262
-0.0111869 -0.0434042 0.181268
-0.0115741 -0.043802 0.181281
-0.0119631 -0.0442033 0.181348
-0.0123503 -0.0446009 0.181358
-0.007705 -0.0406483 0.181817
-0.00808494 -0.0410252 0.181458
-0.00846633 -0.0414072 0.181202
-0.0088509 -0.0417984 0.181107
-0.00923848 -0.0421974 0.181145
-0.00962651 -0.0425975 0.181198
-0.0577202 -0.000634619 0.208672
-0.0568231 -0.000642822 0.208365
-0.0572116 -0.00108376 0.208179
-0.0581249 -0.00106986 0.208589
-0.0576049 -0.00152223 0.208027
-0.0585249 -0.00150658 0.208478
-0.0579926 -0.00196234 0.207842
-0.0589257 -0.00194256 0.208373
-0.0583863 -0.0023996 0.207696
-0.0593212 -0.00238 0.208237
-0.058774 -0.00283864 0.207518
-0.0596971 -0.00282347 0.207984
-0.0591484 -0.00328116 0.207259
-0.0600698 -0.003267 0.207715
-0.0595262 -0.00372181 0.207024
-0.0604409 -0.00371038 0.207442
-0.0599031 -0.00416212 0.206789
-0.0608201 -0.00415039 0.20722
-0.0602891 -0.00459884 0.20661
-0.0612073 -0.00458732 0.207048
-0.0606941 -0.00502953 0.206547
-0.0545333 0.00203534 0.209817
-0.0537315 0.00206868 0.210158
-0.0540816 0.00160524 0.209685
-0.0548965 0.00157869 0.209443
-0.0544331 0.00114401 0.209232
-0.0552831 0.00113331 0.20923
-0.0548043 0.000692574 0.208916
-0.0556601 0.000684902 0.208956
-0.0551753 0.000242362 0.208602
-0.0560482 0.00024172 0.20876
-0.0555576 -0.000202398 0.20837
-0.0564271 -0.000204306 0.208506
-0.0559317 -0.000649399 0.208086
