ply
format ascii 1.0
element vertex 1796
property float x
property float y
property float z
end_header
0.459564 -0.341946 1.06552
0.459293 -0.342769 1.06369
0.459076 -0.343617 1.06197
0.458961 -0.344513 1.06041
0.458965 -0.345469 1.05905
0.459119 -0.346498 1.05794
0.459281 -0.34753 1.05685
0.459534 -0.348609 1.05591
0.459835 -0.349712 1.05505
0.460287 -0.350893 1.05443
0.46055 -0.351974 1.05351
0.460761 -0.353026 1.05251
0.461031 -0.354108 1.0516
0.461313 -0.355197 1.05071
0.461657 -0.356317 1.04993
0.462169 -0.357527 1.04942
0.462874 -0.358842 1.04921
0.463628 -0.360183 1.04909
0.464514 -0.361598 1.04917
0.465367 -0.362997 1.0492
0.466373 -0.364481 1.04947
0.4673 -0.365924 1.04962
0.468669 -0.367613 1.05046
0.470255 -0.369427 1.05164
0.472298 -0.3715 1.05354
0.493499 -0.304927 1.1946
0.493422 -0.306063 1.19279
0.493171 -0.307126 1.19068
0.49272 -0.308106 1.18821
0.492065 -0.309 1.18538
0.491614 -0.30997 1.18293
0.491225 -0.310959 1.1806
0.490933 -0.311984 1.17845
0.490881 -0.313101 1.17673
0.490854 -0.314225 1.17506
0.491116 -0.315466 1.17391
0.491533 -0.31677 1.17304
0.490328 -0.317396 1.16929
0.488065 -0.317569 1.16368
0.484346 -0.317113 1.15552
0.480391 -0.316536 1.14697
0.476539 -0.31598 1.13863
0.474454 -0.316163 1.13343
0.473233 -0.316706 1.12976
0.472931 -0.31764 1.12771
0.472144 -0.318357 1.12482
0.471159 -0.318982 1.1216
0.470037 -0.319539 1.11814
0.468805 -0.320039 1.11451
0.46793 -0.320689 1.11151
0.46754 -0.321552 1.10936
0.467494 -0.322564 1.1078
0.467775 -0.323722 1.10681
0.468317 -0.324998 1.10628
0.468933 -0.326309 1.10587
0.46959 -0.327639 1.10553
0.470292 -0.32899 1.10526
0.47092 -0.330307 1.10487
0.471539 -0.331621 1.10446
0.471294 -0.332529 1.10259
0.469871 -0.332876 1.09872
0.467782 -0.332898 1.09374
0.465516 -0.332824 1.08847
0.463389 -0.332803 1.08346
0.462115 -0.333181 1.0799
0.461733 -0.333984 1.07786
0.461655 -0.334929 1.07632
0.461633 -0.335899 1.07489
0.461454 -0.33679 1.07319
0.461244 -0.337662 1.07145
0.461079 -0.338553 1.06979
0.460869 -0.339418 1.06805
0.460502 -0.340203 1.06606
0.460154 -0.340992 1.06411
0.45988 -0.341815 1.06229
0.459706 -0.342686 1.06064
0.459638 -0.343606 1.05916
0.459684 -0.344584 1.05788
0.459842 -0.345615 1.05678
0.460037 -0.346666 1.05574
0.460293 -0.347746 1.05481
0.460633 -0.348869 1.05401
0.461093 -0.350054 1.05341
0.461437 -0.351177 1.05262
0.461733 -0.352275 1.05176
0.462091 -0.353404 1.05099
0.46246 -0.354539 1.05025
0.462921 -0.355723 1.04966
0.463512 -0.356975 1.04927
0.464222 -0.358292 1.04907
0.464976 -0.359635 1.04894
0.465814 -0.361023 1.04895
0.466586 -0.362377 1.04885
0.467508 -0.363815 1.04898
0.468395 -0.365234 1.04906
0.469525 -0.36679 1.04952
0.470884 -0.368473 1.05033
0.472689 -0.370409 1.05185
0.474501 -0.373671 1.05568
0.474709 -0.372471 1.0537
0.495128 -0.304267 1.19463
0.495 -0.305385 1.19274
0.494608 -0.306397 1.19038
0.493953 -0.307302 1.18755
0.49324 -0.308176 1.18463
0.492741 -0.30913 1.18209
0.49231 -0.310105 1.17969
0.491977 -0.311115 1.17747
0.49197 -0.312252 1.17584
0.491987 -0.313396 1.17425
0.49231 -0.314662 1.17321
0.492025 -0.315677 1.1711
0.489951 -0.315946 1.16583
0.486663 -0.315696 1.15843
0.482455 -0.31504 1.14944
0.478332 -0.314397 1.14063
0.475094 -0.314107 1.13341
0.473571 -0.314531 1.12922
0.472806 -0.31527 1.12637
0.472326 -0.316126 1.12402
0.471581 -0.316861 1.12121
0.470661 -0.317515 1.11812
0.469694 -0.31814 1.11495
0.468696 -0.318745 1.11173
0.468039 -0.319493 1.10912
0.467667 -0.320363 1.10701
0.467671 -0.321398 1.10555
0.467994 -0.322574 1.10464
0.46857 -0.323864 1.10416
0.469229 -0.325191 1.10383
0.469934 -0.32654 1.10357
0.470726 -0.327931 1.10346
0.471407 -0.329271 1.10316
0.47172 -0.33044 1.10224
0.471098 -0.331172 1.09973
0.46926 -0.331327 1.09518
0.46709 -0.331315 1.09008
0.464935 -0.331297 1.08502
0.463225 -0.331479 1.08073
0.462371 -0.332061 1.07789
0.462339 -0.333031 1.07644
0.462245 -0.33397 1.07488
0.462179 -0.33492 1.07338
0.461998 -0.33581 1.07168
0.461793 -0.336685 1.06995
0.461664 -0.337595 1.06836
0.461418 -0.338444 1.06657
0.46108 -0.339244 1.06464
0.460731 -0.340035 1.06269
0.460502 -0.340881 1.06095
0.460375 -0.341776 1.05937
0.46039 -0.34274 1.05804
0.460485 -0.343742 1.05684
0.460684 -0.344796 1.05581
0.460884 -0.345849 1.05478
0.461177 -0.346949 1.05391
0.46156 -0.348094 1.05319
0.462061 -0.3493 1.05265
0.462486 -0.350466 1.052
0.46294 -0.351647 1.05139
0.463393 -0.352827 1.05078
0.463851 -0.354011 1.05018
0.464396 -0.355239 1.04971
0.465023 -0.356512 1.04938
0.465656 -0.357788 1.04906
0.466369 -0.359108 1.04887
0.467123 -0.360451 1.04873
0.467806 -0.361757 1.04849
0.468679 -0.363166 1.04854
0.469525 -0.364562 1.04855
0.470538 -0.366052 1.04882
0.471684 -0.367618 1.0493
0.473254 -0.369419 1.05044
0.475036 -0.371342 1.05191
0.496719 -0.302418 1.19626
0.496546 -0.303525 1.19429
0.496424 -0.304648 1.19241
0.49595 -0.305631 1.18991
0.49517 -0.306491 1.18686
0.494451 -0.307367 1.18393
0.493943 -0.308319 1.18139
0.493458 -0.309276 1.1789
0.493066 -0.310265 1.17658
0.493046 -0.311397 1.17492
0.493153 -0.31258 1.1735
0.493582 -0.31389 1.17265
0.492484 -0.314575 1.16911
0.489491 -0.31447 1.16223
0.485181 -0.313803 1.15307
0.480531 -0.312971 1.14334
0.476136 -0.312219 1.1341
0.473547 -0.312206 1.12805
0.472634 -0.312887 1.12494
0.472385 -0.313845 1.123
0.471988 -0.314736 1.12081
0.471292 -0.315493 1.1181
0.470429 -0.316171 1.11512
0.469554 -0.316838 1.11212
0.468719 -0.317515 1.1092
0.468111 -0.318287 1.10668
0.467834 -0.319199 1.10474
0.467964 -0.320289 1.1035
0.468365 -0.321498 1.10273
0.468977 -0.322803 1.10232
0.469597 -0.324111 1.10192
0.470264 -0.32544 1.1016
0.471023 -0.326813 1.10143
0.471703 -0.32815 1.10113
0.471689 -0.329167 1.09966
0.470692 -0.329725 1.09653
0.468915 -0.329912 1.0921
0.466827 -0.329943 1.08716
0.464808 -0.329994 1.08235
0.463517 -0.330378 1.07878
0.463042 -0.331143 1.07658
0.462965 -0.332092 1.07505
0.462835 -0.333014 1.07344
0.462726 -0.333943 1.07187
0.462554 -0.334838 1.0702
0.462353 -0.335717 1.06849
0.462185 -0.336609 1.06683
0.461962 -0.33747 1.06509
0.461619 -0.338268 1.06315
0.461311 -0.33908 1.06128
0.461169 -0.339972 1.05968
0.46113 -0.340912 1.05826
0.461188 -0.341899 1.057
0.461322 -0.342921 1.05586
0.461521 -0.343975 1.05483
0.461765 -0.345051 1.05388
0.462101 -0.346173 1.05308
0.462529 -0.347341 1.05243
0.46307 -0.348567 1.05196
0.463609 -0.349793 1.05149
0.46415 -0.35102 1.05102
0.464696 -0.352249 1.05056
0.465244 -0.353481 1.0501
0.46587 -0.354752 1.04977
0.466499 -0.356027 1.04944
0.467096 -0.357284 1.04906
0.467763 -0.35858 1.04879
0.46843 -0.359876 1.04852
0.469021 -0.361133 1.04812
0.469809 -0.362496 1.04804
0.470611 -0.363867 1.04798
0.471549 -0.365314 1.04813
0.472573 -0.36681 1.04841
0.473961 -0.368508 1.04926
0.475589 -0.370343 1.05048
0.477194 -0.373481 1.05395
0.477598 -0.372393 1.05229
0.498091 -0.301653 1.19583
0.497924 -0.302765 1.19386
0.497833 -0.303903 1.19205
0.497319 -0.304875 1.18948
0.496542 -0.305739 1.18644
0.495824 -0.30662 1.18353
0.495301 -0.30757 1.18096
0.494705 -0.308486 1.17828
0.494199 -0.309433 1.17576
0.494119 -0.310543 1.17401
0.494224 -0.311725 1.17259
0.493815 -0.312697 1.17026
0.491756 -0.312993 1.16504
0.487785 -0.312494 1.15647
0.47843 -0.310845 1.13697
0.474784 -0.310412 1.12908
0.472923 -0.310706 1.12432
0.472652 -0.311658 1.12234
0.472364 -0.312598 1.12034
0.471976 -0.313493 1.11818
0.47129 -0.314254 1.1155
0.470467 -0.314952 1.1126
0.469667 -0.315652 1.10974
0.468873 -0.316349 1.1069
0.468355 -0.317161 1.10455
0.468166 -0.318112 1.10276
0.46834 -0.319222 1.10161
0.468661 -0.320393 1.1007
0.469187 -0.321657 1.10015
0.469718 -0.322923 1.0996
0.47026 -0.324193 1.09907
0.470925 -0.32552 1.09875
0.471361 -0.326743 1.09804
0.4711 -0.327645 1.09616
0.469875 -0.328098 1.09266
0.468253 -0.328358 1.0885
0.4664 -0.328503 1.08398
0.464837 -0.328771 1.07995
0.463915 -0.329332 1.07701
0.463716 -0.330228 1.07528
0.463594 -0.331157 1.07369
0.463459 -0.332077 1.07207
0.463356 -0.33301 1.07051
0.463193 -0.33391 1.06886
0.463066 -0.334826 1.06727
0.462898 -0.335719 1.06562
0.46267 -0.336579 1.06388
0.462361 -0.337396 1.062
0.462097 -0.338231 1.06021
0.461965 -0.339129 1.05863
0.46201 -0.340112 1.05735
0.462107 -0.341118 1.05615
0.46224 -0.342141 1.05502
0.462434 -0.343194 1.05399
0.462714 -0.344288 1.05309
0.463054 -0.345413 1.0523
0.463564 -0.346623 1.05178
0.464152 -0.347873 1.05139
0.464813 -0.349161 1.05111
0.46544 -0.350434 1.05078
0.466074 -0.351709 1.05046
0.466674 -0.352967 1.05008
0.467304 -0.354242 1.04976
0.467893 -0.355496 1.04936
0.468443 -0.356728 1.0489
0.469027 -0.357981 1.0485
0.46961 -0.359233 1.04809
0.470154 -0.360464 1.04763
0.470898 -0.361802 1.04747
0.471698 -0.363172 1.0474
0.47264 -0.364621 1.04756
0.473589 -0.366074 1.04772
0.474849 -0.3677 1.04836
0.476335 -0.369452 1.04936
0.478201 -0.371419 1.05094
0.479487 -0.374383 1.0539
0.479998 -0.373352 1.0524
0.499398 -0.300864 1.19527
0.499204 -0.301969 1.19327
0.499144 -0.30312 1.19151
0.498668 -0.304109 1.18901
0.497901 -0.304982 1.186
0.497189 -0.305868 1.1831
0.496662 -0.306821 1.18054
0.495907 -0.307679 1.17758
0.495287 -0.308583 1.17487
0.495099 -0.309653 1.17293
0.495158 -0.310816 1.17143
0.493828 -0.311421 1.16749
0.490838 -0.311346 1.16066
0.486663 -0.310772 1.15177
0.47718 -0.309088 1.13213
0.474317 -0.308985 1.12563
0.473154 -0.309572 1.1221
0.47279 -0.310485 1.11997
0.472463 -0.311409 1.11791
0.472046 -0.312291 1.1157
0.471404 -0.313073 1.11311
0.470617 -0.313787 1.11028
0.469821 -0.31449 1.10744
0.469073 -0.315209 1.1047
0.468606 -0.316043 1.10244
0.468425 -0.316999 1.10068
0.468604 -0.318108 1.09953
0.46888 -0.31926 1.09855
0.469319 -0.320482 1.09785
0.469755 -0.321703 1.09715
0.47011 -0.322887 1.0963
0.470582 -0.324123 1.09566
0.470781 -0.325234 1.09456
0.47024 -0.326007 1.09222
0.469203 -0.326547 1.08905
0.467903 -0.326959 1.08545
0.46637 -0.327255 1.08148
0.465195 -0.327706 1.07812
0.464649 -0.328445 1.07581
0.464401 -0.32932 1.074
0.46427 -0.330246 1.0724
0.464172 -0.331185 1.07085
0.464114 -0.33214 1.06937
0.463988 -0.33306 1.06778
0.463905 -0.333998 1.06627
0.463732 -0.334889 1.06462
0.463546 -0.335772 1.06294
0.463281 -0.336612 1.06115
0.463103 -0.337492 1.0595
0.463053 -0.338431 1.05806
0.463139 -0.339436 1.05685
0.463233 -0.340443 1.05565
0.463393 -0.341481 1.05456
0.463549 -0.342515 1.05347
0.463823 -0.343607 1.05257
0.464203 -0.344752 1.05184
0.46476 -0.345986 1.05139
0.465398 -0.347262 1.05108
0.466148 -0.348597 1.05095
0.466824 -0.349893 1.05069
0.467506 -0.351194 1.05044
0.468141 -0.352471 1.05012
0.468766 -0.353745 1.04978
0.46935 -0.354996 1.04938
0.469895 -0.356228 1.04891
0.470439 -0.357458 1.04844
0.470941 -0.358667 1.04791
0.47144 -0.359876 1.04737
0.472105 -0.361171 1.04708
0.472869 -0.362521 1.04696
0.473816 -0.363971 1.04712
0.474806 -0.365447 1.04734
0.475996 -0.367032 1.04787
0.477359 -0.368715 1.04867
0.47909 -0.370603 1.05003
0.480754 -0.372459 1.05129
0.481982 -0.375395 1.05415
0.482651 -0.374449 1.05289
0.500658 -0.300058 1.19463
0.500403 -0.301141 1.19252
0.500319 -0.302285 1.19072
0.499957 -0.30332 1.18844
0.499194 -0.304198 1.18544
0.498487 -0.30509 1.18256
0.497963 -0.306047 1.18001
0.497149 -0.306886 1.17695
0.496377 -0.307734 1.17398
0.49603 -0.308744 1.17177
0.495179 -0.309548 1.16867
0.492778 -0.309728 1.16288
0.48872 -0.309229 1.1542
0.479677 -0.307786 1.13534
0.475856 -0.307314 1.12718
0.473871 -0.307575 1.12223
0.47344 -0.308465 1.11999
0.47294 -0.309322 1.11763
0.472558 -0.310224 1.11548
0.472054 -0.311069 1.11313
0.471416 -0.311853 1.11056
0.470683 -0.312591 1.10783
0.470014 -0.31335 1.10523
0.469321 -0.314094 1.10258
0.468908 -0.314953 1.10043
0.468729 -0.315908 1.09867
0.4689 -0.317014 1.09752
0.469088 -0.318125 1.09639
0.46943 -0.319304 1.09553
0.469724 -0.320459 1.09459
0.469932 -0.321575 1.09351
0.470178 -0.322707 1.09249
0.470172 -0.323724 1.09105
0.469454 -0.324415 1.08842
0.468648 -0.32506 1.08566
0.467716 -0.325642 1.08269
0.466586 -0.326126 1.0794
0.465782 -0.326752 1.07667
0.465548 -0.327639 1.07489
0.465254 -0.328493 1.07301
0.465116 -0.329417 1.07139
0.465018 -0.330357 1.06985
0.464965 -0.331316 1.06838
0.464839 -0.332238 1.0668
0.464832 -0.333213 1.06542
0.4647 -0.334126 1.06383
0.464608 -0.335055 1.06232
0.46443 -0.33594 1.06067
0.464371 -0.33688 1.05921
0.464366 -0.337843 1.05785
0.464448 -0.338848 1.05663
0.464576 -0.339873 1.05549
0.464775 -0.340932 1.05447
0.464892 -0.341949 1.05331
0.465169 -0.343044 1.05242
0.465578 -0.344205 1.05174
0.466137 -0.345441 1.05129
0.466823 -0.346741 1.05106
0.467668 -0.348124 1.05107
0.468428 -0.349465 1.05094
0.469185 -0.350805 1.05081
0.469856 -0.352102 1.05055
0.470442 -0.353355 1.05014
0.470982 -0.354585 1.04967
0.471444 -0.355774 1.04907
0.471867 -0.356943 1.04841
0.472287 -0.358109 1.04774
0.472744 -0.359295 1.04713
0.473328 -0.360548 1.04673
0.474091 -0.361898 1.0466
0.475039 -0.363348 1.04676
0.476042 -0.364828 1.04699
0.477274 -0.366435 1.04759
0.478683 -0.368141 1.04845
0.480339 -0.369985 1.04969
0.48191 -0.371788 1.05079
0.483721 -0.373727 1.05226
0.484193 -0.376248 1.05394
0.485134 -0.375452 1.0531
0.501459 -0.300261 1.19152
0.501378 -0.301407 1.18973
0.501103 -0.302478 1.18761
0.500383 -0.303375 1.1847
0.499726 -0.30429 1.18191
0.499253 -0.30527 1.17946
0.49848 -0.306128 1.17648
0.496846 -0.306645 1.172
0.495472 -0.307253 1.168
0.493491 -0.307614 1.16294
0.489989 -0.307359 1.15525
0.48568 -0.306762 1.14619
0.484308 -0.308564 1.14495
0.482049 -0.306415 1.13833
0.478336 -0.306012 1.13036
0.475446 -0.305924 1.12384
0.474269 -0.306517 1.12031
0.47375 -0.307373 1.11792
0.473103 -0.30817 1.11532
0.472615 -0.309028 1.113
0.472017 -0.309834 1.1105
0.471345 -0.310605 1.10788
0.470698 -0.31138 1.10531
0.470168 -0.312199 1.10295
0.469575 -0.312987 1.10049
0.469248 -0.313883 1.09849
0.469109 -0.314856 1.09681
0.469226 -0.315937 1.09556
0.469357 -0.317023 1.09435
0.469569 -0.318142 1.09327
0.46973 -0.319238 1.09211
0.469842 -0.320309 1.09087
0.469907 -0.321358 1.08956
0.469763 -0.322312 1.0879
0.469282 -0.32311 1.08568
0.468761 -0.323886 1.0834
0.468128 -0.324605 1.08094
0.467361 -0.325258 1.07826
0.466808 -0.326004 1.07595
0.46653 -0.326871 1.0741
0.466185 -0.327704 1.07214
0.466049 -0.32863 1.07054
0.465954 -0.329574 1.069
0.465946 -0.330555 1.06761
0.46586 -0.331497 1.0661
0.465892 -0.332492 1.06478
0.465804 -0.333428 1.06327
0.465796 -0.334399 1.0619
0.465747 -0.335348 1.06046
0.46582 -0.336355 1.05922
0.465896 -0.337361 1.05799
0.466019 -0.338387 1.05684
0.466181 -0.339432 1.05575
0.466344 -0.340474 1.05467
0.46643 -0.341478 1.05347
0.466707 -0.342575 1.05257
0.467151 -0.343754 1.05194
0.467709 -0.344991 1.0515
0.468438 -0.346314 1.05133
0.469363 -0.347737 1.05147
0.470174 -0.349105 1.05142
0.470937 -0.350449 1.05129
0.47161 -0.351748 1.05103
0.472193 -0.353001 1.05062
0.472656 -0.354192 1.05002
0.473073 -0.355359 1.04934
0.473447 -0.356504 1.0486
0.473818 -0.357646 1.04786
0.474231 -0.35881 1.04718
0.474766 -0.360039 1.0467
0.475528 -0.361387 1.04657
0.476473 -0.362835 1.04671
0.477481 -0.364318 1.04696
0.478729 -0.365932 1.04757
0.480145 -0.36764 1.04844
0.48172 -0.369438 1.04955
0.483242 -0.371211 1.05057
0.484964 -0.373099 1.05189
0.486292 -0.374775 1.0526
0.486277 -0.377031 1.05353
0.487428 -0.376349 1.05301
0.502723 -0.299458 1.19089
0.502659 -0.300612 1.18914
0.502499 -0.301728 1.18722
0.501772 -0.302627 1.18431
0.501167 -0.303565 1.18162
0.500739 -0.304566 1.17925
0.499031 -0.30507 1.17464
0.496351 -0.305189 1.16835
0.493775 -0.305332 1.16226
0.490499 -0.305186 1.15498
0.48582 -0.304469 1.14528
0.482197 -0.304144 1.13745
0.479561 -0.304193 1.13136
0.476874 -0.304205 1.1252
0.475009 -0.304532 1.12048
0.474626 -0.305448 1.11833
0.474019 -0.306268 1.1158
0.47319 -0.306992 1.11289
0.47255 -0.307788 1.11032
0.471888 -0.308568 1.10773
0.471262 -0.309358 1.1052
0.470716 -0.310176 1.10281
0.470368 -0.311072 1.10077
0.469906 -0.311916 1.09854
0.469591 -0.312818 1.09656
0.469443 -0.313787 1.09487
0.469468 -0.314828 1.09348
0.469509 -0.315874 1.09212
0.469634 -0.316955 1.0909
0.469751 -0.318029 1.08967
0.469825 -0.319083 1.08838
0.46985 -0.320113 1.087
0.46968 -0.321053 1.0853
0.469407 -0.321945 1.08344
0.469121 -0.322827 1.08155
0.468721 -0.323653 1.07949
0.468208 -0.324425 1.07724
0.46784 -0.325257 1.07524
0.46755 -0.326122 1.07338
0.467202 -0.326955 1.07142
0.467065 -0.327883 1.06982
0.467015 -0.328849 1.06836
0.467051 -0.329852 1.06705
0.467007 -0.330816 1.0656
0.467117 -0.331849 1.06442
0.467148 -0.332844 1.0631
0.467229 -0.33386 1.06187
0.467312 -0.334875 1.06065
0.46751 -0.335944 1.05961
0.467638 -0.336977 1.05847
0.467803 -0.338027 1.05739
0.468003 -0.339092 1.05636
0.468207 -0.340158 1.05534
0.468296 -0.341166 1.05414
0.468574 -0.342266 1.05325
0.468978 -0.343428 1.05256
0.469527 -0.344661 1.05209
0.470262 -0.345988 1.05193
0.471157 -0.347397 1.05201
0.471974 -0.348768 1.05197
0.472777 -0.350134 1.05191
0.473459 -0.351438 1.05165
0.474054 -0.352699 1.05125
0.474553 -0.353911 1.05071
0.474963 -0.355077 1.05002
0.475286 -0.356197 1.0492
0.475606 -0.357315 1.04838
0.476012 -0.358477 1.04769
0.476513 -0.359688 1.04715
0.477269 -0.361035 1.047
0.478212 -0.362481 1.04714
0.479219 -0.363964 1.04738
0.480473 -0.36558 1.048
0.48186 -0.367272 1.04882
0.483399 -0.369049 1.04986
0.484835 -0.370774 1.05074
0.486458 -0.372604 1.0519
0.487658 -0.37421 1.05241
0.48875 -0.375758 1.05275
0.48825 -0.377752 1.05294
0.489537 -0.377142 1.05263
0.504106 -0.298697 1.19047
0.50404 -0.299854 1.18872
0.50397 -0.301006 1.18697
0.503247 -0.30191 1.18406
0.502683 -0.302868 1.18145
0.502352 -0.303908 1.17926
0.499681 -0.304054 1.17298
0.495889 -0.303754 1.16477
0.492025 -0.303404 1.15647
0.482392 -0.301897 1.13665
0.479745 -0.301957 1.13055
0.478051 -0.302377 1.12612
0.476364 -0.302789 1.12171
0.475386 -0.303474 1.11853
0.474956 -0.304372 1.11631
0.474302 -0.305175 1.11371
0.473459 -0.305894 1.11079
0.472765 -0.306669 1.10814
0.472098 -0.307448 1.10554
0.471516 -0.308257 1.10309
0.471067 -0.309117 1.10088
0.470778 -0.310038 1.09895
0.470369 -0.310905 1.09681
0.470049 -0.311806 1.09484
0.469858 -0.312758 1.09308
0.469801 -0.313763 1.09156
0.469833 -0.314805 1.09019
0.469917 -0.315866 1.0889
0.47 -0.316925 1.08762
0.470114 -0.317996 1.0864
0.47019 -0.319048 1.08511
0.470232 -0.320083 1.08377
0.470225 -0.321094 1.08235
0.470131 -0.322063 1.0808
0.469894 -0.322966 1.07901
0.469528 -0.323806 1.07701
0.469036 -0.324585 1.07481
0.468661 -0.325413 1.07281
0.468304 -0.326246 1.07084
0.468126 -0.327157 1.06917
0.46808 -0.328126 1.06772
0.468198 -0.329168 1.06654
0.468204 -0.330157 1.06519
0.468353 -0.331211 1.06407
0.46847 -0.332247 1.06289
0.46863 -0.333303 1.06179
0.468805 -0.334364 1.06072
0.469135 -0.335498 1.0599
0.469389 -0.336595 1.05895
0.469639 -0.337688 1.05801
0.469921 -0.338795 1.05711
0.470165 -0.339884 1.05616
0.470291 -0.340913 1.05502
0.470565 -0.342014 1.05411
0.470968 -0.343177 1.05342
0.471441 -0.344375 1.05283
0.472134 -0.345682 1.05259
0.472986 -0.34707 1.0526
0.473801 -0.348441 1.05256
0.474615 -0.349813 1.05251
0.475341 -0.351141 1.05231
0.47598 -0.352426 1.05198
0.476487 -0.353644 1.05145
0.476898 -0.354812 1.05076
0.477214 -0.355931 1.04993
0.477535 -0.357052 1.04911
0.477983 -0.358238 1.04848
0.478492 -0.359456 1.04795
0.479215 -0.360786 1.04775
0.480156 -0.362232 1.04788
0.481157 -0.363712 1.04811
0.482336 -0.365289 1.0486
0.483686 -0.366959 1.04935
0.485138 -0.368688 1.05026
0.486442 -0.370342 1.05093
0.487895 -0.372078 1.05182
0.488961 -0.37361 1.05213
0.490005 -0.375131 1.05239
0.490959 -0.376605 1.05252
0.5056 -0.297978 1.19025
0.505474 -0.299115 1.18839
0.505416 -0.300272 1.18666
0.504688 -0.301179 1.18376
0.504171 -0.302158 1.18124
0.502856 -0.302832 1.17733
0.49914 -0.30259 1.16925
0.494159 -0.301846 1.15901
0.4834 -0.299968 1.13726
0.479251 -0.299463 1.12857
0.477535 -0.299883 1.12411
0.476787 -0.300672 1.12133
0.475957 -0.301423 1.11841
0.475708 -0.302397 1.1165
0.475227 -0.303276 1.1142
0.474526 -0.304061 1.11153
0.473642 -0.304766 1.10855
0.472957 -0.305545 1.10592
0.47234 -0.306346 1.10342
0.471849 -0.307194 1.10114
0.471498 -0.308095 1.0991
0.471294 -0.309052 1.09731
0.470926 -0.309938 1.09526
0.470599 -0.310837 1.09327
0.470365 -0.311771 1.09145
0.47026 -0.312756 1.08985
0.470256 -0.313782 1.08843
0.470336 -0.314841 1.08714
0.47042 -0.315901 1.08587
0.470618 -0.317007 1.08479
0.470782 -0.318098 1.08365
0.470958 -0.319192 1.08254
0.471134 -0.320284 1.08143
0.471172 -0.321314 1.08009
0.470985 -0.322241 1.07838
0.470695 -0.323118 1.07652
0.470236 -0.323915 1.07438
0.469822 -0.324728 1.07231
0.46946 -0.325561 1.07035
0.469272 -0.326469 1.06866
0.469222 -0.327438 1.06721
0.469345 -0.328484 1.06604
0.469436 -0.329514 1.06483
0.469635 -0.330592 1.06379
0.469871 -0.331687 1.06281
0.470083 -0.332768 1.06179
0.470341 -0.333871 1.06085
0.470719 -0.335029 1.06011
0.471054 -0.336166 1.05929
0.471356 -0.337287 1.05843
0.471723 -0.338438 1.05767
0.472012 -0.33955 1.05678
0.472218 -0.340622 1.05577
0.472532 -0.341744 1.05493
0.472935 -0.34291 1.05423
0.473403 -0.344107 1.05363
0.474047 -0.345392 1.05331
0.474818 -0.34674 1.05319
0.475587 -0.348089 1.05307
0.476356 -0.349439 1.05295
0.477045 -0.350749 1.05269
0.477692 -0.352039 1.05237
0.478204 -0.353261 1.05184
0.478623 -0.354435 1.05117
0.47899 -0.355583 1.05041
0.479355 -0.356728 1.04966
0.479854 -0.357943 1.04911
0.480456 -0.35921 1.04872
0.481231 -0.360569 1.04859
0.482137 -0.361998 1.04867
0.483131 -0.363474 1.04887
0.484302 -0.365047 1.04935
0.485571 -0.366674 1.04997
0.486904 -0.368338 1.05069
0.488148 -0.369959 1.05127
0.489465 -0.371621 1.05195
0.490395 -0.373078 1.05204
0.491481 -0.374622 1.05236
0.492827 -0.376309 1.05307
0.507519 -0.297409 1.19077
0.50736 -0.298537 1.18885
0.507041 -0.299603 1.18667
0.506258 -0.300495 1.18368
0.505779 -0.301491 1.18122
0.503303 -0.301739 1.17531
0.48041 -0.297612 1.12946
0.477284 -0.297502 1.12257
0.476491 -0.298279 1.11971
0.476522 -0.29937 1.11828
0.476376 -0.300389 1.11655
0.476032 -0.301327 1.11448
0.4755 -0.302186 1.1121
0.474793 -0.30297 1.10943
0.473965 -0.303699 1.10656
0.473341 -0.304504 1.10404
0.472824 -0.305348 1.10172
0.472421 -0.306232 1.09959
0.472114 -0.307153 1.09764
0.471874 -0.308096 1.09579
0.471539 -0.308997 1.0938
0.471204 -0.309893 1.09181
0.47096 -0.310824 1.08998
0.47082 -0.311795 1.08833
0.470847 -0.312835 1.08696
0.47089 -0.313878 1.08562
0.470971 -0.314936 1.08434
0.471166 -0.316041 1.08326
0.471417 -0.317169 1.08227
0.471683 -0.318303 1.08131
0.471991 -0.319453 1.08041
0.472121 -0.320524 1.07923
0.472022 -0.321492 1.07768
0.471811 -0.322406 1.07594
0.471403 -0.323229 1.07389
0.470992 -0.324046 1.07184
0.470662 -0.324896 1.06992
0.470465 -0.325803 1.06823
0.470406 -0.326769 1.06677
0.470531 -0.327818 1.06561
0.470705 -0.328887 1.06452
0.470956 -0.329991 1.06357
0.471277 -0.331126 1.06273
0.47157 -0.332248 1.06184
0.471909 -0.33339 1.06103
0.47233 -0.33457 1.06035
0.472712 -0.335732 1.05961
0.473052 -0.336872 1.05881
0.47343 -0.33803 1.05806
0.473727 -0.339149 1.05719
0.473979 -0.340245 1.05625
0.47434 -0.341392 1.05548
0.474748 -0.342562 1.05479
0.475215 -0.343761 1.05419
0.475809 -0.345022 1.05379
0.476487 -0.346325 1.05352
0.477168 -0.347631 1.05326
0.477857 -0.348941 1.053
0.47854 -0.350249 1.05274
0.47922 -0.351556 1.05247
0.479779 -0.352803 1.05201
0.480286 -0.354023 1.05147
0.480785 -0.35524 1.05092
0.481206 -0.356416 1.05025
0.481798 -0.35768 1.04984
0.482489 -0.358995 1.04958
0.483317 -0.360383 1.04953
0.48423 -0.361816 1.04962
0.485225 -0.363294 1.04982
0.486313 -0.364823 1.05016
0.487457 -0.366384 1.05059
0.488656 -0.367976 1.05109
0.489811 -0.369549 1.05153
0.491033 -0.37116 1.05206
0.491958 -0.372614 1.05214
0.493135 -0.374206 1.0526
0.494735 -0.376029 1.05369
0.509455 -0.296841 1.1913
0.509206 -0.297941 1.18924
0.50866 -0.298929 1.18666
0.507807 -0.2998 1.18355
0.507277 -0.300782 1.18102
0.503625 -0.300604 1.17308
0.479238 -0.295967 1.12482
0.477166 -0.296265 1.11977
0.47724 -0.297375 1.11841
0.47718 -0.298432 1.11682
0.476938 -0.299415 1.11493
0.476539 -0.300332 1.11278
0.475957 -0.301173 1.11032
0.47525 -0.301958 1.10766
0.474512 -0.302725 1.10495
0.473986 -0.303572 1.10261
0.473563 -0.304455 1.10046
0.473248 -0.305377 1.09848
0.472936 -0.306297 1.09652
0.472653 -0.307224 1.09461
0.47231 -0.308123 1.09261
0.471934 -0.309005 1.09056
0.47165 -0.30992 1.08867
0.471503 -0.310889 1.08701
0.471491 -0.311912 1.08558
0.471488 -0.312936 1.08416
0.471561 -0.313991 1.08288
0.471759 -0.315097 1.0818
0.472049 -0.316241 1.08088
0.472363 -0.317395 1.08
0.472715 -0.318565 1.07919
0.472924 -0.319671 1.07814
0.472911 -0.320677 1.07673
0.472795 -0.321636 1.07515
0.472515 -0.322518 1.07331
0.472192 -0.323377 1.07141
0.47191 -0.324251 1.06958
0.471747 -0.325175 1.06794
0.471681 -0.326141 1.06647
0.471803 -0.32719 1.0653
0.471979 -0.328262 1.06423
0.472272 -0.329386 1.06334
0.472644 -0.330546 1.06258
0.472979 -0.331689 1.06176
0.473366 -0.332854 1.06103
0.473822 -0.334052 1.06041
0.474242 -0.335233 1.05973
0.474621 -0.336393 1.05898
0.475001 -0.337554 1.05824
0.475337 -0.338693 1.05743
0.475633 -0.339812 1.05656
0.476007 -0.340968 1.05581
0.476387 -0.342126 1.05507
0.476852 -0.343325 1.05446
0.477401 -0.344565 1.05399
0.477992 -0.345826 1.05359
0.478587 -0.347089 1.05318
0.479221 -0.348372 1.05284
0.479898 -0.349678 1.05257
0.48058 -0.350986 1.0523
0.481223 -0.352275 1.05197
0.48182 -0.353542 1.05157
0.482411 -0.354806 1.05116
0.482881 -0.356009 1.05056
0.483561 -0.357319 1.05028
0.484337 -0.358679 1.05015
0.485219 -0.360096 1.05018
0.486145 -0.361536 1.05028
0.487182 -0.363036 1.05054
0.488264 -0.364562 1.05087
0.48933 -0.366083 1.05117
0.490443 -0.36763 1.05154
0.491545 -0.369174 1.05189
0.49272 -0.370759 1.05235
0.493659 -0.372221 1.05245
0.4949 -0.373847 1.05299
0.496712 -0.375782 1.05439
0.511765 -0.295207 1.19412
0.51133 -0.296249 1.19173
0.510968 -0.297313 1.18947
0.510251 -0.298244 1.18659
0.509422 -0.299127 1.18354
0.507728 -0.299689 1.17899
0.479121 -0.294733 1.12202
0.478139 -0.295449 1.11885
0.478122 -0.296525 1.11734
0.477974 -0.297549 1.11561
0.477593 -0.298479 1.11349
0.477144 -0.299378 1.11126
0.476522 -0.300205 1.10874
0.475861 -0.301011 1.10616
0.475249 -0.301831 1.10368
0.474813 -0.302715 1.1015
0.474396 -0.303602 1.09935
0.474076 -0.304524 1.09738
0.473751 -0.30544 1.0954
0.473418 -0.306349 1.09342
0.473038 -0.307234 1.09136
0.472664 -0.308117 1.08932
0.472382 -0.309035 1.08743
0.472231 -0.310003 1.08577
0.472177 -0.311009 1.08427
0.472164 -0.31203 1.08285
0.472237 -0.313085 1.08157
0.472428 -0.314188 1.08048
0.472723 -0.315334 1.07957
0.473034 -0.316487 1.07869
0.473423 -0.317672 1.07794
0.473717 -0.318815 1.07703
0.473789 -0.319859 1.07576
0.473766 -0.320859 1.07434
0.473617 -0.321802 1.07272
0.473386 -0.322705 1.07097
0.473152 -0.323603 1.06922
0.473034 -0.32455 1.06766
0.472974 -0.32552 1.0662
0.473088 -0.326567 1.06502
0.473261 -0.327639 1.06394
0.473552 -0.328763 1.06305
0.473926 -0.329925 1.06229
0.474268 -0.331072 1.06149
0.474694 -0.332256 1.06082
0.475158 -0.333459 1.06021
0.475619 -0.33466 1.05959
0.476036 -0.33584 1.05891
0.476447 -0.337016 1.05821
0.476782 -0.338156 1.0574
0.477114 -0.339293 1.05658
0.477489 -0.340451 1.05584
0.47787 -0.341611 1.0551
0.478299 -0.342793 1.05444
0.478807 -0.344014 1.0539
0.479353 -0.345253 1.05342
0.479902 -0.346494 1.05295
0.480453 -0.347736 1.05247
0.481127 -0.34904 1.05219
0.481813 -0.350351 1.05193
0.48247 -0.351647 1.05162
0.483117 -0.352939 1.05129
0.483793 -0.354247 1.05101
0.484346 -0.355492 1.05054
0.485069 -0.356825 1.05033
0.485933 -0.35823 1.05033
0.486904 -0.359692 1.0505
0.487877 -0.361157 1.05066
0.488927 -0.362664 1.05094
0.490012 -0.364192 1.05127
0.491028 -0.365686 1.05149
0.492055 -0.367188 1.05172
0.493118 -0.36871 1.05201
0.494303 -0.3703 1.05247
0.495338 -0.371813 1.05271
0.496648 -0.373475 1.05336
0.498601 -0.375483 1.05496
0.499403 -0.378199 1.05711
0.501014 -0.377746 1.05725
0.502036 -0.380592 1.05972
0.503239 -0.379914 1.05924
0.504608 -0.38296 1.06223
0.505408 -0.382059 1.06114
0.513495 -0.294557 1.19428
0.513148 -0.295634 1.19204
0.512841 -0.29672 1.18988
0.511047 -0.297272 1.18515
0.509056 -0.29774 1.1801
0.505941 -0.297789 1.17312
0.482668 -0.29378 1.12698
0.479184 -0.293573 1.11954
0.479208 -0.294669 1.11809
0.479056 -0.295696 1.11636
0.478813 -0.296685 1.11447
0.478337 -0.29758 1.11219
0.477844 -0.298464 1.1099
0.477178 -0.299276 1.10731
0.476562 -0.300102 1.10482
0.475998 -0.300942 1.10243
0.475607 -0.301846 1.10032
0.475189 -0.302735 1.09819
0.474859 -0.303654 1.0962
0.474483 -0.304551 1.09414
0.474101 -0.305442 1.09208
0.473721 -0.306328 1.09003
0.47335 -0.307215 1.088
0.473072 -0.308135 1.08613
0.472917 -0.309102 1.08447
0.472815 -0.310089 1.0829
0.472762 -0.311093 1.08141
0.472829 -0.312146 1.08012
0.473023 -0.31325 1.07905
0.473319 -0.314396 1.07814
0.473669 -0.315564 1.07732
0.474016 -0.316731 1.0765
0.474345 -0.317888 1.07565
0.474465 -0.318954 1.07447
0.474534 -0.319996 1.0732
0.474518 -0.320997 1.0718
0.474457 -0.321977 1.07033
0.474312 -0.322917 1.06873
0.474285 -0.323906 1.06732
0.474265 -0.324897 1.06592
0.474343 -0.325929 1.06469
0.474506 -0.326998 1.06359
0.474788 -0.328119 1.06269
0.475157 -0.32928 1.06192
0.475502 -0.330428 1.06112
0.47597 -0.331633 1.06052
0.476438 -0.332838 1.05991
0.476902 -0.334041 1.0593
0.477325 -0.335224 1.05863
0.477741 -0.336404 1.05794
0.478073 -0.337543 1.05712
0.478395 -0.338677 1.05629
0.478761 -0.339831 1.05553
0.479136 -0.340989 1.05478
0.479562 -0.342171 1.05412
0.48007 -0.343391 1.05358
0.480577 -0.344612 1.05304
0.481084 -0.345833 1.0525
0.481592 -0.347054 1.05196
0.482267 -0.348358 1.05168
0.482961 -0.349672 1.05143
0.483668 -0.350993 1.05119
0.484363 -0.352309 1.05094
0.48508 -0.353637 1.05072
0.485674 -0.354904 1.05031
0.486401 -0.356238 1.0501
0.487311 -0.357667 1.05017
0.488371 -0.359174 1.05047
0.489402 -0.360668 1.05072
0.490497 -0.362198 1.05106
0.491627 -0.363748 1.05145
0.492647 -0.365244 1.05167
0.493636 -0.366725 1.05185
0.494738 -0.368268 1.05219
0.495933 -0.369862 1.05266
0.497071 -0.371429 1.05305
0.498393 -0.373097 1.05371
0.500287 -0.375071 1.05522
0.502325 -0.377129 1.05693
0.504184 -0.379097 1.05837
0.505917 -0.381002 1.05962
0.507221 -0.384018 1.0625
0.507363 -0.382758 1.06043
0.515207 -0.293897 1.1944
0.514952 -0.29501 1.19233
0.514775 -0.296147 1.19039
0.511708 -0.296254 1.18348
0.508264 -0.296209 1.17594
0.487664 -0.294525 1.13704
0.490796 -0.293355 1.14128
0.486712 -0.292978 1.13278
0.482906 -0.292682 1.12478
0.480455 -0.292868 1.11912
0.480332 -0.293911 1.11744
0.479994 -0.29487 1.11539
0.479606 -0.295805 1.11326
0.479074 -0.296681 1.1109
0.478571 -0.297563 1.10859
0.47791 -0.298379 1.10602
0.477384 -0.299242 1.10369
0.476903 -0.300117 1.10144
0.47652 -0.301026 1.09936
0.4761 -0.301916 1.09722
0.47572 -0.302817 1.09516
0.475291 -0.303695 1.09302
0.474822 -0.304552 1.09082
0.474403 -0.305424 1.08871
0.474031 -0.306311 1.08668
0.473747 -0.30723 1.08481
0.473552 -0.308183 1.08308
0.473446 -0.309168 1.08151
0.473352 -0.310156 1.07996
0.473377 -0.311191 1.07861
0.473536 -0.312279 1.07748
0.473825 -0.313422 1.07657
0.474176 -0.31459 1.07575
0.474525 -0.315756 1.07494
0.474856 -0.316914 1.0741
0.475097 -0.318032 1.07311
0.475257 -0.319113 1.07199
0.475332 -0.320156 1.07074
0.475443 -0.321212 1.06955
0.475422 -0.322208 1.06815
0.475443 -0.323221 1.06682
0.475506 -0.32425 1.06556
0.475585 -0.325284 1.06433
0.475702 -0.326334 1.06316
0.475977 -0.327452 1.06225
0.476302 -0.328593 1.06142
0.476644 -0.329742 1.06061
0.477153 -0.330966 1.06007
0.477662 -0.33219 1.05953
0.478131 -0.333396 1.05893
0.478598 -0.3346 1.05832
0.479021 -0.335784 1.05765
0.479356 -0.336925 1.05683
0.47964 -0.338042 1.05594
0.479955 -0.339172 1.0551
0.48028 -0.340307 1.05428
0.48066 -0.341467 1.05354
0.481128 -0.342669 1.05294
0.481635 -0.34389 1.0524
0.482143 -0.345111 1.05186
0.48265 -0.346332 1.05132
0.483326 -0.347636 1.05104
0.48402 -0.348949 1.05079
0.484767 -0.35029 1.05061
0.485505 -0.351627 1.05043
0.486227 -0.352957 1.05021
0.486865 -0.354246 1.04987
0.487635 -0.355601 1.04972
0.488556 -0.357035 1.04981
0.489662 -0.358564 1.05017
0.490784 -0.360104 1.05055
0.491935 -0.361661 1.05098
0.493076 -0.363216 1.05138
0.494135 -0.364732 1.05166
0.495124 -0.366212 1.05183
0.496233 -0.367758 1.05218
0.497482 -0.369379 1.05273
0.498665 -0.370969 1.05318
0.499904 -0.372592 1.05371
0.501479 -0.374395 1.05473
0.503212 -0.376286 1.05599
0.504728 -0.378066 1.05691
0.506133 -0.379792 1.05767
0.507345 -0.381417 1.05813
0.516632 -0.29434 1.19239
0.515081 -0.295 1.18809
0.51077 -0.294677 1.17907
0.492902 -0.29179 1.14375
0.488651 -0.29138 1.13497
0.485931 -0.291505 1.12883
0.483323 -0.291654 1.1229
0.481906 -0.292228 1.11901
0.481543 -0.293185 1.11692
0.480969 -0.294057 1.11448
0.480429 -0.294938 1.1121
0.479801 -0.29578 1.10958
0.479217 -0.296633 1.10715
0.478558 -0.297451 1.10459
0.478071 -0.298331 1.10233
0.477639 -0.299227 1.10017
0.477263 -0.30014 1.09811
0.476845 -0.301032 1.09598
0.476458 -0.301933 1.09391
0.475981 -0.302793 1.0917
0.475466 -0.303633 1.08943
0.474998 -0.304487 1.08725
0.47462 -0.305373 1.08522
0.474298 -0.306278 1.08329
0.474099 -0.307229 1.08156
0.47395 -0.308197 1.07992
0.473888 -0.309198 1.07843
0.473911 -0.310232 1.07708
0.474068 -0.31132 1.07595
0.474322 -0.312448 1.07498
0.474669 -0.313613 1.07417
0.474973 -0.314759 1.07328
0.475306 -0.315917 1.07244
0.475628 -0.317069 1.07159
0.475878 -0.318189 1.07062
0.476051 -0.319274 1.06953
0.476291 -0.320387 1.06855
0.476359 -0.321423 1.0673
0.476463 -0.322474 1.06611
0.476574 -0.323525 1.06492
0.476691 -0.324577 1.06376
0.476807 -0.325627 1.06259
0.477077 -0.326745 1.06167
0.477363 -0.327869 1.06077
0.477705 -0.329018 1.05997
0.478214 -0.330242 1.05943
0.478722 -0.331466 1.05889
0.479231 -0.33269 1.05835
0.47974 -0.333914 1.05781
0.48017 -0.335101 1.05714
0.480548 -0.336263 1.0564
0.480834 -0.337382 1.05551
0.481107 -0.338494 1.05461
0.481389 -0.339608 1.05372
0.48176 -0.340765 1.05297
0.482186 -0.341947 1.0523
0.482693 -0.343168 1.05176
0.483201 -0.344389 1.05122
0.483708 -0.34561 1.05068
0.484342 -0.346892 1.05033
0.484989 -0.348182 1.05001
0.48573 -0.349519 1.04983
0.486468 -0.350855 1.04964
0.487197 -0.352188 1.04943
0.487923 -0.35352 1.04922
0.488739 -0.354898 1.04915
0.489703 -0.356352 1.04929
0.490856 -0.357904 1.04972
0.492067 -0.359487 1.05024
0.493275 -0.361073 1.05074
0.494507 -0.362673 1.05128
0.495619 -0.364214 1.05164
0.496606 -0.365694 1.0518
0.497721 -0.367242 1.05215
0.498969 -0.368861 1.0527
0.500073 -0.370409 1.05302
0.501171 -0.371956 1.05334
0.502551 -0.373654 1.05407
0.504 -0.375391 1.0549
0.505234 -0.377019 1.0554
0.506447 -0.378639 1.05587
0.507466 -0.380157 1.05605
0.518199 -0.293629 1.19226
0.51613 -0.294115 1.18708
0.489377 -0.289336 1.13509
0.486538 -0.289434 1.12875
0.485117 -0.29003 1.12485
0.483638 -0.290594 1.12086
0.483222 -0.291538 1.11867
0.482709 -0.292442 1.11633
0.481983 -0.293261 1.11364
0.481297 -0.294089 1.11102
0.480528 -0.29488 1.10828
0.479815 -0.295686 1.10563
0.479113 -0.296491 1.10301
0.478628 -0.297372 1.10076
0.478199 -0.298271 1.09861
0.477823 -0.299185 1.09656
0.477409 -0.30008 1.09444
0.476978 -0.300964 1.09231
0.476457 -0.301808 1.09003
0.475935 -0.302647 1.08776
0.475463 -0.303501 1.08558
0.475083 -0.304387 1.08355
0.474792 -0.305305 1.08168
0.474597 -0.306258 1.07996
0.474447 -0.307226 1.07833
0.47442 -0.308242 1.0769
0.474484 -0.309293 1.07562
0.4746 -0.310364 1.07443
0.474809 -0.311472 1.07339
0.475106 -0.312615 1.0725
0.475363 -0.313741 1.07154
0.475656 -0.31488 1.07064
0.476024 -0.316051 1.06986
0.476364 -0.317209 1.06904
0.476591 -0.318317 1.06804
0.476915 -0.319466 1.0672
0.477074 -0.320542 1.06609
0.477227 -0.321614 1.06498
0.477382 -0.322686 1.06388
0.47758 -0.323774 1.06284
0.477738 -0.324844 1.06174
0.478053 -0.325982 1.06089
0.478382 -0.327126 1.06007
0.478766 -0.328293 1.05933
0.479275 -0.329517 1.05879
0.479744 -0.330724 1.05819
0.48025 -0.331946 1.05764
0.480757 -0.333169 1.0571
0.481185 -0.334356 1.05643
0.481569 -0.335521 1.0557
0.481895 -0.336659 1.05487
0.482173 -0.337774 1.05398
0.482451 -0.338888 1.05308
0.482823 -0.340045 1.05233
0.483244 -0.341225 1.05166
0.483751 -0.342445 1.05112
0.484259 -0.343666 1.05058
0.484766 -0.344887 1.05004
0.485356 -0.346149 1.04963
0.485954 -0.347414 1.04923
0.486683 -0.348743 1.04902
0.487421 -0.350079 1.04883
0.488163 -0.351417 1.04865
0.488979 -0.352793 1.04857
0.489842 -0.354194 1.04857
0.490804 -0.355646 1.04871
0.492002 -0.357219 1.0492
0.4933 -0.358844 1.04985
0.494524 -0.360436 1.05037
0.49581 -0.362062 1.05099
0.496969 -0.363627 1.05141
0.497954 -0.365105 1.05156
0.499028 -0.36663 1.05185
0.500275 -0.368248 1.05239
0.501289 -0.369748 1.05258
0.502246 -0.37122 1.05269
0.503431 -0.372813 1.05312
0.504644 -0.374424 1.0536
0.505641 -0.375923 1.05375
0.506668 -0.377441 1.05395
0.507549 -0.378882 1.05393
0.508002 -0.381419 1.05552
0.508084 -0.380141 1.0534
0.508126 -0.382458 1.05439
0.50831 -0.381234 1.05242
0.519747 -0.29291 1.19208
0.516756 -0.293086 1.18535
0.490392 -0.287392 1.1357
0.486943 -0.287292 1.12834
0.48566 -0.287946 1.12467
0.4854 -0.288958 1.12274
0.484998 -0.289915 1.12058
0.48448 -0.290825 1.11823
0.483785 -0.291665 1.11559
0.482916 -0.292435 1.11267
0.482085 -0.293212 1.10981
0.481221 -0.29397 1.10692
0.48041 -0.294742 1.10412
0.479697 -0.295544 1.10149
0.479207 -0.296425 1.09923
0.478778 -0.297325 1.09709
0.478367 -0.298227 1.09499
0.477945 -0.29912 1.09287
0.477465 -0.299986 1.09066
0.476859 -0.300798 1.08825
0.476297 -0.301622 1.08592
0.475825 -0.302477 1.08374
0.475486 -0.30338 1.08179
0.475242 -0.304317 1.08
0.47509 -0.305289 1.07836
0.474981 -0.306274 1.0768
0.474999 -0.307308 1.07545
0.475067 -0.308361 1.07418
0.475189 -0.309434 1.073
0.475352 -0.310522 1.07189
0.475587 -0.311639 1.0709
0.475752 -0.312725 1.0698
0.475959 -0.313827 1.06877
0.476334 -0.315 1.06801
0.476721 -0.316177 1.06726
0.476991 -0.317302 1.06634
0.477402 -0.318488 1.06563
0.47768 -0.319616 1.06472
0.477883 -0.32071 1.06369
0.47813 -0.321821 1.06273
0.478415 -0.322948 1.06184
0.478656 -0.324055 1.06087
0.478984 -0.325199 1.06005
0.479318 -0.326345 1.05923
0.479702 -0.327513 1.05849
0.480168 -0.328718 1.05789
0.480595 -0.329904 1.05722
0.481139 -0.331144 1.05673
0.481648 -0.332367 1.05619
0.482074 -0.333553 1.05552
0.482493 -0.334735 1.05485
0.482856 -0.33589 1.05408
0.483143 -0.337009 1.0532
0.483466 -0.338144 1.05237
0.483881 -0.339322 1.05169
0.484302 -0.340502 1.05102
0.484809 -0.341723 1.05048
0.485317 -0.342944 1.04994
0.485824 -0.344165 1.0494
0.486371 -0.345405 1.04892
0.486922 -0.346647 1.04845
0.487644 -0.347973 1.04823
0.488383 -0.349308 1.04805
0.489132 -0.350649 1.04787
0.489997 -0.352048 1.04787
0.490905 -0.35347 1.04793
0.491873 -0.354924 1.04808
0.493068 -0.356493 1.04856
0.494372 -0.358119 1.04921
0.49564 -0.359731 1.0498
0.496941 -0.361363 1.05043
0.498141 -0.362947 1.05091
0.499132 -0.364426 1.05107
0.500238 -0.365968 1.0514
0.501402 -0.367541 1.05182
0.502363 -0.369011 1.05193
0.503225 -0.370433 1.05189
0.504267 -0.37195 1.05211
0.505284 -0.373456 1.0523
0.50617 -0.374894 1.05229
0.507099 -0.376358 1.05234
0.507896 -0.377753 1.0522
0.508491 -0.379041 1.05176
0.508828 -0.380193 1.05094
0.508489 -0.3823 1.05137
0.509121 -0.381321 1.05006
0.488345 -0.2855 1.12961
0.486835 -0.286085 1.12556
0.48682 -0.287189 1.12404
0.486472 -0.288172 1.12197
0.486059 -0.289127 1.1198
0.485461 -0.290011 1.11732
0.484721 -0.290837 1.11461
0.483807 -0.291594 1.11162
0.482925 -0.292355 1.10869
0.481959 -0.293079 1.10563
0.481091 -0.293832 1.10275
0.480323 -0.294615 1.10004
0.479826 -0.295496 1.09778
0.479401 -0.296398 1.09565
0.478943 -0.297284 1.09348
0.47847 -0.298158 1.09128
0.477937 -0.299005 1.08899
0.47728 -0.299799 1.08651
0.476679 -0.300609 1.08412
0.476214 -0.301467 1.08196
0.475886 -0.302375 1.08004
0.475689 -0.303332 1.07833
0.475583 -0.304322 1.07677
0.475525 -0.305328 1.0753
0.47559 -0.306382 1.07402
0.475706 -0.307454 1.07284
0.47579 -0.308512 1.0716
0.475906 -0.309581 1.07042
0.47605 -0.310659 1.06929
0.476153 -0.311719 1.06809
0.476312 -0.3128 1.06698
0.476684 -0.313969 1.06622
0.477074 -0.315146 1.06548
0.477421 -0.316304 1.06468
0.477875 -0.317507 1.06405
0.478238 -0.318671 1.06328
0.478534 -0.319805 1.0624
0.478827 -0.320936 1.06151
0.479199 -0.322101 1.06076
0.479493 -0.323231 1.05988
0.479828 -0.324379 1.05906
0.480165 -0.325526 1.05825
0.480582 -0.326709 1.05757
0.481004 -0.327893 1.05689
0.481426 -0.329077 1.05622
0.481971 -0.330317 1.05574
0.482477 -0.331538 1.05519
0.482908 -0.332726 1.05453
0.483366 -0.333925 1.05392
0.483772 -0.3351 1.05322
0.4841 -0.336239 1.0524
0.484475 -0.337398 1.05166
0.484935 -0.338598 1.05105
0.48536 -0.33978 1.05038
0.485868 -0.341001 1.04984
0.486375 -0.342222 1.0493
0.486922 -0.343462 1.04882
0.487473 -0.344704 1.04835
0.487985 -0.345927 1.04782
0.488703 -0.34725 1.04759
0.489437 -0.348582 1.0474
0.490149 -0.349904 1.04716
0.490981 -0.351286 1.04711
0.491929 -0.352726 1.04723
0.492857 -0.354159 1.04732
0.494009 -0.355705 1.04774
0.495312 -0.357328 1.04838
0.496578 -0.358937 1.04896
0.497882 -0.360568 1.04959
0.499126 -0.362172 1.05013
0.50016 -0.363672 1.05036
0.501228 -0.365192 1.05063
0.502387 -0.366761 1.05103
0.503259 -0.368184 1.05101
0.504027 -0.369556 1.05083
0.50493 -0.370999 1.05085
0.505804 -0.372427 1.05083
0.506544 -0.373788 1.0506
0.507451 -0.375237 1.05062
0.508292 -0.376653 1.05054
0.508991 -0.377996 1.05025
0.50952 -0.379248 1.04972
0.510007 -0.380479 1.04912
0.509448 -0.382465 1.04923
0.510433 -0.381676 1.04844
0.511685 -0.384639 1.05117
0.513392 -0.384233 1.05141
0.487895 -0.284179 1.12625
0.487915 -0.285299 1.1248
0.487796 -0.286368 1.12311
0.487393 -0.287333 1.12095
0.486934 -0.288274 1.11871
0.486295 -0.289145 1.11617
0.485512 -0.289959 1.1134
0.484588 -0.290715 1.1104
0.483661 -0.291463 1.1074
0.482613 -0.292159 1.10422
0.481736 -0.292911 1.10133
0.480963 -0.293695 1.09861
0.480425 -0.294561 1.0963
0.47996 -0.29545 1.09411
0.479499 -0.296335 1.09194
0.478934 -0.297176 1.0896
0.478304 -0.297987 1.08716
0.477594 -0.298762 1.08459
0.476988 -0.299571 1.08221
0.476569 -0.300448 1.08014
0.47629 -0.301376 1.07829
0.47618 -0.302367 1.07673
0.476124 -0.303378 1.07526
0.476113 -0.304403 1.07387
0.476222 -0.305475 1.07267
0.476382 -0.306565 1.07156
0.476466 -0.307622 1.07033
0.476537 -0.308673 1.06908
0.476636 -0.309733 1.06787
0.47669 -0.310772 1.0666
0.476841 -0.31185 1.06548
0.477167 -0.312999 1.06465
0.477553 -0.314173 1.06391
0.477902 -0.315331 1.06312
0.478315 -0.316515 1.06242
0.478688 -0.317682 1.06167
0.479028 -0.318834 1.06086
0.479371 -0.319987 1.06006
0.479828 -0.321188 1.05944
0.480206 -0.322355 1.05869
0.480584 -0.323521 1.05795
0.480959 -0.324685 1.0572
0.481407 -0.32588 1.05656
0.481823 -0.327062 1.05588
0.482205 -0.328228 1.05515
0.48275 -0.329466 1.05466
0.483259 -0.330689 1.05412
0.483696 -0.331879 1.05347
0.484154 -0.333078 1.05286
0.484647 -0.334293 1.0523
0.485022 -0.335453 1.05155
0.485446 -0.336636 1.05089
0.485951 -0.337855 1.05034
0.486418 -0.339058 1.04974
0.486926 -0.340279 1.0492
0.487433 -0.341499 1.04866
0.487984 -0.342741 1.04819
0.488539 -0.343985 1.04772
0.489094 -0.345229 1.04725
0.489815 -0.346553 1.04703
0.490549 -0.347885 1.04684
0.491255 -0.349203 1.04659
0.492079 -0.35058 1.04653
0.492985 -0.351999 1.04658
0.493869 -0.353409 1.0466
0.494976 -0.35493 1.04695
0.49627 -0.356547 1.04757
0.497493 -0.358132 1.04809
0.498792 -0.359758 1.04871
0.500045 -0.361364 1.04926
0.501079 -0.362863 1.04948
0.502114 -0.364364 1.04971
0.503228 -0.365907 1.05004
0.50401 -0.367284 1.04988
0.504723 -0.368625 1.04962
0.505538 -0.370021 1.04952
0.50632 -0.371401 1.04935
0.507004 -0.372731 1.04905
0.507951 -0.374198 1.04913
0.508842 -0.375638 1.04912
0.509638 -0.37703 1.04897
0.510346 -0.378376 1.0487
0.511009 -0.379699 1.04836
0.511973 -0.381183 1.04845
0.515592 -0.384086 1.05236
0.48934 -0.282399 1.12759
0.488969 -0.283389 1.12548
0.488805 -0.284447 1.12372
0.488556 -0.285472 1.12182
0.488087 -0.286415 1.11956
0.487535 -0.287325 1.11716
0.48689 -0.288196 1.11462
0.486153 -0.289028 1.11194
0.485313 -0.289817 1.10909
0.484429 -0.290583 1.10617
0.483382 -0.291283 1.103
0.482552 -0.292055 1.10019
0.481782 -0.292843 1.09749
0.481207 -0.293697 1.09512
0.480657 -0.294556 1.0928
0.480147 -0.295425 1.09055
0.479487 -0.296232 1.08807
0.478768 -0.29701 1.08549
0.478015 -0.29777 1.08287
0.477444 -0.298594 1.08055
0.477106 -0.299503 1.07861
0.476871 -0.30045 1.07685
0.476849 -0.301476 1.07543
0.476832 -0.302502 1.07403
0.47686 -0.303544 1.0727
0.476973 -0.304617 1.07151
0.477167 -0.305721 1.07046
0.477251 -0.30678 1.06923
0.477325 -0.307831 1.06799
0.477379 -0.308873 1.06672
0.477395 -0.309897 1.06538
0.477502 -0.310957 1.0642
0.477793 -0.312092 1.06332
0.478136 -0.313247 1.06251
0.478477 -0.314401 1.06171
0.478888 -0.315583 1.06101
0.479263 -0.31675 1.06026
0.479607 -0.317903 1.05946
0.480031 -0.31909 1.05879
0.48053 -0.320309 1.05823
0.480949 -0.321493 1.05755
0.481372 -0.322678 1.05688
0.481744 -0.32384 1.05613
0.482154 -0.325019 1.05544
0.482527 -0.326181 1.05469
0.482868 -0.327328 1.05389
0.483371 -0.328547 1.05335
0.48388 -0.329768 1.05281
0.484354 -0.330974 1.05222
0.484823 -0.332177 1.05162
0.485403 -0.333432 1.05119
0.485828 -0.334615 1.05053
0.486337 -0.335836 1.04999
0.486886 -0.337076 1.04951
0.487394 -0.338297 1.04898
0.487901 -0.339518 1.04844
0.488447 -0.340756 1.04796
0.489 -0.341999 1.04749
0.489561 -0.343245 1.04703
0.490164 -0.344512 1.04663
0.490888 -0.345837 1.04642
0.491618 -0.347166 1.04621
0.492321 -0.348483 1.04596
0.493097 -0.349836 1.04582
0.493955 -0.35123 1.0458
0.494744 -0.352592 1.04568
0.495762 -0.354068 1.04589
0.496962 -0.355635 1.04637
0.498181 -0.357216 1.04688
0.499443 -0.35882 1.04745
0.500737 -0.360444 1.04805
0.501821 -0.361965 1.04835
0.502856 -0.363465 1.04857
0.503884 -0.364962 1.04878
0.504606 -0.366306 1.04853
0.505267 -0.36762 1.0482
0.506033 -0.368988 1.04802
0.506777 -0.370347 1.0478
0.507509 -0.371699 1.04757
0.5085 -0.373187 1.04771
0.509443 -0.374652 1.04778
0.510342 -0.376096 1.04778
0.511235 -0.377538 1.04777
0.512127 -0.378982 1.04776
0.513714 -0.380794 1.04874
0.5173 -0.383673 1.05259
0.519459 -0.387135 1.05661
0.521043 -0.386648 1.05664
0.490925 -0.280658 1.12916
0.490662 -0.281692 1.12723
0.490123 -0.282628 1.12484
0.489752 -0.283616 1.12273
0.4893 -0.284572 1.1205
0.488686 -0.285467 1.11801
0.488033 -0.286342 1.11545
0.487301 -0.287184 1.11278
0.486561 -0.288017 1.11009
0.485767 -0.288824 1.10733
0.484936 -0.289611 1.10451
0.483984 -0.290348 1.10151
0.483288 -0.291172 1.09893
0.482606 -0.291994 1.09638
0.482079 -0.292869 1.0941
0.48152 -0.293726 1.09177
0.480953 -0.294576 1.08944
0.4802 -0.29535 1.0868
0.479436 -0.296113 1.08416
0.478641 -0.296859 1.08148
0.478073 -0.297686 1.07917
0.477743 -0.2986 1.07725
0.47755 -0.299564 1.07556
0.477533 -0.300593 1.07416
0.477553 -0.301634 1.07282
0.477619 -0.302691 1.07156
0.477765 -0.303778 1.07043
0.477927 -0.30487 1.06932
0.478048 -0.305943 1.06816
0.478117 -0.306993 1.06691
0.478173 -0.308037 1.06564
0.47819 -0.309062 1.06432
0.478304 -0.310125 1.06315
0.478556 -0.311243 1.0622
0.478854 -0.312379 1.06133
0.479187 -0.313529 1.06051
0.47955 -0.314691 1.05974
0.479959 -0.315872 1.05905
0.480342 -0.317041 1.05831
0.480808 -0.318245 1.05771
0.481311 -0.319465 1.05716
0.481774 -0.320668 1.05655
0.482159 -0.321836 1.05582
0.482494 -0.322983 1.05501
0.482863 -0.324143 1.05426
0.483194 -0.325286 1.05344
0.483492 -0.326413 1.05258
0.483948 -0.32761 1.05197
0.484408 -0.328808 1.05135
0.48488 -0.330012 1.05076
0.485391 -0.331234 1.05023
0.486023 -0.33251 1.04988
0.486539 -0.333734 1.04936
0.487134 -0.334994 1.04895
0.487765 -0.336271 1.0486
0.488318 -0.337512 1.04813
0.488869 -0.338753 1.04766
0.48946 -0.340013 1.04725
0.490052 -0.341274 1.04684
0.490652 -0.342539 1.04644
0.491298 -0.343825 1.0461
0.492028 -0.345153 1.0459
0.492769 -0.346486 1.04571
0.493466 -0.3478 1.04545
0.494156 -0.349111 1.04518
0.494925 -0.350461 1.04502
0.495619 -0.351776 1.04476
0.49654 -0.353202 1.04483
0.497648 -0.354722 1.04517
0.498823 -0.356278 1.04561
0.500046 -0.35786 1.04612
0.501344 -0.359483 1.04673
0.502469 -0.361023 1.04708
0.503499 -0.362516 1.04729
