ply
format ascii 1.0
element vertex 1554
property float x
property float y
property float z
end_header
0.0534963 -0.00791502 0.453506
0.0547197 -0.0077381 0.454821
0.055967 -0.0075579 0.456324
0.057204 -0.00737927 0.457684
0.0584712 -0.0071953 0.459283
0.0597248 -0.00701421 0.460707
0.0609973 -0.00682995 0.462261
0.0622676 -0.00664639 0.463749
0.0635266 -0.00646411 0.465097
0.0647523 -0.00628702 0.46611
0.0659869 -0.00610901 0.467173
0.0671861 -0.00593632 0.467907
0.0683564 -0.00576731 0.468375
-0.0181953 -0.0182419 0.418506
-0.0192324 -0.018391 0.418751
-0.0193685 -0.0173637 0.417716
-0.0183327 -0.0172153 0.417462
-0.0171576 -0.0180934 0.418093
-0.0172967 -0.0170678 0.417091
-0.0161195 -0.0179453 0.417418
-0.0162595 -0.016921 0.416355
-0.0150814 -0.017797 0.416276
-0.0152226 -0.0167754 0.415215
-0.0140467 -0.0176498 0.415023
-0.014189 -0.01663 0.413919
-0.013016 -0.0175028 0.413625
-0.0131595 -0.0164862 0.412532
-0.0119899 -0.0173567 0.412311
-0.0121347 -0.0163421 0.41123
-0.0109678 -0.0172112 0.411159
-0.0111139 -0.0161988 0.410101
-0.0100952 -0.0160538 0.409561
-0.00907707 -0.0159083 0.409272
-0.00805976 -0.0157634 0.408997
-0.00689096 -0.0166273 0.409863
-0.00704224 -0.0156174 0.408877
-0.00587366 -0.0164817 0.409619
-0.00602574 -0.015472 0.40869
-0.00485713 -0.0163358 0.409377
-0.00501045 -0.0153269 0.408455
-0.00384063 -0.0161899 0.409204
-0.00399526 -0.0151812 0.408276
-0.00282442 -0.0160443 0.409045
-0.00297946 -0.0150361 0.408177
-0.00180976 -0.0158988 0.40883
-0.00196598 -0.0148905 0.407963
-0.000794199 -0.0157528 0.408706
-0.000953295 -0.0147459 0.407737
0.000224336 -0.0156065 0.40875
6.12684e-05 -0.0146004 0.407653
0.00124366 -0.0154605 0.408823
0.00107738 -0.0144548 0.407652
0.00209689 -0.0143081 0.407799
0.00312251 -0.0141597 0.408178
0.00414763 -0.0140117 0.408491
0.00516991 -0.0138643 0.408666
0.00619047 -0.0137175 0.408764
0.00722423 -0.0135678 0.409276
0.0180481 -0.0119195 0.445167
0.0190746 -0.0117752 0.444092
0.0201108 -0.0116281 0.443286
0.0211643 -0.0114785 0.44287
0.0222214 -0.0113274 0.44255
0.0232853 -0.0111753 0.442373
0.024359 -0.0110209 0.442382
0.0254328 -0.0108668 0.442394
0.0265069 -0.0107121 0.44241
0.0275769 -0.0105586 0.442358
0.0286498 -0.0104052 0.442355
0.0297099 -0.0102531 0.442156
0.0307732 -0.0101006 0.442014
0.0318406 -0.0099477 0.441939
0.0329221 -0.00979255 0.442072
0.0340016 -0.00963711 0.442172
0.0350949 -0.00947912 0.442456
0.0361834 -0.00932264 0.442665
0.037272 -0.0091658 0.442866
0.0383667 -0.00900774 0.443138
0.0394838 -0.00884583 0.443678
0.0406003 -0.00868405 0.444192
0.0417337 -0.00851999 0.444889
0.0428675 -0.00835526 0.445564
0.0439924 -0.00819225 0.44611
0.0451187 -0.00802871 0.446652
0.0462475 -0.00786547 0.447201
0.047366 -0.00770372 0.447617
0.0484971 -0.00754049 0.448153
0.0496301 -0.00737628 0.448693
0.050767 -0.00721164 0.449254
0.051931 -0.00704219 0.450075
0.0531187 -0.00686912 0.451108
0.0543202 -0.00669297 0.452244
0.0555473 -0.00651364 0.453593
0.056787 -0.0063321 0.455019
0.058053 -0.00614581 0.456652
0.0593253 -0.00595915 0.458292
0.0606113 -0.00576982 0.460011
0.061909 -0.00557846 0.46178
0.0632058 -0.00538792 0.463486
0.0644753 -0.00520176 0.464909
0.0657485 -0.00501515 0.466326
0.0669864 -0.00483528 0.467399
0.0681882 -0.00466051 0.46814
-0.0195001 -0.0163406 0.416356
-0.0184657 -0.0161933 0.416048
-0.0174317 -0.0160465 0.415669
-0.0163957 -0.0159013 0.414828
-0.0153609 -0.0157577 0.413698
-0.0143293 -0.0156149 0.412411
-0.0133021 -0.015473 0.411154
-0.0122791 -0.015331 0.409988
-0.0112597 -0.0151889 0.409046
-0.0102419 -0.0150444 0.408635
-0.00922447 -0.0148993 0.408461
-0.00820831 -0.0147544 0.408186
-0.0071919 -0.0146088 0.408064
-0.00617691 -0.0144644 0.407824
-0.00516287 -0.0143197 0.407587
-0.00414998 -0.014176 0.407307
-0.00313588 -0.0140308 0.40719
-0.00212469 -0.0138865 0.406911
-0.00111368 -0.0137429 0.406674
-0.000102776 -0.0135985 0.40648
0.000911356 -0.0134524 0.406469
0.0019287 -0.0133059 0.4066
0.00295274 -0.0131575 0.406986
0.00397641 -0.0130088 0.407316
0.00500224 -0.0128598 0.407684
0.0060253 -0.0127122 0.407912
0.00706172 -0.0125607 0.40855
0.00810643 -0.0124075 0.409376
0.00932926 -0.0132602 0.411237
0.0091698 -0.0122493 0.410667
0.0188554 -0.0107212 0.442544
0.0198932 -0.0105751 0.441813
0.020945 -0.0104259 0.441406
0.0220001 -0.0102757 0.441087
0.0230615 -0.0101242 0.440904
0.0241289 -0.00997123 0.44084
0.0251927 -0.00981883 0.440718
0.0262595 -0.00966609 0.440654
0.027323 -0.00951448 0.440537
0.0283894 -0.00936131 0.440476
0.0294436 -0.00921105 0.440227
0.0305073 -0.00905872 0.440137
0.0315631 -0.00890796 0.439932
0.0326407 -0.00875271 0.440054
0.0337213 -0.00859691 0.440213
0.0348165 -0.00843838 0.440567
0.0359076 -0.00828007 0.44085
0.0370078 -0.00812112 0.441239
0.0381052 -0.00796149 0.441577
0.0392208 -0.00779924 0.442132
0.0403393 -0.00763624 0.4427
0.041465 -0.00747203 0.443332
0.0425959 -0.00730695 0.444003
0.0437189 -0.00714323 0.444555
0.044843 -0.00697919 0.445098
0.0459689 -0.00681541 0.445643
0.0470959 -0.00665114 0.44618
0.0482252 -0.00648655 0.446722
0.0493568 -0.00632218 0.44727
0.0504841 -0.00615768 0.447755
0.0516309 -0.00599052 0.448424
0.0527871 -0.00582158 0.449165
0.0539606 -0.00564929 0.450054
0.0551587 -0.00547242 0.451157
0.0563772 -0.00529202 0.452417
0.0576232 -0.00510671 0.453905
0.0588916 -0.00491745 0.455547
0.0601823 -0.0047246 0.45735
0.0614799 -0.00452999 0.459163
0.0628035 -0.00433184 0.46115
0.0641253 -0.00413379 0.463069
0.0654462 -0.00393593 0.464919
0.0667266 -0.0037462 0.466372
-0.0206651 -0.0154678 0.415329
-0.0196316 -0.0153213 0.415022
-0.0185975 -0.0151752 0.414569
-0.0175646 -0.0150296 0.414066
-0.0165311 -0.0148861 0.413274
-0.0154986 -0.0147449 0.412196
-0.0144693 -0.0146043 0.410981
-0.0134442 -0.014464 0.409857
-0.0124229 -0.0143234 0.408824
-0.0114049 -0.0141826 0.407953
-0.0103886 -0.0140386 0.407599
-0.00937254 -0.0138939 0.407428
-0.00835774 -0.0137497 0.407155
-0.00734228 -0.0136047 0.407088
-0.00632867 -0.0134603 0.406859
-0.0053158 -0.0133162 0.406625
-0.00430518 -0.0131729 0.406281
-0.00329356 -0.0130289 0.406084
-0.00228581 -0.0128873 0.405683
-0.00127771 -0.0127438 0.405386
-0.000269511 -0.0126006 0.405144
0.000742545 -0.0124555 0.405128
0.00175787 -0.012309 0.405256
0.00277964 -0.0121597 0.40564
0.00380276 -0.0120105 0.406027
0.00483003 -0.0118605 0.406516
0.00585671 -0.0117105 0.406932
0.00689812 -0.0115557 0.407783
0.00794807 -0.0113988 0.40881
0.0090125 -0.0112382 0.41016
0.0102433 -0.0120888 0.412123
0.0100835 -0.0110759 0.411572
0.0196823 -0.0095253 0.440463
0.0207362 -0.0093759 0.440135
0.0217899 -0.00922623 0.439825
0.0228523 -0.00907448 0.439694
0.0239105 -0.00892392 0.439496
0.0249643 -0.00877407 0.439234
0.0260208 -0.00862373 0.439031
0.0270774 -0.00847284 0.438843
0.0281343 -0.00832208 0.438669
0.0291825 -0.00817405 0.438368
0.0302438 -0.0080219 0.438284
0.0312968 -0.00787215 0.43808
0.0323763 -0.00771605 0.438269
0.0334589 -0.0075594 0.438496
0.0345601 -0.00739797 0.43897
0.0356578 -0.00723792 0.439374
0.0367651 -0.00707655 0.439889
0.0378613 -0.00691704 0.440239
0.0389739 -0.00675405 0.440781
0.0400936 -0.00658934 0.441391
0.0412112 -0.0064256 0.44195
0.0423346 -0.00626096 0.442556
0.0434543 -0.00609642 0.443097
0.0445767 -0.00593226 0.443648
0.0456958 -0.00576856 0.444141
0.0468277 -0.00560286 0.444757
0.0479611 -0.0054361 0.445368
0.0490967 -0.00526935 0.445982
0.0502231 -0.00510494 0.446478
0.0513612 -0.00493764 0.447078
0.0524888 -0.00477334 0.447551
0.0536307 -0.00460531 0.448152
0.0547956 -0.00443342 0.448963
0.0559864 -0.00425671 0.449993
0.057204 -0.00407443 0.451241
0.058463 -0.00388353 0.452841
0.0597443 -0.00368935 0.454605
0.0610294 -0.00349451 0.456343
0.0623495 -0.00329331 0.458339
0.0636786 -0.00308994 0.460363
0.0650369 -0.00288189 0.462585
0.0663589 -0.00268126 0.464428
-0.0218384 -0.014593 0.415032
-0.0208024 -0.0144477 0.414576
-0.0197681 -0.0143031 0.414133
-0.0187333 -0.0141593 0.41352
-0.0177 -0.0140162 0.412825
-0.0166682 -0.0138739 0.412031
-0.015637 -0.0137349 0.410902
-0.0146093 -0.0135964 0.409689
-0.0135859 -0.0134584 0.408582
-0.0125663 -0.0133192 0.407609
-0.0115499 -0.0131793 0.406798
-0.0105349 -0.0130364 0.406505
-0.00952039 -0.012892 0.406338
-0.00850715 -0.0127487 0.406066
-0.00749364 -0.0126041 0.405945
-0.00648165 -0.0124607 0.405706
-0.00547093 -0.0123175 0.405425
-0.00446279 -0.0121759 0.405019
-0.00345381 -0.0120329 0.404764
-0.00244831 -0.0118918 0.404341
-0.00144305 -0.0117503 0.40399
-0.000437599 -0.0116086 0.403704
0.000572486 -0.0114633 0.403697
0.00158676 -0.0113166 0.40388
0.00260618 -0.0111671 0.404252
0.0036286 -0.0110166 0.404696
0.00465655 -0.0108646 0.405288
0.0056881 -0.0107116 0.405937
0.00672924 -0.0105553 0.406831
0.00777803 -0.0103966 0.407872
0.00884257 -0.0102331 0.409274
0.00991439 -0.0100682 0.410752
0.0194717 -0.00847847 0.439113
0.020524 -0.00833026 0.438788
0.0215756 -0.00818117 0.438476
0.0226331 -0.00803108 0.438291
0.0236863 -0.00788229 0.438038
0.0247342 -0.00773376 0.43771
0.0257837 -0.00758543 0.437425
0.0268366 -0.00743579 0.437216
0.0278912 -0.00728597 0.437043
0.0289376 -0.00713835 0.436751
0.0300011 -0.00698563 0.436737
0.0310561 -0.00683553 0.436597
0.0321378 -0.00667802 0.436852
0.0332229 -0.00651991 0.437145
0.0343281 -0.00635723 0.437703
0.0354289 -0.00619516 0.438177
0.0365389 -0.00603186 0.438751
0.0376327 -0.00587214 0.439093
0.0387381 -0.0057096 0.439566
0.0398506 -0.00554558 0.44011
0.0409593 -0.00538309 0.440584
0.0420794 -0.00521793 0.441177
0.0431915 -0.00505476 0.441652
0.0443117 -0.00488917 0.442205
0.0454285 -0.00472509 0.442698
0.0465638 -0.00455738 0.443378
0.0476906 -0.00439091 0.443941
0.048831 -0.0042219 0.44463
0.0499614 -0.00405551 0.445189
0.0511038 -0.0038865 0.445854
0.0522244 -0.00372222 0.446276
0.053364 -0.0035544 0.446873
0.0545071 -0.00338572 0.447483
0.0556662 -0.00321303 0.448237
0.0568495 -0.00303618 0.449191
0.0580788 -0.00284938 0.450544
0.0593302 -0.00265783 0.452067
0.0605987 -0.00246312 0.45369
0.0619094 -0.00226051 0.455647
0.0632305 -0.00205526 0.45764
0.0645806 -0.00184449 0.459827
0.0658952 -0.00164203 0.461648
-0.0230215 -0.0137152 0.415314
-0.0219811 -0.0135717 0.414688
-0.0209429 -0.0134286 0.414067
-0.0199065 -0.013286 0.413428
-0.0188709 -0.0131447 0.412665
-0.0178361 -0.0130049 0.411717
-0.0168057 -0.0128643 0.410917
-0.0157759 -0.012727 0.409783
-0.0147498 -0.0125904 0.408632
-0.0137276 -0.0124544 0.407528
-0.0127094 -0.0123165 0.406615
-0.0116942 -0.0121785 0.405796
-0.0106806 -0.0120356 0.4055
-0.00966779 -0.0118922 0.405281
-0.00865596 -0.0117496 0.40501
-0.00764396 -0.011606 0.404883
-0.00663396 -0.0114637 0.404586
-0.00562486 -0.0113216 0.404299
-0.00461879 -0.0111813 0.403843
-0.00361214 -0.01104 0.403536
-0.00260838 -0.0108998 0.403114
-0.0016039 -0.0107584 0.402816
-0.000600176 -0.0106167 0.402536
0.000409471 -0.0104712 0.402589
0.00142347 -0.0103238 0.40283
0.00244001 -0.0101749 0.403148
0.00346057 -0.0100243 0.403585
0.00448657 -0.00987109 0.404172
0.00551818 -0.0097168 0.404882
0.00655814 -0.00955918 0.405793
0.00760737 -0.00939757 0.406901
0.008672 -0.00923167 0.408357
0.00974194 -0.00906447 0.409828
0.010983 -0.00990485 0.412012
0.0108084 -0.00889966 0.411074
0.0203152 -0.00728791 0.437499
0.0213651 -0.0071396 0.437188
0.0224207 -0.00699028 0.436999
0.0234686 -0.00684244 0.436687
0.0245114 -0.00669691 0.4363
0.0255553 -0.0065501 0.435958
0.026606 -0.00640116 0.435746
0.0276575 -0.00625203 0.43556
0.0287054 -0.00610358 0.435326
0.0297711 -0.00595048 0.435376
0.0308286 -0.00579914 0.435305
0.0319132 -0.00564016 0.435631
0.0330018 -0.00548071 0.435999
0.0341056 -0.00531671 0.436562
0.0352096 -0.0051538 0.437102
0.0363183 -0.00498899 0.437683
0.037411 -0.00482884 0.43803
0.0385095 -0.00466775 0.438436
0.0396186 -0.0045033 0.43896
0.0407154 -0.00434299 0.43931
0.0418284 -0.00417761 0.439842
0.0429327 -0.00401531 0.440251
0.0440494 -0.00385064 0.440785
0.0451628 -0.00368585 0.441266
0.0462956 -0.00351737 0.441943
0.0474197 -0.00335044 0.442501
0.0485634 -0.00317932 0.443249
0.0497034 -0.00300963 0.443933
0.0508462 -0.00283844 0.444624
0.0519717 -0.00267289 0.445114
0.0531221 -0.00250049 0.445838
0.0542632 -0.00233108 0.44645
0.055409 -0.00216091 0.447083
0.0565694 -0.00198713 0.447839
0.0577658 -0.00180581 0.448906
0.0589763 -0.00162101 0.450069
0.0602077 -0.00143202 0.451394
0.0614892 -0.00123207 0.45312
0.0627849 -0.00102908 0.454927
0.0641143 -0.000818619 0.456975
0.0654229 -0.000614321 0.458789
-0.0242052 -0.0128362 0.415547
-0.023164 -0.0126935 0.414979
-0.0221227 -0.0125514 0.414284
-0.0210833 -0.0124102 0.413563
-0.0200453 -0.0122704 0.412766
-0.0190081 -0.0121318 0.411796
-0.0179741 -0.0119946 0.410831
-0.0169443 -0.0118557 0.409977
-0.0159152 -0.0117213 0.408791
-0.0148902 -0.011587 0.407646
-0.0138692 -0.0114526 0.406537
-0.0128521 -0.0113169 0.405626
-0.0118382 -0.0111797 0.40486
-0.0108258 -0.0110377 0.404569
-0.00981421 -0.0108949 0.404347
-0.0088036 -0.0107532 0.404071
-0.00779348 -0.0106097 0.403882
-0.00678574 -0.0104701 0.403472
-0.00577831 -0.0103285 0.403173
-0.00477366 -0.0101897 0.402723
-0.00376848 -0.0100487 0.402427
-0.00276592 -0.00990918 0.402022
-0.00176124 -0.00976705 0.401829
-0.00075766 -0.00962584 0.401604
0.00025076 -0.00947979 0.401667
0.00126459 -0.00933132 0.401964
0.00227993 -0.00918195 0.402286
0.00329766 -0.00903149 0.402662
0.0043208 -0.00887941 0.403191
0.00535227 -0.00872296 0.403954
0.00639078 -0.00856321 0.40487
0.00743907 -0.0084009 0.405996
0.00850203 -0.00823184 0.40745
0.00956765 -0.00806333 0.408844
0.0106298 -0.00789834 0.410017
0.0211494 -0.00610403 0.435788
0.0222056 -0.00595377 0.435653
0.0232551 -0.00580604 0.435402
0.0242966 -0.00566043 0.435027
0.0253394 -0.00551466 0.434695
0.0263847 -0.00536772 0.434421
0.0274306 -0.00522061 0.434174
0.0284766 -0.00507266 0.433943
0.0295403 -0.00491924 0.433997
0.0305969 -0.00476832 0.433941
0.031683 -0.00460845 0.434319
0.0327736 -0.00444717 0.434745
0.0338759 -0.00428251 0.435315
0.0349828 -0.00411747 0.43592
0.0360937 -0.00395027 0.436557
0.0371889 -0.00378893 0.436958
0.038286 -0.00362703 0.437366
0.039394 -0.00346184 0.437897
0.040489 -0.00330137 0.438244
0.0415944 -0.00313753 0.438705
0.0426915 -0.00297653 0.439048
0.0438005 -0.0028118 0.439517
0.0449056 -0.00264875 0.439925
0.0460288 -0.00248069 0.440519
0.0471493 -0.0023143 0.441062
0.0482901 -0.00214214 0.441804
0.0494341 -0.00197006 0.442554
0.0505816 -0.00179652 0.443315
0.0517181 -0.00162701 0.443938
0.0528803 -0.00145075 0.444799
0.0540336 -0.00127648 0.445544
0.0551857 -0.00110313 0.446252
0.0563446 -0.000928748 0.447008
0.0575248 -0.000749329 0.447936
0.0587177 -0.000566417 0.448956
0.0599116 -0.000384459 0.449952
0.0611528 -0.000191201 0.451339
0.0624034 4.68524e-06 0.452778
0.0636838 0.000206193 0.454427
0.064949 0.000404265 0.455908
-0.025251 -0.0129792 0.416246
-0.0253978 -0.0119537 0.416132
-0.0243502 -0.011813 0.415352
-0.0233078 -0.0116712 0.414717
-0.0222649 -0.0115318 0.413928
-0.0212236 -0.0113935 0.413068
-0.0201835 -0.0112566 0.412079
-0.0191455 -0.0111217 0.410987
-0.0181112 -0.0109873 0.409901
-0.017082 -0.0108509 0.408994
-0.0160537 -0.0107193 0.407757
-0.0150302 -0.0105862 0.406667
-0.0140104 -0.0104536 0.405567
-0.0129945 -0.0103194 0.404662
-0.0119817 -0.0101835 0.403905
-0.0109706 -0.0100425 0.403612
-0.00996049 -0.00990098 0.403335
-0.00895104 -0.00975912 0.403109
-0.00794252 -0.00961722 0.402868
-0.0069363 -0.0094779 0.402453
-0.00593025 -0.00933797 0.402148
-0.00492649 -0.00919877 0.401745
-0.00392315 -0.00905887 0.40141
-0.00292098 -0.00891989 0.401065
-0.00191748 -0.00877769 0.400884
-0.000914239 -0.0086362 0.400715
9.31837e-05 -0.00849104 0.400783
0.00110572 -0.00834135 0.401084
0.00211987 -0.00819224 0.401406
0.00313738 -0.00804081 0.401826
0.00415747 -0.00788794 0.402295
0.00518729 -0.00773075 0.403049
0.00622601 -0.0075694 0.404019
0.00727253 -0.00740494 0.405136
0.00833023 -0.00723635 0.406476
0.00938979 -0.00706784 0.407745
0.0104431 -0.00690415 0.408727
0.0116882 -0.00773574 0.410991
0.0114947 -0.0067429 0.409578
0.0209447 -0.00506817 0.434595
0.0220024 -0.00491709 0.434518
0.0230501 -0.00476989 0.434264
0.0240935 -0.00462453 0.433949
0.0251353 -0.00447906 0.433626
0.0261797 -0.00433221 0.433363
0.0272241 -0.00418531 0.433116
0.0282722 -0.00403734 0.432941
0.0293313 -0.00388515 0.432944
0.0303904 -0.00373336 0.432949
0.031471 -0.0035745 0.433268
0.032555 -0.00341389 0.433622
0.0336456 -0.00325191 0.434053
0.0347495 -0.00308601 0.434646
0.0358547 -0.00292039 0.43523
0.0369535 -0.00275624 0.435705
0.0380539 -0.00259248 0.436181
0.0391692 -0.00242449 0.436825
0.0402627 -0.0022631 0.437175
0.0413667 -0.00209845 0.437638
0.0424617 -0.001937 0.437976
0.0435626 -0.00177428 0.43837
0.0446602 -0.00161186 0.438713
0.0457753 -0.00144512 0.439237
0.0468881 -0.00127971 0.439718
0.0480253 -0.00110756 0.440443
0.0491669 -0.000933663 0.441192
0.0503068 -0.000761117 0.441896
0.0514478 -0.000588456 0.442589
0.0526137 -0.000409609 0.443507
0.053773 -0.000233259 0.44433
0.0549431 -5.32251e-05 0.445236
0.0561155 0.000126058 0.446135
0.0572948 0.000307258 0.447066
0.0584847 0.000490983 0.448069
0.0596757 0.000674123 0.44905
0.0608793 0.000860479 0.45012
0.062078 0.00104529 0.451111
0.06331 0.0012378 0.45237
0.0645349 0.0014284 0.453528
-0.0265984 -0.0110654 0.416929
-0.0255447 -0.0109277 0.416017
-0.0244941 -0.0107902 0.4151
-0.023448 -0.0106519 0.414267
-0.0224024 -0.0105161 0.413301
-0.021359 -0.0103812 0.412257
-0.0203182 -0.0102479 0.411156
-0.0192806 -0.0101155 0.410011
-0.0182475 -0.00998292 0.408923
-0.0172193 -0.0098489 0.408004
-0.0161922 -0.00971884 0.406773
-0.0151701 -0.00958746 0.405742
-0.0141516 -0.00945597 0.404709
-0.0131368 -0.00932274 0.403867
-0.012125 -0.00918704 0.403177
-0.0111148 -0.00904658 0.402887
-0.0101056 -0.0089067 0.402557
-0.00909731 -0.00876527 0.402324
-0.00809012 -0.00862482 0.402032
-0.00708528 -0.00848691 0.401571
-0.00608099 -0.00834797 0.401213
-0.00507779 -0.00820961 0.400857
-0.00407569 -0.00807048 0.400518
-0.00307385 -0.00793066 0.400238
-0.00207038 -0.00778845 0.400115
-0.00106713 -0.00764624 0.400003
-6.07185e-05 -0.00750113 0.400072
0.000950838 -0.00735167 0.400373
0.00196366 -0.00720159 0.400687
0.00298016 -0.0070493 0.401109
0.0039992 -0.00689645 0.401574
0.00502619 -0.00673904 0.402269
0.00606155 -0.00657771 0.403169
0.00710456 -0.00641258 0.40422
0.00815834 -0.00624366 0.405487
0.0092117 -0.00607547 0.406628
0.0102606 -0.00591214 0.407539
0.0113077 -0.00575028 0.408325
0.0218008 -0.00388346 0.433406
0.0228507 -0.00373529 0.433221
0.0238962 -0.00358904 0.432968
0.0249403 -0.00344283 0.432705
0.0259832 -0.00329719 0.43244
0.0270262 -0.0031511 0.432189
0.0280728 -0.00300313 0.432011
0.0291269 -0.0028531 0.431956
0.030181 -0.00270236 0.431905
0.0312553 -0.00254445 0.432155
0.032332 -0.00238651 0.432429
0.0334149 -0.00222543 0.432777
0.0345118 -0.00206056 0.433301
0.0356104 -0.00189548 0.433825
0.036712 -0.00172993 0.434366
0.0378154 -0.00156373 0.434909
0.0389303 -0.00139374 0.435573
0.0400271 -0.00123038 0.435986
0.0411335 -0.00106422 0.4365
0.0422313 -0.000901609 0.436891
0.0433307 -0.000738085 0.437287
0.0444275 -0.000575221 0.437639
0.0455356 -0.000409879 0.438102
0.0466452 -0.00024402 0.438568
0.0477691 -7.41599e-05 0.439169
0.0489085 0.000100763 0.439917
0.0500456 0.000273862 0.440613
0.0511895 0.000448838 0.441357
0.0523534 0.000628935 0.442275
0.0535298 0.000812298 0.443289
0.0547075 0.000995538 0.444279
0.0558934 0.00118061 0.445321
0.0570855 0.00136677 0.446386
0.0582797 0.00155387 0.447445
0.059469 0.00173868 0.448419
0.0606698 0.00192583 0.449472
0.0618589 0.00210968 0.450386
0.0630468 0.00229281 0.45127
0.0642376 0.00247676 0.452151
-0.0276529 -0.011205 0.417751
-0.0288691 -0.0103101 0.418881
-0.0278051 -0.0101745 0.417831
-0.0267479 -0.0100374 0.416916
-0.0256909 -0.0099026 0.415873
-0.0246352 -0.00976964 0.414717
-0.0235837 -0.009637 0.413585
-0.0225347 -0.00950554 0.412374
-0.021491 -0.00937438 0.41125
-0.0204492 -0.00924525 0.409992
-0.0194131 -0.00911506 0.408847
-0.0183826 -0.00898257 0.407873
-0.0173563 -0.00884911 0.40701
-0.0163302 -0.00872171 0.405787
-0.0153101 -0.00858979 0.404872
-0.0142929 -0.00845874 0.403964
-0.0132791 -0.0083257 0.40319
-0.0122679 -0.0081909 0.402558
-0.0112585 -0.00805076 0.402267
-0.0102502 -0.00791126 0.40193
-0.00924248 -0.00777096 0.401699
-0.00823636 -0.00763144 0.401359
-0.00723218 -0.00749519 0.400903
-0.00622883 -0.00735686 0.400536
-0.00522648 -0.00721884 0.400184
-0.00422511 -0.00708063 0.399845
-0.00322328 -0.00694039 0.39962
-0.0022198 -0.00679764 0.399548
-0.00121619 -0.00665454 0.399495
-0.000210467 -0.00650911 0.399562
0.000800399 -0.00635894 0.399863
0.00181252 -0.00620884 0.400173
0.00282701 -0.00605767 0.400541
0.00384529 -0.00590411 0.401007
0.00487001 -0.00574676 0.401652
0.00590078 -0.00558577 0.402432
0.00693863 -0.00542256 0.403353
0.00798668 -0.00525379 0.404494
0.00903252 -0.00508783 0.405463
0.0100789 -0.00492326 0.406359
0.0111258 -0.00475949 0.40719
0.0123976 -0.00556819 0.410124
0.0121827 -0.00459187 0.408203
0.0216128 -0.00284694 0.432544
0.022665 -0.00269754 0.432423
0.023713 -0.00255024 0.432233
0.0247597 -0.00240327 0.432031
0.0258024 -0.00225801 0.431774
0.0268443 -0.00211267 0.431519
0.0278893 -0.00196588 0.431328
0.0289381 -0.00181728 0.431205
0.0299871 -0.00166849 0.431093
0.031052 -0.00151364 0.43122
0.032118 -0.0013585 0.431358
0.0331891 -0.00120132 0.431563
0.0342786 -0.00103774 0.432012
0.0353708 -0.000873766 0.432477
0.0364752 -0.000705397 0.433082
0.0375818 -0.00053703 0.43369
0.0386996 -0.000364585 0.434417
0.0397953 -0.000201111 0.434837
0.0409007 -3.36051e-05 0.435361
0.0419966 0.000130067 0.435752
0.0430951 0.000294137 0.436158
0.0441901 0.00045625 0.436506
0.0452963 0.000622856 0.43697
0.0464047 0.000789229 0.437441
0.0475261 0.00096 0.438035
0.0486627 0.00113489 0.43877
0.0497914 0.00130694 0.439398
0.0509325 0.00148218 0.440131
0.0520934 0.00166344 0.44104
0.0532741 0.00185037 0.442117
0.0544637 0.00203944 0.443242
0.055663 0.0022304 0.444429
0.0568685 0.00242264 0.44564
0.0580697 0.00261367 0.446768
0.059256 0.00279934 0.447729
0.0604486 0.0029858 0.448712
0.0616347 0.00317081 0.449616
0.0628204 0.0033551 0.45049
0.0640249 0.00354417 0.451495
-0.0300726 -0.0094195 0.419403
-0.0290167 -0.00927957 0.418762
-0.027954 -0.00914421 0.41777
-0.0268951 -0.00901002 0.4168
-0.0258309 -0.00888105 0.415444
-0.0247692 -0.00875495 0.413996
-0.0237112 -0.00862997 0.412486
-0.022659 -0.00850508 0.411012
-0.0216143 -0.00837817 0.409709
-0.0205753 -0.00825053 0.408501
-0.0195414 -0.00812217 0.407388
-0.0185142 -0.00798977 0.406538
-0.0174907 -0.00785603 0.405796
-0.016467 -0.00772915 0.404688
-0.015449 -0.00759679 0.403904
-0.0144335 -0.00746499 0.40312
-0.0134209 -0.00733236 0.402412
-0.0124106 -0.00719819 0.401835
-0.0114021 -0.00705837 0.401542
-0.0103947 -0.00692011 0.401202
-0.00938802 -0.00677934 0.400971
-0.00838271 -0.00664185 0.400622
-0.00737906 -0.00650492 0.400219
-0.00637686 -0.00636857 0.399807
-0.00537499 -0.00622995 0.399502
-0.00437372 -0.00609153 0.399217
-0.00337182 -0.00595063 0.399054
-0.00236869 -0.00580774 0.398999
-0.0013639 -0.0056627 0.399052
-0.000359695 -0.00551833 0.399065
0.000650253 -0.00536828 0.399355
0.00166159 -0.0052177 0.399663
0.00267558 -0.00506582 0.400037
0.00369332 -0.00491105 0.400512
0.00471703 -0.00475278 0.401148
0.0057438 -0.00459351 0.401815
0.00677656 -0.00443167 0.402605
0.00781925 -0.00426415 0.403621
0.00885982 -0.00409918 0.404478
0.00990274 -0.00393431 0.405321
0.01095 -0.00376842 0.406204
0.0120072 -0.00359763 0.407271
0.013263 -0.00441267 0.409707
0.0130537 -0.00343497 0.407984
0.0214344 -0.00180792 0.431858
0.0224894 -0.00165774 0.431803
0.0235373 -0.00151001 0.431627
0.024584 -0.00136351 0.431438
0.0256226 -0.00122028 0.431123
0.0266599 -0.00107703 0.430804
0.0276996 -0.000932784 0.430543
0.0287466 -0.000784475 0.430409
0.0297943 -0.000636772 0.430291
0.0308537 -0.000483205 0.430356
0.0319137 -0.000329691 0.430425
0.0329785 -0.000174483 0.43056
0.0340575 -1.45338e-05 0.430883
0.0351433 0.000148747 0.431286
0.036245 0.000317711 0.431882
0.0373497 0.000486327 0.432489
0.0384657 0.000660035 0.433215
0.0395641 0.000826162 0.433694
0.0406683 0.000993381 0.434223
0.0417633 0.00115749 0.434622
0.0428599 0.00132251 0.435027
0.0439484 0.00148346 0.435321
0.0450473 0.00164822 0.435721
0.0461523 0.00181481 0.436176
0.0472662 0.0019843 0.436711
0.0484008 0.00216073 0.437448
0.0495326 0.00233481 0.43813
0.0506774 0.00251294 0.438922
0.0518362 0.00269605 0.43983
0.0530199 0.00288572 0.440955
0.0542131 0.00307777 0.442141
0.0554251 0.0032752 0.443461
0.0566433 0.00347418 0.444808
0.0578521 0.00366864 0.446021
0.0590453 0.00385842 0.447053
0.0602415 0.00404833 0.448082
0.0614268 0.00423416 0.448983
0.0626122 0.00442031 0.449865
0.0638163 0.00461133 0.450879
0.0652765 0.00374614 0.452876
0.0650669 0.00481493 0.452257
-0.0312722 -0.00852981 0.419714
-0.0302192 -0.00838839 0.41924
-0.0291622 -0.00824943 0.418559
-0.0280984 -0.00811726 0.417537
-0.0270303 -0.00799005 0.416191
-0.0259573 -0.00787079 0.414424
-0.02489 -0.00775205 0.412654
-0.0238297 -0.00763335 0.410938
-0.0227751 -0.00751567 0.40922
-0.0217337 -0.00739035 0.407972
-0.020698 -0.00726403 0.406831
-0.0196687 -0.00713462 0.405896
-0.0186449 -0.00700181 0.405174
-0.0176251 -0.00686619 0.404626
-0.0166043 -0.0067376 0.403708
-0.0155882 -0.0066047 0.403046
-0.014574 -0.00647328 0.402326
-0.0135624 -0.00634069 0.40168
-0.0125531 -0.006207 0.40111
-0.0115454 -0.00606815 0.400818
-0.0105389 -0.00593052 0.400473
-0.00953316 -0.00579078 0.400239
-0.0085288 -0.00565343 0.399894
-0.00752568 -0.00551631 0.399544
-0.00652424 -0.0053807 0.399131
-0.00552303 -0.00524284 0.398833
-0.00452191 -0.00510369 0.398607
-0.00351982 -0.00496191 0.398505
-0.00251719 -0.00481878 0.398467
-0.001512 -0.00467238 0.39858
-0.000507389 -0.00452706 0.398643
0.000501953 -0.00437667 0.398929
0.00151273 -0.00422569 0.399237
0.00252611 -0.00407305 0.399609
0.00354339 -0.00391776 0.400089
0.00456356 -0.00376114 0.400617
0.00558598 -0.0036038 0.401162
0.00661378 -0.0034434 0.401824
0.00765124 -0.00327721 0.402718
0.00868816 -0.00311307 0.403509
0.00973164 -0.00294576 0.404412
0.0107799 -0.00277689 0.405363
0.0118361 -0.00260442 0.406438
0.0128808 -0.00244075 0.407142
0.0223054 -0.000623462 0.431026
0.0233557 -0.000475176 0.430909
0.0244051 -0.000326779 0.430784
0.0254432 -0.000184266 0.430475
0.0264796 -4.14362e-05 0.430154
0.027518 0.00010194 0.429883
0.0285639 0.000249598 0.429745
0.0296109 0.000397809 0.429631
0.03067 0.000550671 0.429702
0.0317291 0.000703873 0.42977
0.0327924 0.00085911 0.429896
0.0338613 0.00101621 0.430093
0.0349366 0.00117558 0.430367
0.036032 0.00134336 0.430899
0.0371299 0.00151126 0.431438
0.038239 0.00168371 0.4321
0.0393356 0.0018499 0.432576
0.0404419 0.00201952 0.433151
0.0415355 0.00218464 0.433554
0.0426308 0.00234988 0.433962
0.0437162 0.00251109 0.434239
0.044812 0.00267539 0.434624
0.0459043 0.00283864 0.434957
0.0470107 0.00300655 0.43543
0.0481428 0.00318327 0.436162
0.0492738 0.0033591 0.436857
0.0504172 0.00353875 0.437656
0.0515803 0.00372471 0.438628
0.0527682 0.00391774 0.439815
0.053965 0.00411363 0.44105
0.0551805 0.00431475 0.442426
0.0564054 0.00451873 0.443849
0.0576197 0.00471731 0.445128
0.058825 0.00491329 0.446287
0.0600215 0.00510542 0.447333
0.0612123 0.00529491 0.448296
0.0624127 0.0054866 0.449313
0.0636244 0.00568172 0.450402
0.0648667 0.00588575 0.451723
0.0663218 0.00501953 0.453638
0.0661258 0.00609414 0.453143
-0.0314153 -0.00749984 0.419434
-0.0303628 -0.00735882 0.418978
-0.0292983 -0.00722618 0.418027
-0.0282261 -0.00710125 0.416663
-0.0271465 -0.0069855 0.414811
-0.0260663 -0.00687613 0.412661
-0.0249935 -0.00676755 0.41052
-0.0239353 -0.00665296 0.408765
-0.022885 -0.0065371 0.407121
-0.0218497 -0.00641094 0.406065
-0.0208194 -0.0062833 0.405115
-0.0197962 -0.00615033 0.404465
-0.018777 -0.00601418 0.403987
-0.0177606 -0.0058759 0.403631
-0.0167422 -0.00574641 0.402848
-0.0157275 -0.00561342 0.402255
-0.0147144 -0.00548225 0.401586
-0.0137037 -0.00535093 0.400942
-0.0126952 -0.00521825 0.400374
-0.0116885 -0.00508 0.400086
-0.0106828 -0.00494174 0.399799
-0.00967822 -0.00480477 0.399461
-0.00867482 -0.0046682 0.399115
-0.00767268 -0.00453182 0.398764
-0.00667216 -0.00439691 0.398363
-0.0056718 -0.0042595 0.398072
-0.00467041 -0.00411849 0.397949
-0.00366757 -0.00397431 0.397964
-0.00266377 -0.0038287 0.398043
-0.00165785 -0.00368047 0.398226
-0.000652651 -0.00353377 0.398344
0.000356254 -0.00338309 0.398625
0.00136664 -0.00323171 0.398929
0.00237846 -0.00307966 0.399254
0.00339524 -0.00292378 0.399729
0.0044133 -0.00276784 0.400197
0.00543309 -0.00261151 0.400672
0.00645637 -0.00245332 0.401211
0.00749046 -0.00228755 0.402031
0.00852633 -0.0021222 0.402824
0.00957278 -0.00195058 0.40384
0.0106247 -0.00177679 0.404918
0.0116809 -0.00160223 0.406008
0.0127249 -0.00143757 0.406712
0.0139595 -0.00225769 0.408593
0.0137718 -0.00127234 0.407427
0.0221211 0.00040878 0.43024
0.0231706 0.000556825 0.430127
0.0242225 0.000705979 0.430063
0.0252628 0.000850171 0.429806
0.0262983 0.00099196 0.429484
0.0273327 0.00113349 0.429161
0.028378 0.00128012 0.429027
0.0294209 0.00142615 0.428865
0.0304794 0.00158003 0.428944
0.0315419 0.00173531 0.429076
0.0326046 0.00189034 0.429206
0.0336679 0.00204575 0.429338
0.0347407 0.00220526 0.429596
0.0358292 0.00237051 0.430047
0.0369165 0.00253556 0.430467
0.0380186 0.00270584 0.431056
0.0391172 0.00287517 0.431579
0.0402176 0.00304401 0.432102
0.0413093 0.00320908 0.432502
0.0424069 0.00337565 0.432953
0.0434902 0.0035371 0.433224
0.0445789 0.00369958 0.433545
0.0456684 0.0038628 0.433865
0.0467662 0.00402865 0.434263
0.0478908 0.00420471 0.434935
0.0490252 0.004383 0.435686
0.0501751 0.0045666 0.43657
0.0513384 0.00475476 0.437563
0.0525298 0.0049519 0.438803
0.0537238 0.00514889 0.440028
0.0549304 0.00534951 0.441335
0.0561528 0.00555551 0.442754
0.0573726 0.00575833 0.4441
0.0585841 0.00595833 0.445329
0.0597927 0.00615668 0.446497
0.0609976 0.00635309 0.447601
0.0622054 0.00654946 0.448697
0.0634241 0.00674859 0.449855
0.0646654 0.00695437 0.451168
0.0659136 0.00716211 0.45251
0.067413 0.00630985 0.45476
0.067197 0.00738015 0.454106
0.068688 0.00652165 0.456236
0.0684624 0.00759096 0.455511
0.0699659 0.00673378 0.457695
0.0697406 0.00780524 0.45698
-0.0315393 -0.00648156 0.418551
-0.0304788 -0.00634694 0.417788
-0.0294089 -0.00622085 0.416592
-0.0283268 -0.00610707 0.414781
-0.0272416 -0.00600123 0.412601
-0.0261632 -0.00589673 0.410403
-0.0250926 -0.00579303 0.408224
-0.0240406 -0.00567872 0.406624
-0.0229971 -0.00556179 0.405194
-0.021968 -0.0054333 0.404355
-0.020943 -0.0053036 0.403599
-0.0199242 -0.0051682 0.403128
-0.0189085 -0.00503035 0.402784
-0.0178951 -0.00489011 0.402561
-0.0168794 -0.00475826 0.401959
-0.0158661 -0.0046252 0.401421
-0.0148543 -0.00449439 0.400794
-0.0138444 -0.00436444 0.400143
-0.0128369 -0.00423382 0.399533
-0.0118313 -0.00409736 0.399197
-0.0108267 -0.00395856 0.398961
-0.0098232 -0.00382257 0.398614
-0.00882087 -0.00368657 0.398276
-0.00781897 -0.00354828 0.398039
-0.00681842 -0.00341136 0.397752
-0.00581822 -0.0032731 0.397521
-0.00481615 -0.00312976 0.397507
-0.00381238 -0.00298292 0.397629
-0.00280785 -0.00283549 0.397777
-0.00180112 -0.00268537 0.398025
-0.000794889 -0.00253702 0.398202
0.000212824 -0.00238723 0.39843
0.00122292 -0.00223557 0.398728
0.0022345 -0.00208317 0.399049
0.00324963 -0.0019279 0.39947
0.00426582 -0.00177279 0.399879
0.00528474 -0.00161623 0.400336
0.00630405 -0.00146031 0.400758
0.00733393 -0.00129638 0.401468
0.00836868 -0.00113001 0.402254
0.00941438 -0.000956549 0.403277
0.0104662 -0.000780709 0.404374
0.0115216 -0.000604152 0.405472
0.0125692 -0.000435335 0.406282
0.0136177 -0.000267362 0.407052
0.0148439 -0.00109218 0.408667
0.0146584 -0.000105911 0.407585
0.0219362 0.00143734 0.429433
0.0229846 0.00158523 0.429321
0.0240355 0.00173464 0.429259
0.0250788 0.00187993 0.42907
0.0261172 0.00202283 0.428811
0.0271543 0.00216558 0.428547
0.028203 0.0023143 0.428477
0.0292491 0.00246232 0.428374
0.0303076 0.00261615 0.428462
0.0313701 0.00277171 0.428602
0.0324285 0.00292537 0.428679
0.0334865 0.00307841 0.428747
0.0345534 0.0032363 0.428936
0.0356354 0.00339998 0.429314
0.0367161 0.00356272 0.42966
0.0378125 0.00373239 0.430193
0.0389097 0.0039011 0.430714
0.0400079 0.00407041 0.431226
0.0410937 0.00423409 0.431569
0.0421854 0.00440009 0.43197
0.043272 0.00456367 0.432295
0.0443593 0.00472678 0.432616
0.0454425 0.00488805 0.432881
0.0465378 0.0050541 0.433268
0.0476585 0.00522975 0.433914
0.0487853 0.00540697 0.434602
0.0499335 0.00559196 0.435488
0.0511019 0.00578377 0.436549
0.0522871 0.00598119 0.437744
0.0534785 0.00617968 0.438962
0.0546748 0.00637955 0.44019
0.0558813 0.00658173 0.441471
0.0570907 0.00678457 0.442744
0.0583063 0.00698833 0.444033
0.059521 0.00719086 0.445276
0.0607399 0.00739432 0.446517
0.061967 0.00759965 0.4478
0.0631997 0.00780584 0.449094
0.0644466 0.00801578 0.450469
0.065693 0.00822568 0.451802
0.0669741 0.0084455 0.453387
0.0682384 0.00865871 0.454794
0.0695155 0.00887596 0.45627
0.0710172 0.00801839 0.4584
0.0707996 0.00909385 0.457759
-0.0316445 -0.00547737 0.417083
-0.0305721 -0.00535372 0.415854
-0.0294957 -0.00523666 0.414334
-0.0284095 -0.00513198 0.412254
-0.0273256 -0.00503213 0.409989
-0.0262526 -0.00493027 0.407869
-0.0251913 -0.0048248 0.405964
-0.024148 -0.00470774 0.40464
-0.0231133 -0.00458629 0.403544
-0.0220901 -0.00445493 0.402915
-0.0210714 -0.00432017 0.40245
-0.0200558 -0.00418307 0.402104
-0.0190429 -0.0040434 0.401877
-0.0180319 -0.00390074 0.401778
-0.0170177 -0.0037686 0.401239
-0.0160049 -0.00363809 0.400639
-0.0149936 -0.0035098 0.399956
-0.0139846 -0.00338262 0.399241
-0.0129781 -0.00325446 0.39858
-0.0119738 -0.00311749 0.398292
-0.0109702 -0.00297808 0.398111
-0.00996783 -0.00284258 0.397773
-0.00896611 -0.00270462 0.397538
-0.00796484 -0.00256552 0.397356
-0.00696495 -0.00242882 0.397084
-0.00596489 -0.00228953 0.396916
-0.00496228 -0.00214318 0.397017
-0.00395903 -0.00199614 0.397146
-0.0029542 -0.00184694 0.397352
-0.00194617 -0.00169351 0.397714
-0.000939126 -0.00154314 0.397955
6.84127e-05 -0.0013931 0.398182
0.00107919 -0.00123967 0.398524
0.00209042 -0.00108701 0.398837
0.0031041 -0.000932497 0.39921
0.0041186 -0.000778228 0.399565
0.00513548 -0.000622552 0.399965
0.00615238 -0.000467966 0.400322
0.00717812 -0.000306028 0.400923
0.00821206 -0.000138499 0.401708
0.00925688 3.65136e-05 0.402732
0.0103096 0.000215699 0.40388
0.0113622 0.000392347 0.404926
0.0124129 0.000565358 0.405837
0.0134609 0.000734783 0.406611
0.0145063 0.000900731 0.407265
0.0217509 0.00246408 0.428615
0.0227987 0.00261181 0.428511
0.0238489 0.0027611 0.428457
0.0248947 0.00290791 0.428329
0.0259366 0.00305287 0.428145
0.0269773 0.00319728 0.42795
0.0280291 0.00334795 0.427942
0.0290781 0.0034972 0.427893
0.0301355 0.00365077 0.427971
0.0311971 0.00380653 0.42811
0.0322549 0.00396009 0.428187
0.0333087 0.0041116 0.428203
0.0343698 0.00426677 0.428322
0.0354416 0.00442667 0.428576
0.036512 0.00458579 0.428802
0.0376016 0.0047534 0.429264
0.0386974 0.00492332 0.429784
0.0397906 0.00509166 0.430254
0.0408798 0.0052577 0.430654
0.0419744 0.0054258 0.431105
0.0430607 0.00558986 0.431441
0.0441431 0.005752 0.431722
0.0452305 0.00591589 0.432047
0.046319 0.00608 0.432373
0.0474314 0.00625353 0.432944
0.0485543 0.00643094 0.433608
0.0497055 0.00661893 0.434541
0.0508676 0.00681057 0.435554
0.0520508 0.00700944 0.436745
0.0532388 0.00720918 0.437944
0.0544257 0.0074077 0.439093
0.0556213 0.00760852 0.440296
0.0568276 0.00781284 0.441556
0.0580474 0.0080205 0.442901
0.059261 0.00822539 0.444152
0.0604854 0.00843308 0.44546
0.0617258 0.00864588 0.446878
0.0629718 0.00885926 0.4483
0.0642267 0.00907497 0.449755
0.0654806 0.00928996 0.451165
0.0667605 0.00951258 0.45275
0.0680224 0.00972786 0.454148
0.0692907 0.00994389 0.455555
0.0705645 0.0101613 0.456972
-0.0295724 -0.0042665 0.411761
-0.0284849 -0.0041699 0.409501
-0.0274084 -0.00407124 0.407377
-0.0263451 -0.00396757 0.405516
-0.0252948 -0.00385768 0.403962
-0.024261 -0.00373543 0.402974
-0.0232344 -0.00360866 0.402194
-0.0222177 -0.00347204 0.401842
-0.0212022 -0.00333559 0.401491
-0.0201901 -0.00319528 0.40131
-0.0191797 -0.00305305 0.401205
-0.0181701 -0.00290953 0.40116
-0.0171561 -0.00277968 0.400568
-0.0161436 -0.00265179 0.399909
-0.0151329 -0.00252642 0.39916
-0.0141246 -0.00240205 0.398387
-0.013119 -0.00227535 0.397723
-0.0121159 -0.00213743 0.397496
-0.0111134 -0.0019984 0.397316
-0.010112 -0.00186369 0.396978
-0.00911129 -0.00172622 0.396747
-0.00811096 -0.0015872 0.396578
-0.00711158 -0.00144935 0.396368
-0.00611138 -0.00130733 0.396314
-0.00510882 -0.00115913 0.396481
-0.0041048 -0.00100895 0.39672
-0.00309885 -0.000856239 0.39704
-0.0020902 -0.000700643 0.397458
-0.00108238 -0.000548277 0.397756
-7.39471e-05 -0.000396315 0.398035
0.000936743 -0.000242341 0.398379
0.00194784 -8.91713e-05 0.39869
0.00296023 6.45046e-05 0.399013
0.00397308 0.000217643 0.399313
0.00498806 0.000372181 0.399655
0.0060013 0.000524008 0.399903
0.00702292 0.000683185 0.400388
0.00805562 0.000851671 0.401163
0.00909922 0.001028 0.402178
0.0101509 0.00120893 0.403325
0.0112042 0.00138857 0.404413
0.0122584 0.00156653 0.405432
0.0133104 0.00174056 0.406317
0.0143609 0.00191177 0.4071
0.0226108 0.00363454 0.427659
0.0236667 0.00378781 0.427727
0.0247191 0.00393876 0.42773
0.0257642 0.00408567 0.427612
0.0268087 0.00423222 0.42749
0.0278603 0.00438287 0.427487
0.0289087 0.00453194 0.427437
0.0299651 0.00468534 0.427507
0.0310256 0.00484075 0.427637
0.0320785 0.0049922 0.427651
0.0331308 0.00514328 0.427657
0.0341873 0.00529641 0.42772
0.0352535 0.0054543 0.427911
0.0363176 0.00561103 0.428066
0.0374013 0.00577689 0.428465
0.0384908 0.00594526 0.428924
0.0395822 0.00611386 0.429386
0.0406758 0.00628294 0.429855
0.0417751 0.00645432 0.430374
0.0428707 0.00662344 0.430832
0.0439575 0.00678815 0.431171
0.0450453 0.00695315 0.43151
0.0461278 0.00711536 0.431778
0.0472278 0.00728487 0.432225
0.0483372 0.00745792 0.432757
0.0494799 0.00764434 0.433616
0.0506388 0.00783666 0.434611
0.0518202 0.00803726 0.4358
0.0530065 0.00823892 0.437
0.0541898 0.00843829 0.438127
0.0553702 0.00863553 0.439196
0.0565663 0.00883825 0.440382
0.0577772 0.00904547 0.441662
0.0589884 0.00925194 0.442911
0.0602175 0.00946417 0.444279
0.0614705 0.00968441 0.445825
0.0627238 0.00990387 0.447325
0.0639868 0.0101254 0.448867
0.0652547 0.0103475 0.450408
0.0665408 0.0105751 0.452059
0.067801 0.0107925 0.453448
0.0690662 0.0110104 0.454841
0.0703369 0.0112298 0.456244
0.0718604 0.0103855 0.458525
0.0716218 0.0114528 0.457721
0.0731204 0.0105967 0.459759
0.0728709 0.0116625 0.45888
-0.0296281 -0.00332088 0.408496
-0.0285529 -0.00322196 0.406517
-0.027498 -0.00311086 0.40508
-0.0264495 -0.00299884 0.40371
-0.0254115 -0.00288081 0.402607
-0.0243857 -0.00275288 0.401918
-0.0233646 -0.00262215 0.401357
-0.022348 -0.00248778 0.400948
-0.0213336 -0.00235217 0.400596
-0.0203228 -0.00221233 0.400415
-0.0193136 -0.00207027 0.400318
-0.0183059 -0.00192528 0.400335
-0.0172934 -0.00179521 0.399793
-0.0162821 -0.00166727 0.39918
-0.0152721 -0.00154393 0.398412
-0.0142646 -0.00142096 0.397643
-0.0132599 -0.0012954 0.396982
-0.0122577 -0.00115624 0.396817
-0.011256 -0.0010159 0.3967
-0.0102552 -0.000880121 0.396423
-0.00925488 -0.000741615 0.396246
-0.00825514 -0.000603008 0.396075
-0.00725627 -0.00046562 0.395866
-0.00625658 -0.000323466 0.39582
-0.00525463 -0.000175156 0.395988
-0.00425044 -2.26398e-05 0.396292
-0.00324349 0.000133738 0.39672
-0.00223426 0.000291914 0.397201
-0.00122552 0.000446586 0.397561
-0.00021715 0.000599171 0.397848
0.000792301 0.000752096 0.398139
0.00180301 0.000905628 0.398446
0.00281515 0.0010597 0.398767
0.0038278 0.00121347 0.399071
0.0048424 0.00136838 0.399407
0.0058551 0.00152007 0.399642
0.00687408 0.00167776 0.400055
0.00790255 0.00184369 0.400715
0.00894125 0.00201774 0.401612
0.00998997 0.00219853 0.4027
0.0110422 0.00237986 0.403789
0.0120979 0.00256143 0.404872
0.013154 0.00274106 0.405879
0.0142114 0.00291952 0.40684
0.015434 0.00209796 0.40833
0.0152598 0.00308902 0.407525
0.0224372 0.00466429 0.427066
0.0234962 0.00481993 0.427202
0.0245548 0.00497519 0.427324
0.0256002 0.00512211 0.427216
0.0266448 0.00526871 0.427103
0.027696 0.00541932 0.427099
0.0287441 0.00556819 0.427049
0.0297962 0.0057195 0.427063
0.0308559 0.00587492 0.427188
0.0319038 0.00602385 0.427138
0.0329509 0.0061724 0.42708
0.0340059 0.00632506 0.427132
0.0350667 0.00648087 0.427261
0.0361254 0.00663525 0.427355
0.0372066 0.00680104 0.427738
0.0382941 0.00696936 0.428182
0.0393799 0.00713643 0.428588
0.0404724 0.00730623 0.429059
0.0415758 0.00748077 0.429641
0.0426766 0.0076535 0.430172
0.0437678 0.00782105 0.430572
0.0448596 0.00798861 0.430964
0.0459409 0.00815107 0.431227
0.0470349 0.0083188 0.431618
0.048137 0.00848978 0.432081
0.0492715 0.00867438 0.432865
0.0504176 0.00886337 0.433744
0.051591 0.00906296 0.434866
0.0527682 0.00926327 0.435994
0.053944 0.00946186 0.437065
0.0551162 0.00965799 0.438071
0.0563101 0.00986221 0.439251
0.0575179 0.0100709 0.44052
0.0587325 0.0102814 0.441821
0.0599599 0.0104956 0.443187
0.0612176 0.0107207 0.444791
0.0624842 0.010948 0.446426
0.0637617 0.011178 0.448102
0.065037 0.0114061 0.449719
0.0663369 0.0116421 0.451493
0.0675955 0.0118613 0.452878
0.0688504 0.0120783 0.454201
0.070111 0.0122959 0.455528
0.0713849 0.0125182 0.456926
0.0726324 0.0127288 0.458084
-0.0286315 -0.00227219 0.403974
-0.0276046 -0.00213948 0.403485
-0.0265724 -0.00201461 0.402703
-0.0255433 -0.00188945 0.401946
-0.0245181 -0.00176291 0.401256
-0.0234964 -0.00163501 0.400627
-0.0224786 -0.00150475 0.400099
-0.0214643 -0.00137173 0.39968
-0.0204549 -0.00123214 0.399507
-0.019447 -0.00109036 0.399414
-0.0184413 -0.000943696 0.399497
-0.0174302 -0.000813232 0.399008
-0.0164203 -0.000684956 0.398448
-0.0154111 -0.000562713 0.397692
-0.0144049 -0.000437957 0.397033
-0.013401 -0.000311765 0.396434
-0.0123995 -0.00017112 0.396334
-0.0113983 -3.07644e-05 0.396226
-0.0103977 0.000107716 0.396057
-0.00939748 0.000247457 0.395933
-0.00839764 0.000387344 0.395817
-0.00739895 0.000524249 0.395602
-0.0063991 0.00066746 0.395597
-0.00539742 0.000816091 0.395765
-0.00439393 0.000967593 0.396023
-0.00338783 0.00112326 0.396409
-0.00237813 0.00128405 0.396948
-0.00136965 0.00143939 0.397309
-0.000361305 0.00159276 0.397605
0.000647879 0.00174605 0.397896
0.00165954 0.00190171 0.398254
0.00267117 0.00205612 0.398567
0.00368377 0.00221027 0.398871
0.0046967 0.00236403 0.399156
0.00570892 0.00251586 0.399383
0.0067239 0.0026701 0.399676
0.00774764 0.0028326 0.400208
0.00878357 0.00300599 0.401045
0.0098312 0.00318835 0.402131
0.010883 0.00337188 0.403233
0.0119423 0.00355927 0.404432
0.0130006 0.00374304 0.405512
0.0140581 0.0039236 0.406487
0.0151066 0.00409469 0.407188
0.0222643 0.00569277 0.426481
0.0233234 0.00584911 0.426631
0.0243819 0.00600487 0.426764
0.0254297 0.0061534 0.426708
0.0264767 0.00630164 0.426644
0.0275238 0.00644999 0.426584
0.0285749 0.00660092 0.426591
0.0296268 0.00675227 0.426608
0.0306825 0.0069059 0.426683
0.0317295 0.00705439 0.426627
0.0327753 0.00720229 0.426559
0.0338249 0.0073524 0.426545
0.034885 0.00750831 0.426676
0.035947 0.00766498 0.426824
0.0370231 0.00782883 0.427149
0.0381045 0.00799522 0.427528
0.0391924 0.00816436 0.427971
0.0402842 0.00833492 0.428446
0.0413878 0.00851085 0.429041
0.0424937 0.00868709 0.429639
0.0435896 0.00885797 0.430102
0.0446804 0.00902589 0.43049
0.0457605 0.00918836 0.430746
0.0468527 0.00935617 0.431124
0.0479484 0.00952529 0.431528
0.0490708 0.00970593 0.432195
0.0502083 0.00989265 0.432993
0.0513738 0.0100911 0.434049
0.0525445 0.0102909 0.435123
0.0537193 0.0104912 0.4362
0.0548957 0.0106913 0.437258
0.0560885 0.0108973 0.438442
0.0572933 0.0111074 0.439699
0.0585005 0.0113171 0.440937
0.0597248 0.0115331 0.442299
0.0609813 0.0117608 0.443905
0.0622468 0.0119907 0.445539
0.0635211 0.012223 0.447209
0.0648025 0.0124564 0.448885
0.0661013 0.0126953 0.450663
0.0673665 0.0129199 0.45212
0.0686211 0.013139 0.453445
0.0698793 0.0133585 0.454763
0.0711595 0.0135853 0.456223
0.0724223 0.0138047 0.457513
-0.0287508 -0.00128892 0.402945
-0.0277304 -0.00115171 0.402657
-0.0267048 -0.00102175 0.402109
-0.0256788 -0.000894909 0.401464
-0.0246549 -0.000768335 0.400817
-0.0236332 -0.000642295 0.400165
-0.0226136 -0.000516443 0.399517
-0.0215997 -0.000384644 0.399082
-0.0205917 -0.000243972 0.398959
-0.0195846 -0.000102131 0.398878
-0.0185792 4.3228e-05 0.398915
-0.0175687 0.000172932 0.398431
-0.0165595 0.00030043 0.397882
-0.0155506 0.000420403 0.397094
-0.0145453 0.00054613 0.396507
-0.0135422 0.000674826 0.396025
-0.0125413 0.000818556 0.396031
-0.0115403 0.000960559 0.395983
-0.0105397 0.00110067 0.395877
-0.00953923 0.00124219 0.395815
-0.00853932 0.00138201 0.395702
-0.00754053 0.00151836 0.395483
-0.00654076 0.00166117 0.395466
-0.00553973 0.00180809 0.395573
-0.0045372 0.001958 0.39577
-0.00353221 0.00211243 0.396099
-0.00252294 0.00227386 0.396634
-0.00151477 0.00242977 0.396998
-0.000505719 0.00258561 0.397352
0.000503198 0.00273931 0.397641
0.00151551 0.00289702 0.398041
0.00252698 0.0030517 0.398351
0.00353952 0.00320675 0.398666
0.00455116 0.00335943 0.398908
0.00556308 0.00351149 0.399132
0.00657423 0.00366195 0.399308
0.00759349 0.00382091 0.399718
0.00862645 0.00399329 0.400491
0.0096729 0.00417715 0.40157
0.0107261 0.0043646 0.402734
0.0117892 0.00455835 0.404053
0.0128519 0.00474854 0.405258
0.0139092 0.0049308 0.406237
0.0149571 0.00510282 0.406932
0.0220978 0.00672441 0.426012
0.0231565 0.00688099 0.426165
0.0242145 0.00703688 0.426299
0.0252616 0.0071851 0.42624
0.0263077 0.00733293 0.426169
0.0273535 0.00748065 0.426098
0.0284041 0.00763151 0.426105
0.0294559 0.00778304 0.426129
0.0305113 0.00793682 0.426208
0.0315579 0.00808517 0.426154
0.032603 0.00823285 0.426083
0.0336519 0.00838281 0.426069
0.0347114 0.00853876 0.426197
0.0357737 0.00869608 0.426357
0.0368495 0.00886069 0.426688
0.0379258 0.00902494 0.427008
0.0390079 0.00919206 0.427389
0.0400973 0.00936257 0.427844
0.0412005 0.00953959 0.428445
0.042306 0.00971703 0.429049
0.0434076 0.00989173 0.429587
0.0445027 0.0100627 0.430031
0.0455821 0.0102255 0.430287
0.0466733 0.0103937 0.43066
0.047768 0.0105631 0.431058
0.0488834 0.0107418 0.43166
0.0500133 0.0109267 0.432389
0.0511763 0.0111261 0.43343
0.0523449 0.0113268 0.434491
0.0535193 0.0115291 0.435573
0.0547018 0.011734 0.436703
0.0558994 0.0119446 0.437941
0.0570981 0.0121542 0.439146
0.0582971 0.0123629 0.44032
0.0595198 0.0125806 0.441673
0.0607674 0.0128077 0.443211
0.0620162 0.0130337 0.44471
0.0632875 0.0132678 0.446366
0.0645729 0.0135063 0.448093
0.0658711 0.0137484 0.449881
0.0671451 0.0139792 0.451416
0.0684072 0.0142038 0.45281
0.0696708 0.0144281 0.454186
0.0709578 0.0146604 0.45571
0.0722393 0.014889 0.457145
0.073631 0.0140026 0.458344
0.0734674 0.0150961 0.458134
-0.0288867 -0.000290748 0.402531
-0.0278682 -0.000152432 0.402299
-0.0268469 -1.85359e-05 0.401921
-0.0258219 0.00010865 0.401322
-0.0247965 0.0002322 0.400611
-0.0237724 0.00035347 0.399838
-0.0227517 0.000476119 0.399119
-0.0217366 0.000604121 0.39859
-0.0207299 0.000746145 0.398519
-0.0197227 0.000886238 0.39839
-0.0187171 0.00102966 0.398367
-0.0177077 0.00115995 0.397928
-0.0166998 0.00128977 0.397484
-0.0156913 0.00140917 0.396721
-0.0146868 0.00153787 0.396259
-0.0136841 0.00166939 0.395886
-0.0126831 0.00181312 0.395893
-0.0116821 0.00195515 0.395849
-0.0106814 0.00209698 0.3958
-0.00968072 0.00223875 0.39575
-0.00868061 0.00237873 0.395646
-0.00768134 0.00251666 0.395483
-0.00668172 0.00265778 0.395417
-0.00568177 0.00280089 0.39541
-0.0046795 0.00295048 0.395589
-0.00367571 0.00310268 0.395841
-0.00266858 0.00326084 0.396257
-0.00166012 0.00341903 0.39667
-0.000650365 0.00357735 0.397081
0.000357321 0.00373 0.397328
0.00136938 0.00388837 0.39773
0.00238154 0.00404525 0.398085
0.00339397 0.00420092 0.398404
0.00440564 0.00435432 0.398657
0.00541747 0.0045071 0.398889
