ply
format ascii 1.0
element vertex 1555
property float x
property float y
property float z
end_header
-0.00595014 -0.0889565 0.604393
-0.00529483 -0.0899954 0.605573
-0.0356426 -0.0443319 0.584732
-0.0350051 -0.0451273 0.584141
-0.034373 -0.0459302 0.583674
-0.0337309 -0.0467082 0.582883
-0.0330898 -0.0474834 0.582082
-0.0324566 -0.0482713 0.581469
-0.0318302 -0.0490724 0.581044
-0.0312048 -0.0498744 0.580644
-0.0305852 -0.0506892 0.580413
-0.0299705 -0.0515166 0.580336
-0.0293564 -0.052345 0.580267
-0.0287437 -0.0531785 0.580264
-0.0281335 -0.0540221 0.580375
-0.0275262 -0.0548766 0.580599
-0.0269142 -0.0557172 0.580664
-0.026303 -0.0565628 0.58078
-0.0256912 -0.0574074 0.580878
-0.0250785 -0.0582486 0.580934
-0.0244588 -0.0590587 0.580664
-0.0238404 -0.0598715 0.580424
-0.0232228 -0.0606859 0.580206
-0.0226028 -0.0614861 0.579851
-0.0219849 -0.0622928 0.579566
-0.0213722 -0.0631321 0.579606
-0.0207583 -0.0639665 0.579597
-0.0201425 -0.0647845 0.579431
-0.0195293 -0.0656243 0.579471
-0.0189153 -0.066459 0.579461
-0.0183022 -0.0673073 0.579576
-0.0176889 -0.0681573 0.579702
-0.0170761 -0.069026 0.579992
-0.0164634 -0.0698954 0.580275
-0.0158501 -0.0707788 0.580675
-0.0152354 -0.0716583 0.581033
-0.0146211 -0.0725603 0.581569
-0.0140049 -0.0734629 0.5821
-0.0133884 -0.0743554 0.582527
-0.0127701 -0.0752603 0.583051
-0.0121505 -0.0761683 0.583586
-0.01153 -0.0770797 0.584136
-0.0109083 -0.0780013 0.58475
-0.0102849 -0.0789296 0.585404
-0.00966029 -0.0798521 0.585999
-0.00903469 -0.0807599 0.586467
-0.00839091 -0.0820154 0.589581
-0.00773475 -0.0833836 0.593482
-0.00707105 -0.0847551 0.597327
-0.00639964 -0.0861349 0.601155
-0.00572463 -0.0874699 0.604574
-0.00508265 -0.0883407 0.604552
-0.00443737 -0.0892481 0.604792
-0.00464752 -0.0909184 0.605907
-0.00379206 -0.0901515 0.604997
-0.00398777 -0.0919623 0.607083
-0.00313824 -0.0911362 0.605769
-0.00332609 -0.093013 0.608279
-0.00247714 -0.0921661 0.606844
-0.0348364 -0.0437623 0.585439
-0.034185 -0.0445308 0.584446
-0.0335444 -0.0453157 0.583714
-0.032897 -0.0460812 0.582747
-0.032254 -0.0468498 0.581851
-0.0316214 -0.047638 0.58124
-0.0309958 -0.0484398 0.58082
-0.030371 -0.0492415 0.580417
-0.0297519 -0.0500556 0.580173
-0.0291369 -0.0508819 0.580087
-0.0285225 -0.0517095 0.580016
-0.0279106 -0.0525443 0.580028
-0.0273003 -0.0533877 0.580142
-0.0266927 -0.0542409 0.580358
-0.0260791 -0.0550753 0.580358
-0.025467 -0.0559149 0.58041
-0.0248568 -0.0567648 0.580571
-0.0242462 -0.0576168 0.58075
-0.0236295 -0.058439 0.580605
-0.023013 -0.0592626 0.580478
-0.0223975 -0.0600887 0.580376
-0.0217784 -0.0608948 0.580076
-0.0211595 -0.0616973 0.579746
-0.0205462 -0.0625364 0.579782
-0.0199321 -0.0633711 0.579774
-0.0193165 -0.06419 0.579609
-0.0187035 -0.0650367 0.579713
-0.0180901 -0.0658833 0.579812
-0.0174765 -0.0667328 0.579934
-0.0168626 -0.0675891 0.580116
-0.0162496 -0.0684635 0.580453
-0.0156354 -0.0693275 0.580686
-0.0150207 -0.0702047 0.58103
-0.0144052 -0.0710783 0.581334
-0.0137894 -0.0719647 0.581736
-0.0131719 -0.0728527 0.582145
-0.0125543 -0.0737362 0.582502
-0.0119356 -0.0746284 0.582923
-0.0113154 -0.0755352 0.583454
-0.0106942 -0.0764456 0.583999
-0.0100712 -0.0773717 0.584659
-0.00944595 -0.0783142 0.585433
-0.00881892 -0.0792674 0.586273
-0.00819058 -0.0802165 0.587061
-0.0075395 -0.081503 0.590434
-0.00688144 -0.0828033 0.593837
-0.00621409 -0.0841444 0.597478
-0.00554489 -0.0854296 0.600624
-0.00487318 -0.0866703 0.603379
-0.00422981 -0.0875725 0.603596
-0.00358264 -0.0885023 0.604009
-0.00293739 -0.0894059 0.604224
-0.00228782 -0.0903436 0.604677
-0.00163139 -0.0913317 0.605474
-0.0340253 -0.0431854 0.586061
-0.0333665 -0.0439391 0.584832
-0.0327183 -0.0447073 0.583847
-0.0320656 -0.0454601 0.582692
-0.0314237 -0.0462288 0.58178
-0.0307903 -0.0470135 0.581116
-0.0301638 -0.0478116 0.580647
-0.0295397 -0.0486132 0.580235
-0.0289187 -0.0494216 0.579924
-0.0283024 -0.0502425 0.579773
-0.027687 -0.051066 0.579659
-0.0270764 -0.0519052 0.579731
-0.0264665 -0.0527493 0.579858
-0.0258585 -0.0536018 0.580075
-0.0252455 -0.0544358 0.58007
-0.024633 -0.0552741 0.580116
-0.0240227 -0.0561237 0.58028
-0.0234121 -0.0569755 0.580463
-0.0227963 -0.0577989 0.58033
-0.0221809 -0.0586271 0.580255
-0.0215657 -0.0594576 0.580205
-0.020947 -0.0602593 0.579854
-0.0203289 -0.0610621 0.579524
-0.0197154 -0.0619004 0.579558
-0.019101 -0.0627344 0.579547
-0.0184857 -0.0635543 0.579395
-0.0178736 -0.064411 0.579598
-0.017261 -0.0652703 0.579819
-0.0166475 -0.0661261 0.580001
-0.016034 -0.0669944 0.580293
-0.0154202 -0.0678751 0.58069
-0.0148056 -0.0687402 0.58093
-0.0141899 -0.069618 0.581281
-0.0135736 -0.0704969 0.58163
-0.0129565 -0.0713702 0.58192
-0.012339 -0.0722511 0.582265
-0.0117201 -0.0731265 0.582557
-0.0111005 -0.0740104 0.582913
-0.01048 -0.0749092 0.583379
-0.00985817 -0.0758177 0.583914
-0.00923344 -0.0767501 0.584633
-0.00860613 -0.0777145 0.585589
-0.00797573 -0.0787068 0.586741
-0.00734195 -0.0797049 0.587917
-0.00668869 -0.0809476 0.590965
-0.00602998 -0.0821834 0.593895
-0.00536402 -0.0834495 0.59699
-0.00469772 -0.0846536 0.599556
-0.00403111 -0.0858162 0.601759
-0.0033871 -0.0867285 0.60207
-0.00273853 -0.0876719 0.602602
-0.00209499 -0.0885727 0.60281
-0.00144897 -0.089482 0.603077
-0.000795855 -0.0904468 0.603729
-0.000969268 -0.0923539 0.606491
-0.000136393 -0.0914442 0.604599
-0.000304475 -0.0933784 0.607508
0.000525941 -0.0924553 0.605543
-0.0338774 -0.0418571 0.588044
-0.033217 -0.0426159 0.586809
-0.0325539 -0.0433618 0.585439
-0.0318994 -0.044117 0.584247
-0.0312429 -0.0448587 0.582908
-0.0305979 -0.0456192 0.581871
-0.0299606 -0.0463928 0.581047
-0.0293312 -0.0471825 0.580465
-0.0287063 -0.0479798 0.579994
-0.028084 -0.048783 0.579617
-0.0274672 -0.0495997 0.579415
-0.0268521 -0.0504228 0.5793
-0.0262432 -0.0512665 0.57943
-0.0256347 -0.0521151 0.579616
-0.0250267 -0.0529679 0.579842
-0.0244144 -0.0538064 0.579896
-0.0238031 -0.0546492 0.579993
-0.0231923 -0.0554982 0.580156
-0.0225805 -0.0563447 0.580285
-0.0219643 -0.0571669 0.580144
-0.0213483 -0.0579894 0.580009
-0.0207331 -0.0588145 0.579901
-0.0201138 -0.0596104 0.579494
-0.0194966 -0.0604126 0.579157
-0.0188834 -0.0612506 0.579191
-0.0182693 -0.0620836 0.579174
-0.0176541 -0.0629024 0.579017
-0.0170423 -0.0637655 0.579289
-0.0164301 -0.0646312 0.579578
-0.0158168 -0.0654937 0.579827
-0.0152036 -0.0663744 0.580239
-0.0145896 -0.0672673 0.580752
-0.0139747 -0.0681398 0.581059
-0.0133585 -0.0690238 0.581467
-0.012741 -0.0699086 0.581871
-0.0121234 -0.0707764 0.582112
-0.011505 -0.0716513 0.582405
-0.0108857 -0.0725196 0.582638
-0.0102659 -0.0733949 0.58292
-0.00964439 -0.0742852 0.583323
-0.00902138 -0.0751998 0.583913
-0.00839577 -0.0761403 0.5847
-0.00776544 -0.0771271 0.585844
-0.00713152 -0.0781368 0.587144
-0.00649346 -0.0791607 0.588529
-0.00584079 -0.0803359 0.591065
-0.00518414 -0.0814997 0.593459
-0.00452245 -0.0826745 0.595885
-0.00385949 -0.0838187 0.598027
-0.00319684 -0.0849247 0.599838
-0.00255117 -0.085862 0.600355
-0.00190176 -0.0868199 0.601013
-0.00125785 -0.0877256 0.601277
-0.000614645 -0.088624 0.60148
3.62831e-05 -0.0895699 0.602019
0.000693375 -0.0905533 0.602811
0.00135463 -0.0915578 0.603732
0.00118702 -0.0934444 0.606318
0.0020161 -0.0925511 0.604558
-0.0345367 -0.0410886 0.589181
-0.0343623 -0.039698 0.590405
-0.0337154 -0.0404955 0.589655
-0.0330579 -0.0412679 0.588556
-0.0323974 -0.0420268 0.587295
-0.0317347 -0.042772 0.585878
-0.031076 -0.0435165 0.584502
-0.0304167 -0.0442506 0.583038
-0.0297696 -0.0450038 0.58188
-0.0291296 -0.0457687 0.58093
-0.0284979 -0.0465499 0.580227
-0.027871 -0.0473389 0.579643
-0.0272494 -0.0481416 0.579262
-0.0266328 -0.048958 0.579061
-0.0260186 -0.0497811 0.578946
-0.0254092 -0.0506234 0.579071
-0.0248019 -0.0514756 0.579306
-0.0241938 -0.0523286 0.579543
-0.0235819 -0.0531677 0.57961
-0.0229708 -0.0540108 0.579714
-0.0223595 -0.0548585 0.579871
-0.0217478 -0.0557036 0.579988
-0.0211314 -0.0565201 0.579783
-0.0205151 -0.0573407 0.579635
-0.0198996 -0.0581597 0.579467
-0.0192813 -0.0589555 0.579059
-0.0186647 -0.0597572 0.57872
-0.0180512 -0.060593 0.578741
-0.0174376 -0.0614207 0.578673
-0.0168234 -0.0622442 0.578566
-0.0162117 -0.0631075 0.578849
-0.015599 -0.063973 0.579146
-0.0149858 -0.0648419 0.579466
-0.0143725 -0.0657344 0.579997
-0.0137587 -0.0666399 0.580631
-0.013143 -0.0675189 0.581007
-0.0125258 -0.0684092 0.581477
-0.0119084 -0.0693006 0.581938
-0.0112896 -0.070175 0.582241
-0.0106703 -0.0710436 0.582484
-0.0100507 -0.0719116 0.582712
-0.00943059 -0.0727858 0.582985
-0.00880851 -0.0736758 0.583387
-0.00818363 -0.0745982 0.584048
-0.00755552 -0.0755531 0.58496
-0.00692241 -0.0765485 0.586181
-0.00628514 -0.0775712 0.587592
-0.00564365 -0.0786092 0.589094
-0.00499353 -0.0797089 0.59105
-0.00434167 -0.0807958 0.592859
-0.00368389 -0.0819018 0.59478
-0.00302604 -0.0829814 0.596456
-0.00237005 -0.0840243 0.597817
-0.00172215 -0.0849831 0.598521
-0.00107117 -0.0859537 0.599298
-0.000427495 -0.0868646 0.599618
0.000216167 -0.0877694 0.599887
0.000867308 -0.0887217 0.600489
0.00152261 -0.0896946 0.601226
0.00218394 -0.0906934 0.602131
0.00284744 -0.0916973 0.603053
0.00267424 -0.0935125 0.60515
0.00350656 -0.0926672 0.603721
-0.034168 -0.0382682 0.591072
-0.0335256 -0.0390776 0.590479
-0.0328842 -0.0398852 0.589878
-0.0322308 -0.0406647 0.588862
-0.0315735 -0.0414301 0.587679
-0.0309131 -0.0421789 0.586283
-0.0302514 -0.0429154 0.584765
-0.0295925 -0.0436475 0.583242
-0.0289424 -0.0443925 0.581957
-0.028299 -0.045145 0.580816
-0.0276655 -0.0459177 0.579987
-0.027037 -0.046701 0.579333
-0.0264155 -0.0475006 0.578906
-0.0257995 -0.048317 0.578708
-0.025185 -0.0491393 0.578593
-0.0245758 -0.0499808 0.578713
-0.0239683 -0.0508321 0.578945
-0.02336 -0.0516842 0.579182
-0.0227487 -0.0525234 0.579252
-0.0221384 -0.0533708 0.579414
-0.0215273 -0.0542183 0.579573
-0.0209152 -0.0550626 0.579689
-0.0202989 -0.0558776 0.579472
-0.0196837 -0.0566983 0.579322
-0.019067 -0.0575065 0.579042
-0.0184493 -0.0583012 0.578626
-0.0178332 -0.0591023 0.578284
-0.01722 -0.0599287 0.57821
-0.0166065 -0.0607552 0.578139
-0.0159931 -0.0615829 0.57808
-0.0153807 -0.0624392 0.578304
-0.0147682 -0.0632985 0.57855
-0.0141556 -0.0641774 0.578973
-0.0135417 -0.065069 0.57951
-0.0129271 -0.0659807 0.580216
-0.0123109 -0.0668718 0.580712
-0.0116934 -0.0677743 0.5813
-0.0110749 -0.0686772 0.581873
-0.0104557 -0.0695643 0.58229
-0.00983563 -0.0704334 0.582539
-0.0092158 -0.0713076 0.58282
-0.00859431 -0.0721879 0.583149
-0.00797092 -0.0730787 0.583561
-0.00734481 -0.0740094 0.584292
-0.00671387 -0.0749791 0.585331
-0.00607825 -0.0759745 0.58656
-0.00543859 -0.0769945 0.587957
-0.00479515 -0.0780267 0.589419
-0.00414857 -0.0790637 0.590887
-0.00350074 -0.0800918 0.59225
-0.00284681 -0.0811441 0.593776
-0.00219364 -0.0821734 0.595087
-0.00154263 -0.0831681 0.596107
-0.000893572 -0.0841386 0.596921
-0.000243199 -0.0851069 0.5977
0.000402234 -0.0860308 0.598137
0.00104756 -0.0869503 0.59853
0.00169992 -0.0879096 0.599202
0.00235531 -0.0888816 0.599949
0.00301661 -0.0898764 0.600845
0.00367997 -0.0908777 0.601766
0.00433999 -0.0918533 0.602489
0.00415125 -0.0935515 0.603787
0.00498948 -0.0927633 0.602747
0.00478763 -0.0943909 0.603545
0.00563071 -0.0936319 0.602713
0.00545485 -0.0953897 0.604382
0.00627004 -0.0944885 0.6026
-0.033327 -0.0376412 0.591058
-0.0326888 -0.0384575 0.590564
-0.0320515 -0.0392729 0.590078
-0.0314029 -0.0400621 0.589197
-0.0307478 -0.040831 0.588037
-0.0300905 -0.0415856 0.586702
-0.0294298 -0.0423237 0.58518
-0.0287695 -0.0430503 0.583544
-0.0281167 -0.0437847 0.582078
-0.0274694 -0.0445248 0.580753
-0.0268337 -0.0452886 0.579794
-0.0262044 -0.0460644 0.579027
-0.0255819 -0.0468596 0.578545
-0.0249664 -0.0476756 0.578345
-0.0243532 -0.0484988 0.57824
-0.0237437 -0.0493395 0.578359
-0.0231361 -0.0501899 0.57859
-0.0225272 -0.0510403 0.578815
-0.0219157 -0.0518781 0.578877
-0.0213059 -0.0527255 0.579044
-0.0206941 -0.0535679 0.579151
-0.0200824 -0.0544123 0.579276
-0.0194667 -0.0552273 0.579063
-0.0188519 -0.056048 0.578918
-0.0182355 -0.0568558 0.578639
-0.0176192 -0.0576509 0.578223
-0.0170033 -0.0584463 0.577826
-0.0163894 -0.0592666 0.577698
-0.0157761 -0.0600872 0.577572
-0.0151635 -0.0609093 0.577459
-0.0145511 -0.0617631 0.577671
-0.0139385 -0.06262 0.577904
-0.0133259 -0.063502 0.578371
-0.0127124 -0.064398 0.578957
-0.0120971 -0.0653203 0.579778
-0.0114803 -0.0662229 0.580393
-0.0108618 -0.0671437 0.581158
-0.010242 -0.0680529 0.581797
-0.00962165 -0.0689458 0.582271
-0.00900145 -0.0698215 0.582579
-0.00837978 -0.070702 0.582921
-0.00775698 -0.0715898 0.583317
-0.00713227 -0.072495 0.583851
-0.00650372 -0.0734326 0.584645
-0.00587096 -0.0744028 0.585692
-0.005234 -0.0753894 0.586853
-0.00459421 -0.0763858 0.588066
-0.00395309 -0.0773781 0.589214
-0.00330804 -0.0783807 0.590423
-0.00266327 -0.0793675 0.591476
-0.00201375 -0.0803796 0.5927
-0.00136306 -0.0813813 0.593819
-0.000713207 -0.0823642 0.594769
-6.6259e-05 -0.0833171 0.59547
0.00058314 -0.084274 0.596189
0.00122826 -0.0852033 0.596679
0.00187276 -0.0861212 0.597078
0.00252538 -0.0870795 0.597763
0.00318276 -0.0880583 0.598581
0.00384371 -0.0890503 0.599476
0.00450803 -0.0900549 0.600439
0.00516958 -0.0910357 0.601217
0.00582155 -0.0919632 0.601607
0.00646768 -0.0928577 0.601764
0.00711394 -0.0937519 0.601913
0.00690818 -0.0953436 0.602473
0.00775641 -0.0946263 0.601925
0.00757999 -0.096356 0.603396
0.00839588 -0.0954864 0.60184
-0.0324891 -0.0370194 0.591125
-0.031853 -0.0378399 0.590696
-0.0312174 -0.0386587 0.590253
-0.0305713 -0.0394529 0.589439
-0.0299197 -0.0402279 0.588344
-0.029263 -0.0409839 0.587012
-0.0286047 -0.0417242 0.585485
-0.0279437 -0.0424476 0.583777
-0.0272884 -0.0431716 0.582135
-0.0266403 -0.0439048 0.580687
-0.0260031 -0.0446608 0.579608
-0.0253722 -0.0454286 0.578726
-0.0247497 -0.0462196 0.578186
-0.0241345 -0.0470353 0.577986
-0.0235222 -0.0478618 0.577931
-0.022913 -0.048703 0.578063
-0.0223052 -0.0495529 0.578296
-0.0216965 -0.0504026 0.578516
-0.0210849 -0.0512389 0.578566
-0.0204737 -0.0520802 0.578671
-0.0198617 -0.0529181 0.578731
-0.0192502 -0.0537621 0.578857
-0.018635 -0.0545772 0.57865
-0.0180202 -0.0553936 0.578462
-0.0174045 -0.0561972 0.578137
-0.016789 -0.0569961 0.577769
-0.0161743 -0.0577958 0.577419
-0.0155615 -0.058621 0.577344
-0.0149486 -0.0594416 0.577222
-0.0143358 -0.0602622 0.577101
-0.0137236 -0.0611091 0.577248
-0.013111 -0.0619535 0.577364
-0.0124979 -0.062828 0.57777
-0.0118837 -0.0637333 0.578461
-0.0112674 -0.0646664 0.579399
-0.0106495 -0.0655868 0.580192
-0.0100296 -0.0665205 0.581086
-0.00940864 -0.067436 0.581789
-0.00878726 -0.0683286 0.582267
-0.00816623 -0.0692101 0.582628
-0.00754349 -0.0700979 0.583037
-0.00691894 -0.0710002 0.58356
-0.00629145 -0.0719198 0.584222
-0.00566097 -0.0728634 0.585069
-0.00502605 -0.0738315 0.586103
-0.0043894 -0.074796 0.587085
-0.00375135 -0.0757631 0.588059
-0.00311282 -0.0767174 0.588908
-0.00247109 -0.0776811 0.589815
-0.0018308 -0.078628 0.590563
-0.00118443 -0.0796066 0.591545
-0.000535385 -0.0805892 0.592537
0.000113237 -0.0815609 0.593421
0.000759351 -0.0825101 0.594111
0.00140684 -0.0834568 0.594769
0.00205331 -0.0843901 0.595313
0.00269666 -0.0853048 0.595702
0.00335055 -0.0862688 0.596448
0.00400909 -0.0872532 0.597325
0.00467178 -0.0882505 0.598277
0.00533644 -0.0892521 0.599238
0.00599917 -0.0902366 0.600058
0.00665268 -0.0911709 0.600511
0.00730244 -0.0920846 0.600811
0.00795493 -0.0930066 0.601162
0.00860301 -0.093908 0.601365
0.00924988 -0.0948035 0.601521
0.00907832 -0.096537 0.60302
0.00989245 -0.0956763 0.601525
-0.0310167 -0.0372219 0.590829
-0.0303821 -0.0380428 0.590411
-0.0297398 -0.0388441 0.589689
-0.0290906 -0.0396243 0.58866
-0.028434 -0.0403784 0.587267
-0.0277738 -0.0411124 0.585618
-0.0271136 -0.0418332 0.583839
-0.0264585 -0.0425543 0.582132
-0.0258111 -0.043285 0.580627
-0.0251741 -0.0440379 0.579489
-0.0245431 -0.0448021 0.578548
-0.02392 -0.0455884 0.577938
-0.0233052 -0.0464037 0.577736
-0.0226931 -0.0472302 0.577685
-0.0220841 -0.0480719 0.577828
-0.0214761 -0.0489215 0.578064
-0.0208672 -0.0497703 0.57828
-0.0202549 -0.0506019 0.578275
-0.019643 -0.0514377 0.578321
-0.0190311 -0.0522744 0.578373
-0.0184194 -0.0531167 0.578486
-0.0178046 -0.0539314 0.578278
-0.0171903 -0.0547478 0.578094
-0.0165754 -0.0555515 0.577772
-0.015961 -0.0563551 0.577456
-0.0153471 -0.0571601 0.577163
-0.0147348 -0.0579902 0.577144
-0.0141222 -0.0588161 0.577079
-0.0135096 -0.0596415 0.577008
-0.0128971 -0.0604828 0.5771
-0.0122843 -0.0613262 0.57721
-0.0116709 -0.0621951 0.577566
-0.0110558 -0.0630951 0.578215
-0.0104383 -0.064028 0.579163
-0.00981916 -0.0649547 0.580026
-0.00919788 -0.0658886 0.580933
-0.00857557 -0.06681 0.581699
-0.00795337 -0.067708 0.582229
-0.00733095 -0.0685943 0.58264
-0.00670648 -0.0694946 0.583163
-0.00607947 -0.0704115 0.583819
-0.00545011 -0.0713393 0.584553
-0.00481772 -0.072283 0.585405
-0.00418198 -0.0732417 0.586365
-0.00354668 -0.074183 0.587153
-0.00290963 -0.075127 0.587945
-0.00227277 -0.0760585 0.588614
-0.00163362 -0.0769989 0.589339
-0.000995924 -0.0779204 0.589896
-0.000352228 -0.0788727 0.590684
0.000292233 -0.0798218 0.591428
0.000936981 -0.080768 0.59213
0.00158057 -0.0816994 0.592704
0.00222477 -0.0826278 0.593241
0.00286887 -0.0835497 0.593718
0.00351243 -0.0844677 0.594152
0.00416724 -0.0854362 0.594953
0.00482715 -0.0864255 0.595886
0.00548979 -0.087421 0.596844
0.00615625 -0.0884255 0.597849
0.00681894 -0.0894066 0.598665
0.00747499 -0.0903552 0.599233
0.00813069 -0.0912938 0.599724
0.00878913 -0.0922426 0.600272
0.00944336 -0.0931711 0.600669
0.0100983 -0.0941 0.60106
0.0107473 -0.0950008 0.601255
-0.0308159 -0.035783 0.591413
-0.0301834 -0.0366109 0.59109
-0.0295506 -0.0374362 0.590732
-0.0289116 -0.0382449 0.590113
-0.0282631 -0.0390266 0.589082
-0.0276064 -0.0397787 0.587625
-0.0269462 -0.0405104 0.585909
-0.0262854 -0.0412253 0.584007
-0.025631 -0.0419443 0.582239
-0.0249842 -0.0426732 0.580682
-0.0243475 -0.0434235 0.57949
-0.0237175 -0.0441883 0.578544
-0.0230941 -0.0449708 0.577874
-0.0224776 -0.045778 0.577559
-0.0218656 -0.0466039 0.577503
-0.0212564 -0.0474451 0.577644
-0.0206482 -0.0482951 0.577892
-0.0200391 -0.0491439 0.578113
-0.0194274 -0.0499792 0.578158
-0.0188148 -0.0508101 0.578146
-0.0182023 -0.0516415 0.578137
-0.01759 -0.0524779 0.578187
-0.0169756 -0.0532913 0.577966
-0.0163613 -0.0541018 0.577716
-0.0157473 -0.0549098 0.577444
-0.0151337 -0.0557187 0.577189
-0.0145207 -0.05653 0.576965
-0.0139085 -0.057367 0.577021
-0.0132961 -0.0581993 0.577025
-0.0126835 -0.0590252 0.57696
-0.0120709 -0.0598606 0.576992
-0.0114579 -0.0607035 0.577098
-0.010844 -0.0615665 0.577401
-0.0102283 -0.0624607 0.578002
-0.0096098 -0.063387 0.578898
-0.00898932 -0.0643183 0.579816
-0.00836687 -0.0652508 0.580721
-0.00774315 -0.0661778 0.581549
-0.00711974 -0.0670801 0.582127
-0.00649568 -0.0679777 0.582644
-0.00586914 -0.0688901 0.583283
-0.00523943 -0.069821 0.584068
-0.00460769 -0.0707574 0.58488
-0.00397363 -0.0717009 0.585734
-0.00333724 -0.0726501 0.586615
-0.00270261 -0.0735755 0.587273
-0.0020672 -0.0744972 0.587882
-0.00143254 -0.0754066 0.588375
-0.000796033 -0.0763231 0.588912
-0.000161635 -0.0772197 0.589274
0.000477105 -0.0781388 0.589808
0.00111634 -0.0790552 0.590307
0.00175704 -0.0799748 0.59082
0.0023972 -0.080887 0.591262
0.00303644 -0.08179 0.591624
0.00367773 -0.0827006 0.592033
0.00432045 -0.083615 0.592462
0.00497459 -0.0845805 0.593262
0.00563613 -0.0855749 0.594257
0.00630056 -0.0865757 0.595278
0.00696661 -0.0875768 0.59628
0.00763045 -0.0885627 0.597151
0.00829038 -0.0895232 0.597827
0.0089491 -0.0904788 0.598449
0.00961199 -0.0914456 0.599138
0.010273 -0.0923983 0.599718
0.0109367 -0.0933616 0.600354
0.0115944 -0.0942978 0.600796
0.0114073 -0.0959451 0.601734
0.0122648 -0.0952782 0.601524
-0.029351 -0.0360026 0.591407
-0.0287193 -0.036831 0.59109
-0.028082 -0.0376447 0.590536
-0.0274347 -0.0384286 0.589516
-0.0267776 -0.0391784 0.587986
-0.0261167 -0.0399043 0.586146
-0.0254554 -0.0406138 0.584124
-0.024802 -0.0413309 0.5823
-0.0241572 -0.0420616 0.580744
-0.0235211 -0.0428101 0.579509
-0.022893 -0.0435791 0.578607
-0.022271 -0.044366 0.577989
-0.0216539 -0.0451695 0.577617
-0.0210425 -0.0459993 0.577609
-0.0204335 -0.0468444 0.577802
-0.019824 -0.0476902 0.577995
-0.0192138 -0.0485349 0.578165
-0.0186017 -0.0493699 0.578207
-0.017988 -0.0501921 0.578086
-0.0173745 -0.0510144 0.577967
-0.0167617 -0.0518454 0.577955
-0.0161474 -0.0526534 0.577672
-0.0155333 -0.0534586 0.577362
-0.0149198 -0.0542662 0.577089
-0.0143069 -0.0550757 0.576841
-0.0136944 -0.0558928 0.576685
-0.0130824 -0.0567363 0.576817
-0.01247 -0.0575743 0.576885
-0.0118575 -0.0584061 0.576882
-0.0112446 -0.0592465 0.576967
-0.0106313 -0.0600892 0.577073
-0.0100172 -0.0609456 0.577312
-0.00940056 -0.0618379 0.577902
-0.00878166 -0.0627502 0.578669
-0.00816011 -0.0636781 0.579567
-0.00753666 -0.0646088 0.580466
-0.0069114 -0.0655403 0.581347
-0.00628707 -0.0664439 0.581945
-0.00566048 -0.0673587 0.582629
-0.00503214 -0.0682777 0.583333
-0.00439958 -0.0692216 0.584241
-0.00376551 -0.0701648 0.585119
-0.00312986 -0.071108 0.585975
-0.00249377 -0.0720432 0.586739
-0.00186009 -0.0729532 0.587269
-0.00122701 -0.0738528 0.587696
-0.000595199 -0.0747405 0.588012
3.8134e-05 -0.0756333 0.588361
0.000668545 -0.0765057 0.588535
0.00130307 -0.0773991 0.588874
0.00193793 -0.0782904 0.589186
0.00257482 -0.0791899 0.589556
0.00321105 -0.0800826 0.589861
0.0038475 -0.0809737 0.590148
0.0044847 -0.0818661 0.590436
0.00512511 -0.0827708 0.590812
0.00577714 -0.0837255 0.591554
0.00643876 -0.0847182 0.59256
0.00710304 -0.0857157 0.593581
0.00777079 -0.0867216 0.594643
0.00843602 -0.0877107 0.59556
0.00909735 -0.0886783 0.596304
0.00976045 -0.0896485 0.597051
0.0104276 -0.0906311 0.597869
0.0110929 -0.0916014 0.598584
0.0117636 -0.0925883 0.5994
0.012431 -0.0935592 0.60009
0.0131071 -0.0945582 0.600955
-0.0285223 -0.0354039 0.591911
-0.0278887 -0.0362297 0.591531
-0.0272521 -0.0370457 0.590997
-0.0266064 -0.0378334 0.59001
-0.0259482 -0.0385782 0.588364
-0.0252865 -0.0392986 0.586397
-0.0246263 -0.0400063 0.584311
-0.0239737 -0.0407209 0.582416
-0.0233297 -0.0414496 0.580805
-0.0226951 -0.0421997 0.579572
-0.022069 -0.0429739 0.578732
-0.0214486 -0.0437662 0.578177
-0.0208309 -0.0445664 0.577752
-0.0202198 -0.0454001 0.577794
-0.0196101 -0.0462446 0.577978
-0.019 -0.0470907 0.578175
-0.0183892 -0.0479355 0.578344
-0.0177768 -0.0487703 0.57838
-0.0171624 -0.0495878 0.578196
-0.0165485 -0.0504053 0.578016
-0.0159349 -0.0512273 0.577895
-0.0153203 -0.0520264 0.577503
-0.0147065 -0.0528267 0.577135
-0.0140933 -0.0536296 0.576807
-0.0134808 -0.0544391 0.576562
-0.0128687 -0.0552616 0.576467
-0.0122566 -0.0561095 0.576652
-0.011644 -0.0569575 0.57683
-0.011031 -0.0577997 0.57694
-0.0104178 -0.0586409 0.577035
-0.00980425 -0.0594837 0.57714
-0.00918992 -0.0603336 0.577313
-0.00857361 -0.0612071 0.57772
-0.00795506 -0.0620995 0.578299
-0.00733316 -0.0630179 0.579117
-0.0067093 -0.063941 0.579958
-0.00608253 -0.0648783 0.58091
-0.0054563 -0.0657938 0.58163
-0.00482667 -0.0667272 0.582497
-0.00419568 -0.0676587 0.583324
-0.00356082 -0.0686088 0.584296
-0.00292527 -0.0695512 0.585175
-0.00228833 -0.070493 0.586025
-0.00165313 -0.0714142 0.586672
-0.00102079 -0.07231 0.587085
-0.00038969 -0.0731946 0.587389
0.000239939 -0.0740666 0.587579
0.000869545 -0.0749369 0.587748
0.00149686 -0.075793 0.587795
0.00212701 -0.0766631 0.587954
0.00275692 -0.0775292 0.588076
0.00338861 -0.0784038 0.588262
0.00402063 -0.079278 0.588438
0.00465434 -0.0801581 0.588656
0.00528878 -0.0810402 0.588883
0.00592966 -0.0819485 0.589304
0.00658293 -0.0829076 0.5901
0.00724631 -0.0839043 0.59116
0.00791071 -0.0848987 0.59218
0.00858044 -0.085909 0.593294
0.0092477 -0.0869032 0.594268
0.0099112 -0.0878772 0.595077
0.0105766 -0.0888545 0.595891
0.0112486 -0.089852 0.596832
0.0119186 -0.0908373 0.597667
0.0125923 -0.0918321 0.598552
0.0132631 -0.0928124 0.599319
0.0139428 -0.0938202 0.600256
0.0137938 -0.0955909 0.602029
0.0146307 -0.0948519 0.601337
-0.027076 -0.0356737 0.592797
-0.026434 -0.0364798 0.592051
-0.0257871 -0.0372665 0.591007
-0.0251208 -0.0379869 0.588905
-0.0244602 -0.038707 0.586889
-0.0238018 -0.0394165 0.584788
-0.0231508 -0.040132 0.582866
-0.0225073 -0.0408585 0.581187
-0.0218722 -0.0416034 0.57985
-0.0212484 -0.0423866 0.579124
-0.0206291 -0.0431846 0.578634
-0.0200115 -0.0439869 0.578224
-0.0194003 -0.0448253 0.578324
-0.0187891 -0.0456665 0.578455
-0.0181777 -0.0465089 0.578596
-0.0175657 -0.0473496 0.578706
-0.0169521 -0.0481798 0.578677
-0.0163372 -0.048993 0.578431
-0.0157228 -0.049806 0.578189
-0.0151088 -0.0506233 0.578005
-0.0144943 -0.0514178 0.577551
-0.0138806 -0.0522138 0.577127
-0.0132677 -0.0530124 0.576745
-0.0126554 -0.0538214 0.576493
-0.0120434 -0.0546381 0.576333
-0.0114312 -0.0554799 0.576453
-0.0108184 -0.0563274 0.576631
-0.0102053 -0.0571697 0.576746
-0.00959217 -0.0580072 0.576804
-0.00897852 -0.0588495 0.576909
-0.00836408 -0.0596978 0.577072
-0.00774874 -0.0605529 0.577297
-0.00713087 -0.0614314 0.577749
-0.00650887 -0.0623418 0.578503
-0.00588446 -0.0632627 0.579338
-0.00525592 -0.064206 0.580365
-0.00462612 -0.0651447 0.58132
-0.00399283 -0.0660971 0.582378
-0.00335883 -0.0670411 0.583329
-0.00272247 -0.0679903 0.584302
-0.00208585 -0.0689303 0.585166
-0.0014488 -0.0698642 0.585953
-0.000814747 -0.0707717 0.586487
-0.000183124 -0.0716598 0.586837
0.00044691 -0.0725355 0.587071
0.00107383 -0.0733922 0.587135
0.00170072 -0.0742481 0.58719
0.00232607 -0.0750952 0.587169
0.00295322 -0.0759504 0.587213
0.00357943 -0.0768006 0.587215
0.00420757 -0.0776595 0.587284
0.00483564 -0.078517 0.58734
0.00546692 -0.0793881 0.5875
0.00609913 -0.0802616 0.587674
0.00674107 -0.0811745 0.588146
0.00739416 -0.0821299 0.588932
0.00805943 -0.0831299 0.590037
0.00872224 -0.0841139 0.590999
0.0093942 -0.0851282 0.592163
0.010062 -0.0861206 0.593142
0.0107277 -0.0871004 0.59401
0.0113959 -0.0880845 0.59489
0.0120704 -0.0890876 0.595886
0.012743 -0.0900787 0.596777
0.013422 -0.0910884 0.597779
0.0140982 -0.0920839 0.598663
0.0147792 -0.0930916 0.599614
0.0154705 -0.0941298 0.600751
0.0153246 -0.0959 0.602505
0.0161654 -0.0951749 0.601913
-0.0262769 -0.0351586 0.594853
-0.0256247 -0.0359436 0.59367
-0.0249736 -0.0367226 0.592437
-0.0243113 -0.0374556 0.590479
-0.0236455 -0.038159 0.588117
-0.0229852 -0.0388594 0.585809
-0.0223352 -0.0395773 0.583871
-0.0216915 -0.0403013 0.582108
-0.0210553 -0.0410399 0.580636
-0.0204289 -0.0418113 0.579706
-0.0198102 -0.0426145 0.579275
-0.019192 -0.0434151 0.578821
-0.01858 -0.0442543 0.578921
-0.0179673 -0.0450921 0.578997
-0.0173546 -0.0459307 0.579079
-0.0167409 -0.0467637 0.57908
-0.0161269 -0.0475941 0.579046
-0.0155116 -0.0484033 0.578738
-0.0148965 -0.0492078 0.578381
-0.0142823 -0.0500202 0.578131
-0.013668 -0.0508098 0.577609
-0.0130546 -0.051601 0.577123
-0.0124421 -0.0523949 0.576681
-0.0118301 -0.0531991 0.57637
-0.0112185 -0.0540101 0.576144
-0.0106063 -0.0548455 0.576198
-0.00999362 -0.0556864 0.576308
-0.00938058 -0.0565282 0.576424
-0.00876717 -0.0573711 0.576545
-0.00815339 -0.0582134 0.576656
-0.00753894 -0.0590611 0.576816
-0.00692398 -0.0599097 0.57698
-0.0063067 -0.0607761 0.577319
-0.00568482 -0.0616788 0.578009
-0.00505946 -0.0625993 0.578855
-0.00442901 -0.0635472 0.579943
-0.00379631 -0.0644981 0.581029
-0.0031598 -0.0654624 0.582213
-0.00252433 -0.0664067 0.583178
-0.00188675 -0.0673542 0.584146
-0.00125025 -0.0682852 0.584938
-0.000613586 -0.0692099 0.585652
1.88061e-05 -0.0701041 0.586075
0.000649319 -0.0709842 0.586364
0.00127787 -0.0718518 0.586534
0.00190289 -0.0727 0.586532
0.00252796 -0.0735476 0.586523
0.00315155 -0.074388 0.586454
0.0037766 -0.0752352 0.58644
0.00440047 -0.0760769 0.586379
0.00502762 -0.0769328 0.586435
0.00565508 -0.0777892 0.586491
0.00628623 -0.0786602 0.586661
0.00691975 -0.0795397 0.586892
0.00756372 -0.080459 0.587427
0.00821737 -0.0814129 0.588214
0.00888173 -0.0824039 0.589267
0.00954675 -0.0833918 0.590272
0.0102196 -0.0844033 0.591432
0.0108881 -0.0853937 0.592411
0.0115545 -0.086372 0.593281
0.0122232 -0.0873539 0.594158
0.0128983 -0.0883541 0.595148
0.0135713 -0.0893428 0.596036
0.014251 -0.0903505 0.597038
0.014928 -0.0913443 0.597923
0.0156093 -0.0923491 0.598867
0.0162983 -0.0933745 0.599931
0.0169936 -0.0944159 0.601083
-0.0255355 -0.0348062 0.599994
-0.0248474 -0.0355081 0.597166
-0.0241772 -0.0362405 0.595007
-0.0235091 -0.0369602 0.592727
-0.0228411 -0.0376582 0.590184
-0.0221844 -0.0383747 0.588055
-0.021533 -0.03909 0.585996
-0.0208868 -0.0398057 0.584029
-0.0202464 -0.0405275 0.582234
-0.0196159 -0.041281 0.580989
-0.0189945 -0.042075 0.580389
-0.0183761 -0.0428812 0.579985
-0.0177622 -0.0437184 0.580037
-0.0171478 -0.0445531 0.580049
-0.0165329 -0.0453839 0.580005
-0.0159171 -0.0462043 0.579821
-0.0153013 -0.0470193 0.579569
-0.0146853 -0.0478212 0.579154
-0.01407 -0.0486223 0.578742
-0.0134554 -0.0494263 0.578377
-0.0128414 -0.0502066 0.577731
-0.0122284 -0.050993 0.577178
-0.0116164 -0.0517778 0.576621
-0.0110052 -0.0525685 0.576149
-0.0103942 -0.0533738 0.575858
-0.00978238 -0.0542032 0.575848
-0.00917008 -0.0550382 0.575898
-0.00855722 -0.0558791 0.576012
-0.0079431 -0.0567303 0.57623
-0.00732928 -0.0575729 0.576349
-0.00671467 -0.0584208 0.576518
-0.00609908 -0.059274 0.576736
-0.00548142 -0.0601403 0.57708
-0.00485932 -0.0610367 0.577716
-0.00423225 -0.0619612 0.578614
-0.00360045 -0.0629076 0.579702
-0.00296623 -0.063858 0.580797
-0.00232718 -0.064827 0.58204
-0.00169038 -0.0657708 0.583011
-0.00105366 -0.0667043 0.58386
-0.000417711 -0.0676261 0.584578
0.000218269 -0.0685417 0.58522
0.000847298 -0.0694164 0.585477
0.00147527 -0.0702832 0.585656
0.00210192 -0.0711421 0.58576
0.00272612 -0.071988 0.585747
0.00334917 -0.0728285 0.585687
0.00397359 -0.0736751 0.585678
0.00459805 -0.0745215 0.585667
0.00522265 -0.0753679 0.585654
0.00584908 -0.0762222 0.585704
0.00647771 -0.0770843 0.585815
0.00711062 -0.0779625 0.586051
0.0077463 -0.0788497 0.586352
0.00839089 -0.079769 0.586896
0.00904523 -0.0807214 0.587684
0.00970857 -0.081703 0.588677
0.0103725 -0.082682 0.589629
0.0110464 -0.083691 0.590785
0.0117176 -0.0846861 0.591813
0.0123848 -0.0856629 0.592684
0.0130539 -0.0866421 0.593554
0.013732 -0.0876475 0.594594
0.0144056 -0.0886341 0.595478
0.0150838 -0.0896317 0.596422
0.0157612 -0.0906231 0.597302
0.0164429 -0.0916243 0.598233
0.0171296 -0.092638 0.599231
0.0178255 -0.093676 0.600374
0.0176895 -0.0954546 0.602195
0.018525 -0.0947208 0.601541
-0.0240571 -0.0350549 0.600467
-0.0233752 -0.0357578 0.597662
-0.0227008 -0.0364599 0.594971
-0.0220317 -0.0371556 0.592292
-0.0213784 -0.0378886 0.590355
-0.0207283 -0.0386141 0.588378
-0.0200802 -0.0393247 0.586244
-0.0194378 -0.0400396 0.584268
-0.018804 -0.0407787 0.582739
-0.0181792 -0.0415591 0.581891
-0.0175583 -0.0423558 0.581314
-0.016942 -0.0431869 0.581252
-0.0163251 -0.0440104 0.58108
-0.015708 -0.0448291 0.580849
-0.015091 -0.0456412 0.580532
-0.0144741 -0.0464438 0.580099
-0.0138577 -0.047238 0.579568
-0.0132423 -0.0480354 0.579094
-0.0126277 -0.0488312 0.578616
-0.0120143 -0.0496033 0.577855
-0.0114019 -0.0503851 0.577236
-0.0107906 -0.0511654 0.576616
-0.0101804 -0.0519471 0.576033
-0.00957022 -0.0527431 0.575632
-0.00895884 -0.0535667 0.575558
-0.00834707 -0.0543959 0.575549
-0.00773458 -0.0552316 0.57561
-0.00712 -0.0560875 0.575888
-0.00650512 -0.0569403 0.576123
-0.00588959 -0.0577936 0.576355
-0.00527304 -0.0586525 0.576636
-0.00465415 -0.0595232 0.577031
-0.00403185 -0.0604135 0.577613
-0.00340359 -0.0613363 0.578503
-0.00277129 -0.0622752 0.579529
-0.00213579 -0.0632233 0.580614
-0.00149624 -0.0641846 0.581797
-0.000859424 -0.0651197 0.582698
-0.00022523 -0.0660336 0.583373
0.00040973 -0.0669459 0.584016
0.0010437 -0.0678477 0.584544
0.00166992 -0.0687084 0.584685
0.00229601 -0.0695672 0.584803
0.00292049 -0.0704173 0.58484
0.00354368 -0.0712612 0.584821
0.00416595 -0.072101 0.584765
0.00479155 -0.0729545 0.584826
0.00541559 -0.0738009 0.584823
0.00604088 -0.0746524 0.584862
0.00666666 -0.0755047 0.584906
0.00729679 -0.0763733 0.58508
0.00793193 -0.0772595 0.58539
0.00857169 -0.0781612 0.585815
0.00922035 -0.0790925 0.586464
0.00987552 -0.0800439 0.587255
0.0105376 -0.0810157 0.588185
0.0112023 -0.0819921 0.589129
0.0118769 -0.0829984 0.590278
0.0125475 -0.0839858 0.591262
0.0132178 -0.0849684 0.592188
0.0138875 -0.0859455 0.593054
0.014564 -0.0869409 0.594033
0.0152381 -0.0879247 0.594909
0.0159197 -0.0889286 0.59591
0.0165956 -0.0899109 0.596738
0.0172775 -0.0909091 0.597658
0.0179647 -0.0919192 0.598644
0.0186613 -0.0929542 0.599779
0.0193622 -0.0939977 0.600951
0.0192328 -0.0957864 0.602823
0.0200717 -0.0950623 0.602241
-0.0239456 -0.0338805 0.606637
-0.0232456 -0.0345569 0.603058
-0.0225598 -0.0352487 0.599933
-0.0218828 -0.0359424 0.596989
-0.0212157 -0.0366455 0.594346
-0.0205646 -0.0373913 0.592546
-0.0199161 -0.0381289 0.590686
-0.0192689 -0.0388477 0.588601
-0.0186257 -0.0395607 0.58651
-0.017989 -0.0402868 0.58471
-0.0173617 -0.0410572 0.583655
-0.0167384 -0.0418449 0.582897
-0.0161191 -0.0426623 0.582603
-0.0155 -0.0434752 0.582251
-0.0148812 -0.0442815 0.581819
-0.0142627 -0.0450738 0.581207
-0.0136452 -0.0458639 0.580585
-0.0130288 -0.0466493 0.579922
-0.0124136 -0.0474344 0.579274
-0.0117995 -0.0482224 0.578685
-0.0111868 -0.048995 0.57792
-0.0105752 -0.0497724 0.577237
-0.00996495 -0.0505487 0.576562
-0.00935541 -0.05133 0.575967
-0.00874577 -0.0521257 0.575559
-0.00813449 -0.0529484 0.575475
-0.00752307 -0.0537735 0.575419
-0.00691104 -0.0546043 0.575427
-0.00629593 -0.05546 0.57571
-0.00568078 -0.0563129 0.57595
-0.00506483 -0.0571671 0.576197
-0.00444621 -0.0580364 0.576594
-0.00382525 -0.0589172 0.577098
-0.00320171 -0.0598077 0.577687
-0.00257237 -0.0607285 0.578566
-0.00193954 -0.0616598 0.579524
-0.00130373 -0.0625993 0.580535
-0.000665999 -0.063541 0.581539
-3.05774e-05 -0.0644624 0.58232
0.000601665 -0.0653617 0.582868
0.00123445 -0.0662596 0.583388
0.0018645 -0.0671411 0.58374
0.00248862 -0.0679934 0.583815
0.00311263 -0.0688443 0.583873
0.00373457 -0.0696855 0.583843
0.00435687 -0.0705279 0.583822
0.00497833 -0.0713669 0.58377
0.00560525 -0.0722271 0.583901
0.00623042 -0.0730798 0.583964
0.00685713 -0.0739377 0.584066
0.00748578 -0.0748019 0.584217
0.00811974 -0.0756845 0.584516
0.00875704 -0.0765776 0.58489
0.0093996 -0.0774871 0.585387
0.0100489 -0.0784171 0.586036
0.0107021 -0.0793579 0.586753
0.0113622 -0.0803186 0.587609
0.0120253 -0.081285 0.58849
0.012699 -0.0822827 0.589589
0.0133702 -0.0832679 0.59057
0.0140437 -0.0842566 0.591555
0.0147145 -0.085233 0.592429
0.0153917 -0.0862259 0.593404
0.0160665 -0.087208 0.59428
0.0167488 -0.0882095 0.595276
0.0174225 -0.0891819 0.596046
0.0181056 -0.0901794 0.596974
0.0187935 -0.0911876 0.59796
0.0194912 -0.0922204 0.599095
0.0201931 -0.093262 0.600268
0.0209067 -0.0943325 0.601612
-0.026022 -0.0316424 0.614216
-0.0266858 -0.0308014 0.614993
-0.0257978 -0.0301189 0.614309
-0.0251379 -0.0309654 0.613651
-0.0253519 -0.0324625 0.613053
-0.0244737 -0.031796 0.612698
-0.0246581 -0.0332092 0.610504
-0.0238 -0.0325918 0.611093
-0.0231024 -0.0332999 0.607855
-0.0224096 -0.0339945 0.604522
-0.0217266 -0.0346919 0.601407
-0.0210547 -0.0354022 0.598673
-0.0203886 -0.0361074 0.595978
-0.0197389 -0.0368609 0.594241
-0.019092 -0.0376071 0.592458
-0.0184469 -0.0383382 0.590501
-0.0178054 -0.0390636 0.588535
-0.0171678 -0.0397834 0.586562
-0.0165386 -0.0405456 0.585324
-0.0159138 -0.0413268 0.584423
-0.0152921 -0.0421295 0.583874
-0.0146714 -0.0429317 0.583338
-0.0140516 -0.0437277 0.582731
-0.0134324 -0.0445051 0.581884
-0.0128148 -0.0452786 0.581013
-0.0121988 -0.046051 0.580156
-0.0115843 -0.0468233 0.579327
-0.0109711 -0.0476032 0.578624
-0.0103594 -0.0483766 0.57786
-0.00974872 -0.0491546 0.577176
-0.00913925 -0.0499315 0.576501
-0.00853042 -0.0507134 0.575907
-0.00792132 -0.0515092 0.575496
-0.00731001 -0.0523319 0.575412
-0.00669866 -0.0531565 0.57535
-0.00608641 -0.0539874 0.57536
-0.00547096 -0.0548426 0.575642
-0.00485467 -0.0556998 0.575934
-0.00423821 -0.0565543 0.576186
-0.00361805 -0.0574289 0.576644
-0.00299513 -0.0583154 0.577213
-0.00236971 -0.059211 0.57786
-0.00173956 -0.0601266 0.57869
-0.00110644 -0.0610507 0.579583
-0.000471505 -0.0619769 0.580471
0.000163987 -0.0628992 0.581294
0.000796589 -0.0638014 0.581899
0.00142509 -0.0646804 0.582263
0.00205511 -0.0655637 0.582657
0.0026807 -0.0664248 0.582831
0.00330121 -0.0672633 0.58279
0.00392118 -0.0680993 0.582727
0.0045404 -0.0689324 0.582637
0.00516002 -0.0697671 0.582561
0.00578194 -0.0706105 0.582563
0.00640973 -0.0714759 0.582754
0.00703614 -0.0723349 0.582884
0.00766424 -0.0731989 0.583053
0.00829626 -0.0740758 0.583324
0.00893382 -0.0749707 0.583735
0.00957368 -0.0758713 0.584184
0.0102187 -0.076787 0.584743
0.0108701 -0.0777217 0.585441
0.0115233 -0.0786589 0.586143
0.0121794 -0.0796028 0.586879
0.0128421 -0.0805646 0.587738
0.0135165 -0.0815593 0.588831
0.0141911 -0.0825508 0.589875
0.0148683 -0.0835464 0.590927
0.0155423 -0.0845288 0.591858
0.0162233 -0.0855284 0.592894
0.0168985 -0.0865076 0.593761
0.0175789 -0.087499 0.594697
0.0182506 -0.0884625 0.595414
0.0189344 -0.089458 0.596342
0.0196206 -0.0904568 0.597274
0.0203192 -0.0914878 0.59841
0.0210252 -0.0925354 0.599638
0.0217433 -0.0936122 0.601042
0.0216131 -0.095379 0.602771
0.0224542 -0.0946659 0.602261
-0.0255691 -0.0285852 0.614178
-0.0249151 -0.029446 0.613812
-0.024257 -0.0302939 0.613186
-0.0235947 -0.0311256 0.612249
-0.0229229 -0.0319209 0.610614
-0.0222351 -0.0326484 0.607709
-0.021552 -0.0333652 0.604746
-0.0208753 -0.0340767 0.601831
-0.0202064 -0.034789 0.599075
-0.0195474 -0.0355173 0.596737
-0.0189021 -0.0362906 0.595299
-0.0182564 -0.0370408 0.593528
-0.0176135 -0.0377809 0.591663
-0.0169746 -0.0385193 0.589852
-0.0163392 -0.0392549 0.588072
-0.0157096 -0.0400133 0.586724
-0.015084 -0.0407919 0.585739
-0.0144612 -0.0415882 0.585059
-0.0138396 -0.0423801 0.584337
-0.0132192 -0.0431661 0.583557
-0.0126001 -0.0439295 0.582483
-0.0119832 -0.0446876 0.581373
-0.0113682 -0.0454467 0.580318
-0.0107548 -0.0462146 0.579415
-0.0101425 -0.0469912 0.578657
-0.00953154 -0.0477657 0.577897
-0.00892157 -0.048545 0.577221
-0.00831281 -0.0493226 0.576544
-0.00770497 -0.0501014 0.575904
-0.00709669 -0.0508938 0.575447
-0.00648538 -0.0517173 0.575371
-0.00587391 -0.0525417 0.575308
-0.00526237 -0.0533673 0.575256
-0.00464668 -0.0542208 0.575523
-0.00403 -0.0550771 0.57581
-0.00341321 -0.0559312 0.576062
-0.00279147 -0.0568104 0.576577
-0.00216576 -0.0577072 0.577263
-0.00153793 -0.0586089 0.57798
-0.000906088 -0.0595251 0.578824
-0.000272799 -0.0604424 0.579655
0.000360995 -0.0613559 0.580421
0.000993725 -0.0622591 0.581064
0.00162308 -0.0631423 0.581492
0.00224753 -0.0640022 0.581678
0.00287453 -0.0648712 0.581946
0.00349639 -0.0657174 0.581991
0.00411423 -0.0665472 0.581879
0.00473163 -0.0673754 0.581754
0.00535012 -0.0682081 0.581671
0.00597022 -0.0690469 0.581644
0.00659316 -0.0698956 0.581703
0.00722213 -0.0707654 0.581945
0.00785011 -0.0716303 0.582137
0.00848182 -0.072507 0.582423
0.00911428 -0.0733848 0.582711
0.00975408 -0.0742854 0.583182
0.0103964 -0.0751921 0.58369
0.0110417 -0.0761061 0.584246
0.0116919 -0.0770337 0.584897
0.0123453 -0.0779685 0.585591
0.0129992 -0.0789024 0.586261
0.0136604 -0.0798556 0.587066
0.0143354 -0.0808475 0.588152
0.0150131 -0.0818434 0.589245
0.0156917 -0.0828384 0.590306
0.0163697 -0.0838281 0.591305
0.0170519 -0.0848267 0.592348
0.0177276 -0.0858035 0.593208
0.0184085 -0.0867921 0.594136
0.0190827 -0.0877597 0.594893
0.0197676 -0.0887539 0.595823
0.0204575 -0.089759 0.596812
0.0211574 -0.090788 0.597946
0.0218644 -0.0918328 0.599168
0.0225811 -0.0928998 0.600517
0.0232933 -0.0939515 0.601736
-0.0253338 -0.0270383 0.613709
-0.0246826 -0.0279041 0.613463
-0.0240283 -0.0287609 0.613019
-0.0233723 -0.02961 0.612428
-0.0227105 -0.0304376 0.611402
-0.0220398 -0.0312278 0.60965
-0.0213589 -0.0319649 0.606908
-0.0206822 -0.0326901 0.604074
-0.0200112 -0.0334087 0.601256
-0.0193479 -0.0341313 0.598655
-0.0186946 -0.0348742 0.596554
-0.0180513 -0.0356483 0.595106
-0.0174093 -0.0364088 0.593489
-0.0167701 -0.0371623 0.591822
-0.0161347 -0.0379181 0.590269
-0.0155024 -0.0386717 0.588743
-0.014874 -0.0394365 0.587461
-0.0142486 -0.0402098 0.586361
-0.0136258 -0.0410027 0.585604
-0.0130044 -0.0417919 0.584822
-0.0123844 -0.0425723 0.583937
-0.0117664 -0.0433322 0.58279
-0.0111505 -0.0440902 0.581658
-0.010537 -0.0448419 0.580479
-0.00992494 -0.0456027 0.579464
-0.0093135 -0.0463801 0.578705
-0.008703 -0.0471599 0.578003
-0.00809398 -0.0479366 0.577283
-0.00748601 -0.0487148 0.576603
-0.00687839 -0.0494983 0.576012
-0.00627039 -0.0502915 0.575557
-0.00565883 -0.0511158 0.57549
-0.0050465 -0.0519453 0.575483
-0.00443408 -0.0527753 0.57548
-0.00381843 -0.0536237 0.575687
-0.0032021 -0.0544745 0.575912
-0.00258561 -0.0553228 0.576101
-0.00196397 -0.0561969 0.576565
-0.00133705 -0.0570935 0.577257
-0.00070681 -0.0580009 0.57804
-7.342e-05 -0.0589173 0.578896
0.000561352 -0.0598344 0.579731
0.00119484 -0.0607402 0.580426
0.00182441 -0.0616248 0.580888
0.00244976 -0.062489 0.581132
0.00306974 -0.0633301 0.581142
0.00369215 -0.0641798 0.581235
0.00430998 -0.0650118 0.581153
0.00492681 -0.06584 0.581035
0.00554174 -0.0666613 0.580855
0.00616101 -0.0674989 0.580828
0.00678069 -0.0683374 0.580808
0.00740306 -0.0691852 0.58087
0.00803167 -0.0700536 0.581111
0.00866301 -0.0709299 0.581414
0.00929485 -0.0718062 0.581708
0.00993125 -0.0726959 0.582108
0.0105754 -0.0736083 0.582689
0.0112201 -0.0745204 0.583252
0.011866 -0.0754341 0.583814
0.0125165 -0.0763593 0.584457
0.0131684 -0.0772863 0.585098
0.0138206 -0.0782121 0.585714
0.0144801 -0.0791567 0.586463
0.0151534 -0.0801389 0.587488
0.0158323 -0.0811335 0.588586
0.0165143 -0.0821334 0.5897
0.0171962 -0.0831299 0.590764
0.0178797 -0.0841272 0.591811
0.0185561 -0.0851022 0.592669
0.019237 -0.0860872 0.593583
0.0199087 -0.0870447 0.594277
0.0205941 -0.0880364 0.595202
0.0212881 -0.0890479 0.596249
0.021989 -0.0900749 0.597383
0.022697 -0.0911171 0.5986
0.0234178 -0.0921885 0.599995
0.0241314 -0.0932384 0.601215
0.0239973 -0.0949785 0.602765
0.0248367 -0.0942648 0.602251
-0.0251049 -0.0255057 0.613555
-0.0244538 -0.0263716 0.613302
-0.0238009 -0.0272317 0.612925
-0.0231435 -0.0280776 0.61223
-0.0224865 -0.0289193 0.611482
-0.0218239 -0.0297375 0.610255
-0.0211535 -0.0305171 0.60827
-0.0204795 -0.0312627 0.605687
-0.0198098 -0.0319984 0.603041
-0.0191457 -0.0327292 0.600436
-0.0184887 -0.0334648 0.598055
-0.0178408 -0.0342218 0.596191
-0.0171996 -0.0349968 0.594743
-0.0165603 -0.0357616 0.593183
-0.0159244 -0.0365262 0.591687
-0.0152917 -0.037291 0.590259
-0.014662 -0.0380565 0.588907
-0.0140351 -0.0388269 0.58769
-0.0134108 -0.0396053 0.58665
-0.0127886 -0.0403966 0.58585
-0.0121678 -0.0411867 0.585063
-0.0115486 -0.0419714 0.584225
-0.0109316 -0.0427367 0.583133
-0.0103168 -0.0434967 0.582007
-0.0097043 -0.04425 0.580826
-0.00909341 -0.0450084 0.579758
-0.00848294 -0.0457829 0.578943
-0.0078734 -0.0465602 0.578195
-0.00726501 -0.0473378 0.577473
-0.00665759 -0.0481165 0.576789
-0.00605002 -0.048904 0.576237
-0.00544172 -0.0497019 0.57583
-0.00482978 -0.0505272 0.575769
-0.00421694 -0.0513579 0.575771
-0.00360397 -0.0521886 0.575772
-0.00298849 -0.0530325 0.575926
-0.00237325 -0.0538737 0.576038
-0.00175733 -0.0547166 0.576167
-0.00113608 -0.0555843 0.576564
-0.000508245 -0.0564798 0.57725
0.000124398 -0.0573918 0.578093
0.000758231 -0.0583033 0.578903
0.00139303 -0.0592143 0.579683
0.00202584 -0.0601123 0.580306
0.00265172 -0.0609788 0.58059
0.00327252 -0.0618241 0.580652
0.00389029 -0.0626573 0.580591
0.004509 -0.0634939 0.580562
0.00512319 -0.064314 0.580374
0.00573907 -0.0651404 0.580249
0.00635324 -0.0659615 0.580076
0.00697396 -0.0668052 0.580113
0.00759521 -0.06765 0.580159
0.0082191 -0.0685033 0.58028
0.00884961 -0.0693771 0.580579
0.00948282 -0.0702582 0.580933
0.0101149 -0.0711342 0.581232
0.0107517 -0.0720233 0.581636
0.0113964 -0.072935 0.582221
0.012039 -0.0738383 0.58272
0.0126852 -0.0747503 0.583279
0.0133339 -0.0756675 0.583867
0.0139885 -0.0765995 0.58456
0.014641 -0.0775236 0.585173
0.0153008 -0.0784662 0.585918
0.0159725 -0.0794393 0.586886
0.0166547 -0.0804383 0.588033
0.0173379 -0.0814364 0.589147
0.0180239 -0.0824392 0.590273
0.0187083 -0.0834344 0.591316
0.0193855 -0.0844078 0.592175
0.020061 -0.0853745 0.592964
0.02073 -0.0863223 0.593599
0.021413 -0.0873043 0.594467
0.0221082 -0.0883149 0.595522
0.0228103 -0.0893402 0.59666
0.0235191 -0.0903795 0.597872
0.0242401 -0.0914459 0.599248
0.0249546 -0.0924932 0.600465
0.0256637 -0.0935247 0.60155
-0.0242154 -0.0248195 0.612602
-0.0235641 -0.025681 0.612265
-0.0229107 -0.0265354 0.61177
-0.0222528 -0.0273739 0.610919
-0.0215958 -0.0282077 0.610011
-0.020936 -0.0290247 0.608773
-0.0202703 -0.0298068 0.606843
-0.0196036 -0.030564 0.604493
-0.0189411 -0.0313138 0.602114
-0.0182833 -0.0320568 0.599726
-0.0176318 -0.0328041 0.597547
-0.0169872 -0.033566 0.595754
-0.0163485 -0.0343449 0.594362
-0.0157119 -0.0351144 0.592866
-0.0150785 -0.0358839 0.591437
-0.0144482 -0.0366564 0.590125
-0.0138206 -0.037433 0.588939
-0.0131952 -0.0382047 0.587721
-0.0125722 -0.0389879 0.586741
-0.0119507 -0.0397836 0.585996
-0.0113308 -0.0405721 0.585169
-0.0107125 -0.0413582 0.584336
-0.0100959 -0.0421364 0.583419
-0.0094815 -0.042907 0.582423
-0.00886962 -0.043668 0.581326
-0.00825914 -0.0444322 0.580315
-0.00764912 -0.0452067 0.579479
-0.00704114 -0.0459762 0.578604
-0.00643426 -0.0467466 0.577772
-0.00582784 -0.0475228 0.577039
-0.00522076 -0.0483105 0.576479
-0.00461266 -0.0491089 0.576069
-0.0040004 -0.0499347 0.576008
-0.00338696 -0.0507665 0.57602
-0.0027735 -0.0515981 0.576027
-0.00215822 -0.0524381 0.576132
-0.00154365 -0.0532738 0.576181
-0.000928706 -0.0541106 0.576237
-0.000308044 -0.054972 0.576568
0.000319749 -0.0558614 0.577194
0.000953506 -0.0567721 0.578032
0.0015872 -0.0576774 0.578786
0.00222154 -0.0585815 0.579503
0.00285225 -0.0594672 0.580007
0.00347501 -0.060321 0.580166
0.00409236 -0.0611535 0.580106
0.00470649 -0.0619747 0.57993
0.0053212 -0.0627985 0.579784
0.0059342 -0.0636166 0.579585
0.00654934 -0.0644426 0.579465
0.00716322 -0.0652645 0.579308
0.0077855 -0.066114 0.57941
0.00840992 -0.0669697 0.579567
0.00903576 -0.0678289 0.579749
0.00966841 -0.0687082 0.580105
0.010304 -0.0695951 0.58052
0.0109385 -0.070477 0.580879
0.0115734 -0.071359 0.581229
0.0122183 -0.0722684 0.581803
0.0128589 -0.0731637 0.582244
0.0135032 -0.0740677 0.582746
0.0141521 -0.0749831 0.583329
0.0148071 -0.0759134 0.58402
0.0154572 -0.0768285 0.584571
0.0161198 -0.0777754 0.585363
0.0167923 -0.0787465 0.586329
0.0174728 -0.079736 0.587416
0.0181568 -0.0807316 0.588526
0.0188464 -0.081739 0.589702
0.0195294 -0.0827262 0.590699
0.0202101 -0.0837052 0.591611
0.0208859 -0.0846694 0.592395
0.0215546 -0.085614 0.593015
0.0222382 -0.0865937 0.593879
0.0229378 -0.087611 0.594995
0.023642 -0.0886367 0.596149
0.0243524 -0.0896746 0.597364
0.025074 -0.090737 0.598728
0.0257888 -0.0917798 0.599927
0.0264992 -0.0928101 0.601017
0.0263748 -0.0945584 0.602629
0.027216 -0.0938528 0.602168
-0.0233258 -0.0241294 0.611498
-0.0226733 -0.0249836 0.610998
-0.0220193 -0.0258304 0.61034
-0.0213603 -0.0266573 0.609228
-0.0207057 -0.0274887 0.608298
-0.0200498 -0.0283067 0.607108
-0.0193895 -0.0290948 0.605316
-0.0187307 -0.0298678 0.603302
-0.018075 -0.0306315 0.601201
-0.0174228 -0.0313863 0.59903
-0.0167759 -0.0321441 0.597035
-0.0161348 -0.0329132 0.595357
-0.0154982 -0.033693 0.593967
-0.0148642 -0.0344671 0.592537
-0.0142329 -0.0352388 0.591131
-0.0136045 -0.0360099 0.589779
-0.0129787 -0.0367873 0.588594
-0.0123551 -0.0375624 0.58742
-0.0117335 -0.0383465 0.586444
-0.0111132 -0.0391464 0.585761
-0.010494 -0.0399427 0.585048
-0.00987631 -0.0407369 0.584329
-0.00925986 -0.0415285 0.583599
-0.00864524 -0.042314 0.582804
-0.00803324 -0.0430867 0.581853
-0.00742256 -0.0438597 0.580942
-0.00681265 -0.0446384 0.580141
-0.00620641 -0.0453996 0.579128
-0.00560074 -0.0461666 0.578228
