ply
format ascii 1.0
element vertex 1669
property float x
property float y
property float z
end_header
0.10862 -0.0922484 0.656709
0.108733 -0.0939446 0.660625
0.108904 -0.095722 0.665008
0.147089 0.00192759 0.665549
0.145792 0.000836241 0.660972
0.145369 -0.000299947 0.660997
0.144953 -0.00143673 0.661059
0.144526 -0.00257273 0.661061
0.144062 -0.00370525 0.660867
0.143596 -0.00483685 0.660662
0.143091 -0.00596321 0.660242
0.142524 -0.00708059 0.659485
0.141905 -0.00818865 0.658445
0.141259 -0.0092892 0.657245
0.140613 -0.0103857 0.65604
0.139973 -0.0114792 0.654864
0.139376 -0.0125756 0.653911
0.138815 -0.0136753 0.653154
0.138294 -0.0147796 0.652608
0.137752 -0.0158779 0.651943
0.137141 -0.0169599 0.650894
0.136498 -0.0180309 0.649652
0.135803 -0.019086 0.648116
0.135089 -0.0201313 0.646461
0.134385 -0.0211731 0.644851
0.133777 -0.0222335 0.64377
0.133219 -0.0233036 0.642971
0.132668 -0.0243728 0.642206
0.13215 -0.0254484 0.641621
0.131629 -0.0265212 0.641016
0.13111 -0.027592 0.640414
0.130571 -0.0286546 0.639697
0.130035 -0.0297155 0.63899
0.129497 -0.0307731 0.638269
0.12899 -0.0318391 0.637726
0.128479 -0.0329014 0.637151
0.127962 -0.0339591 0.636535
0.127482 -0.035029 0.636139
0.12698 -0.0360886 0.635605
0.126481 -0.0371471 0.635084
0.126016 -0.038218 0.634764
0.125605 -0.0393105 0.634765
0.125198 -0.0404051 0.634795
0.124812 -0.0415083 0.634941
0.124443 -0.0426203 0.635198
0.124074 -0.0437334 0.635458
0.123719 -0.0448538 0.635801
0.123386 -0.0459864 0.636281
0.123062 -0.0471257 0.636825
0.122727 -0.0482608 0.637299
0.122399 -0.049402 0.637825
0.122063 -0.0505401 0.638299
0.121718 -0.0516755 0.638724
0.12136 -0.0528053 0.639073
0.120999 -0.0539345 0.639404
0.120607 -0.0550467 0.63954
0.120195 -0.0561476 0.639555
0.119793 -0.057254 0.639626
0.119419 -0.0583792 0.639885
0.119069 -0.0595202 0.640296
0.118783 -0.0607043 0.64112
0.118499 -0.0618928 0.641961
0.118203 -0.0630773 0.642737
0.117938 -0.0642856 0.643716
0.117676 -0.0655 0.644721
0.117431 -0.0667312 0.64585
0.117229 -0.0679976 0.647265
0.117041 -0.0692813 0.648793
0.116821 -0.0705464 0.650116
0.116547 -0.0717749 0.651087
0.11621 -0.0729584 0.651647
0.115828 -0.0741083 0.651911
0.115426 -0.075242 0.652035
0.114977 -0.0763386 0.651851
0.114547 -0.0774496 0.651789
0.114108 -0.0785523 0.651662
0.113668 -0.0796546 0.651536
0.11323 -0.0807568 0.651413
0.11281 -0.0818762 0.651425
0.112393 -0.0829971 0.651448
0.112013 -0.0841522 0.651727
0.111633 -0.08531 0.65202
0.111283 -0.0864963 0.652514
0.110941 -0.0876935 0.653077
0.110636 -0.08893 0.653907
0.110345 -0.0901831 0.654837
0.110091 -0.0914788 0.656043
0.110212 -0.0931694 0.659951
0.110717 -0.095284 0.666671
0.147515 0.000378106 0.663911
0.14651 -0.000721965 0.66089
0.146119 -0.00186097 0.66108
0.145733 -0.00300098 0.6613
0.145298 -0.00413704 0.661265
0.144883 -0.00527501 0.661333
0.144392 -0.00640435 0.660995
0.143812 -0.00752156 0.660181
0.143176 -0.00862851 0.659059
0.142522 -0.00972901 0.657834
0.141835 -0.0108203 0.656422
0.14118 -0.0119119 0.655172
0.140567 -0.0130062 0.654142
0.139994 -0.0141044 0.653329
0.139459 -0.0152066 0.652715
0.138917 -0.0163054 0.652058
0.138328 -0.017392 0.651134
0.137696 -0.0184662 0.649971
0.137012 -0.0195244 0.648512
0.136318 -0.020575 0.646984
0.13562 -0.0216194 0.645428
0.134997 -0.0226771 0.644273
0.134433 -0.0237469 0.643454
0.133867 -0.0248129 0.642609
0.133323 -0.0258822 0.641885
0.13279 -0.026952 0.641217
0.13227 -0.0280235 0.640621
0.131733 -0.0290875 0.639925
0.131207 -0.0301524 0.639283
0.130666 -0.03121 0.638554
0.130166 -0.032279 0.638053
0.129653 -0.0333415 0.637474
0.129146 -0.0344044 0.63693
0.12868 -0.0354805 0.636617
0.128201 -0.0365505 0.636228
0.127712 -0.0376146 0.635774
0.127255 -0.0386907 0.63551
0.126833 -0.0397803 0.63545
0.126405 -0.0408672 0.635352
0.126005 -0.0419662 0.635425
0.125626 -0.0430746 0.635617
0.125258 -0.0441894 0.635883
0.124906 -0.0453127 0.636245
0.124583 -0.0464515 0.636786
0.124249 -0.0475867 0.637262
0.123902 -0.0487169 0.637661
0.123563 -0.0498532 0.638117
0.123208 -0.0509821 0.638472
0.122852 -0.0521122 0.638828
0.122494 -0.0532425 0.639174
0.122134 -0.0543726 0.639504
0.121734 -0.0554807 0.639592
0.121332 -0.0565883 0.639673
0.120938 -0.0577008 0.639799
0.120567 -0.0588277 0.640068
0.120219 -0.0599706 0.640489
0.119932 -0.0611548 0.641302
0.119647 -0.0623436 0.642133
0.11936 -0.0635341 0.642957
0.119118 -0.0647592 0.644079
0.118891 -0.0659987 0.645301
0.11868 -0.067255 0.646641
0.1185 -0.0685392 0.648192
0.118316 -0.0698265 0.649727
0.118095 -0.0710929 0.651038
0.117822 -0.0723242 0.652011
0.117485 -0.0735094 0.652568
0.117114 -0.0746697 0.652901
0.11671 -0.0758057 0.653026
0.11626 -0.0769028 0.652833
0.115799 -0.0779915 0.652575
0.115337 -0.0790769 0.6523
0.114877 -0.0801629 0.652036
0.114428 -0.0812577 0.651846
0.114009 -0.0823789 0.651863
0.11361 -0.0835183 0.652018
0.113241 -0.0846858 0.652379
0.112873 -0.0858553 0.652746
0.112532 -0.0870523 0.653305
0.112191 -0.0882526 0.653875
0.111889 -0.0894928 0.654717
0.111598 -0.0907478 0.655643
0.111345 -0.092046 0.656849
0.111851 -0.0941328 0.663454
0.149159 -7.79029e-05 0.666381
0.147638 -0.00114303 0.660707
0.147287 -0.00228555 0.66111
0.146944 -0.00343011 0.661556
0.146553 -0.00457127 0.661749
0.146168 -0.0057137 0.661977
0.145701 -0.00684739 0.661776
0.14513 -0.00796707 0.661017
0.144478 -0.00907313 0.659822
0.143807 -0.0101725 0.658522
0.14309 -0.0112602 0.656963
0.142419 -0.01235 0.655641
0.141777 -0.0134405 0.654472
0.141201 -0.0145385 0.653644
0.140662 -0.015641 0.65302
0.14013 -0.0167425 0.652424
0.139551 -0.0178322 0.651571
0.138932 -0.0189098 0.650487
0.138246 -0.0199686 0.649032
0.137561 -0.0210224 0.647571
0.136861 -0.0220673 0.646019
0.136225 -0.0231232 0.644812
0.135649 -0.0241906 0.643926
0.135076 -0.0252559 0.643055
0.134516 -0.026322 0.642256
0.13398 -0.027392 0.64158
0.133459 -0.028464 0.640983
0.132921 -0.0295285 0.640287
0.132381 -0.0305902 0.63958
0.131827 -0.031644 0.638779
0.131314 -0.0327094 0.638212
0.130798 -0.0337718 0.637627
0.130301 -0.0348388 0.637144
0.129846 -0.0359199 0.636898
0.129388 -0.0369991 0.636638
0.128919 -0.0380728 0.636312
0.128463 -0.0391503 0.636052
0.12804 -0.0402411 0.635992
0.12761 -0.0413283 0.635884
0.1272 -0.0424243 0.635898
0.126819 -0.0435334 0.636082
0.126453 -0.0446502 0.636359
0.126102 -0.0457753 0.636728
0.125781 -0.0469165 0.637279
0.125438 -0.0480485 0.6377
0.125081 -0.0491748 0.638036
0.124732 -0.0503065 0.638425
0.124364 -0.0514301 0.638707
0.123998 -0.0525555 0.638999
0.123641 -0.0536868 0.639347
0.123282 -0.054818 0.639682
0.122892 -0.0559332 0.639837
0.122501 -0.0570479 0.639981
0.122119 -0.0581683 0.64018
0.121767 -0.0593084 0.640569
0.121429 -0.0604594 0.641057
0.121135 -0.0616402 0.641818
0.12086 -0.0628364 0.642705
0.120604 -0.0640488 0.643718
0.120378 -0.0652861 0.644931
0.120156 -0.0665313 0.646183
0.119967 -0.067805 0.647657
0.119786 -0.0690894 0.649183
0.11961 -0.070385 0.650765
0.119404 -0.0716638 0.652158
0.119154 -0.0729151 0.653278
0.11884 -0.0741216 0.65399
0.118489 -0.0753011 0.65446
0.118067 -0.0764259 0.654469
0.117605 -0.0775176 0.65421
0.117122 -0.0785904 0.653807
0.116627 -0.0796518 0.653325
0.116133 -0.0807118 0.652844
0.115661 -0.0817889 0.652507
0.115222 -0.0828939 0.652389
0.114824 -0.0840349 0.652547
0.114465 -0.085213 0.652975
0.114117 -0.0864029 0.653479
0.113788 -0.0876135 0.654124
0.113467 -0.0888341 0.654824
0.113166 -0.0900771 0.655668
0.112875 -0.0913342 0.656592
0.112605 -0.0926167 0.657671
0.113141 -0.0947296 0.664414
0.150754 -0.000533455 0.668559
0.14878 -0.00156531 0.660601
0.148497 -0.00271403 0.661351
0.148213 -0.00386494 0.662099
0.147891 -0.00501468 0.662659
0.147557 -0.00616474 0.663151
0.147076 -0.00729903 0.662884
0.146478 -0.00841719 0.661992
0.145806 -0.00952219 0.660708
0.145119 -0.0106207 0.659339
0.144377 -0.0117057 0.657664
0.143689 -0.0127939 0.656265
0.143029 -0.0138824 0.655014
0.142423 -0.0149761 0.654037
0.141859 -0.0160745 0.653281
0.141324 -0.0171761 0.652678
0.140755 -0.0182684 0.651886
0.140158 -0.0193518 0.650936
0.139495 -0.0204167 0.649623
0.13882 -0.021474 0.648232
0.138128 -0.0225221 0.646739
0.13749 -0.0235789 0.645534
0.136902 -0.0246448 0.644597
0.136318 -0.0257085 0.643676
0.135754 -0.0267747 0.642862
0.135214 -0.0278448 0.642172
0.134678 -0.028914 0.641505
0.134136 -0.0299784 0.640792
0.133593 -0.0310403 0.640076
0.133025 -0.032091 0.639212
0.13249 -0.0331496 0.638523
0.13196 -0.034208 0.637865
0.131461 -0.0352749 0.637375
0.131003 -0.0363562 0.637124
0.130546 -0.0374362 0.636868
0.130087 -0.0385148 0.636603
0.129642 -0.0395979 0.636413
0.12922 -0.0406903 0.636361
0.128789 -0.0417785 0.636255
0.128388 -0.0428793 0.63632
0.128006 -0.0439894 0.636502
0.127641 -0.0451079 0.636785
0.12728 -0.0462293 0.637091
0.126961 -0.0473721 0.637647
0.126617 -0.0485048 0.638061
0.12626 -0.0496324 0.638399
0.125912 -0.0507657 0.638793
0.125544 -0.0518902 0.639072
0.125178 -0.0530164 0.639361
0.124818 -0.0541476 0.639695
0.12447 -0.0552862 0.640096
0.124083 -0.0564038 0.640264
0.123713 -0.0575322 0.640538
0.123341 -0.0586608 0.640805
0.123 -0.0598093 0.641264
0.122666 -0.0609638 0.641767
0.122382 -0.0621528 0.642588
0.12213 -0.0633659 0.643616
0.121898 -0.0645965 0.644776
0.121688 -0.0658469 0.646086
0.12147 -0.0670964 0.647349
0.121279 -0.0683705 0.648797
0.121086 -0.0696491 0.650244
0.120913 -0.0709482 0.651829
0.120711 -0.0722327 0.653246
0.120488 -0.0735062 0.65453
0.120199 -0.0747341 0.655399
0.119862 -0.0759281 0.655965
0.119431 -0.0770489 0.655917
0.118966 -0.0781422 0.655651
0.118458 -0.0791982 0.655095
0.117938 -0.0802419 0.654457
0.117417 -0.0812823 0.653809
0.116931 -0.0823498 0.653386
0.116479 -0.0834458 0.653187
0.116079 -0.0845883 0.653342
0.115722 -0.0857695 0.653778
0.115385 -0.0869714 0.654357
0.115067 -0.0881944 0.655075
0.114749 -0.0894199 0.655794
0.114448 -0.0906647 0.656632
0.114157 -0.0919239 0.657553
0.113877 -0.0931971 0.65855
0.114403 -0.0952958 0.665155
0.151371 -0.00210154 0.667907
0.150626 -0.00322288 0.666303
0.14995 -0.00434537 0.665041
0.149263 -0.00546255 0.66372
0.148942 -0.00661655 0.664284
0.148458 -0.00775251 0.664
0.147852 -0.00887175 0.663087
0.147178 -0.00997814 0.661804
0.146488 -0.0110779 0.660433
0.14574 -0.0121639 0.65875
0.145034 -0.0132509 0.657273
0.144334 -0.014334 0.655822
0.143686 -0.0154215 0.654634
0.14308 -0.016513 0.653665
0.14253 -0.0176124 0.652986
0.14195 -0.0187032 0.652146
0.141364 -0.0197897 0.651265
0.140724 -0.0208605 0.650089
0.140068 -0.0219233 0.648816
0.139385 -0.0229749 0.647389
0.138756 -0.0240353 0.646247
0.138166 -0.0251024 0.645314
0.13758 -0.026167 0.644393
0.137006 -0.0272317 0.643529
0.136452 -0.0282995 0.642777
0.135903 -0.0293657 0.64204
0.135367 -0.0304338 0.641377
0.134812 -0.0314928 0.640599
0.134241 -0.0325437 0.639726
0.133701 -0.0336024 0.639027
0.133159 -0.0346576 0.638307
0.132635 -0.0357165 0.637681
0.132176 -0.036798 0.637423
0.131716 -0.0378781 0.637158
0.131258 -0.0389581 0.636903
0.130823 -0.0400467 0.63678
0.130412 -0.0411446 0.63679
0.129982 -0.0422344 0.636692
0.129581 -0.0433366 0.636761
0.12919 -0.0444437 0.636891
0.128813 -0.0455577 0.6371
0.128451 -0.0466793 0.637397
0.128139 -0.047827 0.637997
0.127807 -0.0489664 0.638475
0.127463 -0.0501019 0.638892
0.127125 -0.0512421 0.639348
0.126758 -0.0523683 0.63963
0.12638 -0.0534895 0.639848
0.126011 -0.0546168 0.640124
0.125663 -0.0557565 0.640524
0.125285 -0.0568812 0.640753
0.124929 -0.058019 0.641111
0.12456 -0.0591505 0.641392
0.12423 -0.0603073 0.641918
0.123924 -0.0614817 0.642598
0.123665 -0.0626883 0.643568
0.12344 -0.0639206 0.644752
0.123233 -0.0651701 0.646061
0.123036 -0.0664315 0.647442
0.122797 -0.0676699 0.648574
0.122584 -0.0689305 0.649873
0.12239 -0.07021 0.651302
0.122222 -0.0715146 0.652907
0.122028 -0.0728066 0.654362
0.121822 -0.074095 0.655748
0.121543 -0.0753336 0.656681
0.121196 -0.0765226 0.657182
0.120753 -0.0776368 0.657064
0.120285 -0.0787309 0.656787
0.119773 -0.0797869 0.656215
0.11924 -0.080823 0.655504
0.118716 -0.0818637 0.654846
0.118235 -0.0829391 0.654469
0.117762 -0.0840198 0.654141
0.117352 -0.0851549 0.654225
0.117001 -0.0863444 0.654709
0.116666 -0.0875504 0.6553
0.116351 -0.0887774 0.65603
0.116054 -0.0900251 0.656889
0.115754 -0.0912729 0.65773
0.115454 -0.0925248 0.658581
0.115154 -0.0937805 0.65944
0.152187 -0.00487759 0.670483
0.151043 -0.00595505 0.66685
0.150347 -0.00707174 0.665491
0.149831 -0.00820615 0.665054
0.14921 -0.00932507 0.664069
0.148545 -0.0104345 0.662851
0.147864 -0.0115372 0.661542
0.147126 -0.0126266 0.65993
0.146427 -0.0137167 0.658508
0.145719 -0.0148004 0.657033
0.145028 -0.015882 0.655632
0.14439 -0.0169693 0.654508
0.143798 -0.0180618 0.653618
0.143201 -0.0191503 0.652696
0.142604 -0.0202355 0.651769
0.141976 -0.0213101 0.650667
0.141331 -0.0223769 0.649471
0.140657 -0.0234318 0.648104
0.140023 -0.0244924 0.646947
0.13942 -0.0255572 0.645952
0.13883 -0.0266224 0.645025
0.138242 -0.0276843 0.644094
0.137687 -0.028753 0.643343
0.137125 -0.0298169 0.642549
0.1366 -0.0308897 0.641955
0.136043 -0.0319494 0.641175
0.135472 -0.0330019 0.640315
0.13493 -0.034061 0.639607
0.134382 -0.0351156 0.638866
0.133843 -0.0361707 0.638168
0.133362 -0.0372451 0.637791
0.132901 -0.0383259 0.637524
0.132453 -0.0394108 0.637328
0.132028 -0.0405048 0.637265
0.131619 -0.0416052 0.637293
0.13121 -0.0427053 0.637318
0.13082 -0.0438137 0.637449
0.130418 -0.044918 0.637521
0.130029 -0.046028 0.637663
0.129653 -0.0471445 0.637879
0.12933 -0.0482877 0.638407
0.128989 -0.049424 0.638835
0.128648 -0.0505621 0.639267
0.128314 -0.0517053 0.639742
0.127947 -0.0528325 0.640022
0.127568 -0.0539545 0.640237
0.127197 -0.0550819 0.640502
0.12686 -0.0562293 0.64097
0.126496 -0.0573625 0.641274
0.126161 -0.0585145 0.641762
0.125811 -0.0596596 0.642164
0.125504 -0.0608319 0.642823
0.125221 -0.0620226 0.643639
0.124978 -0.0632413 0.644699
0.124766 -0.0644846 0.64596
0.124563 -0.0657392 0.647288
0.124345 -0.066989 0.648533
0.124083 -0.0682131 0.64951
0.123869 -0.069475 0.650796
0.123679 -0.070759 0.652239
0.123527 -0.072077 0.653937
0.123359 -0.0733895 0.655541
0.123161 -0.0746866 0.656974
0.12288 -0.0759256 0.657886
0.122529 -0.0771135 0.658356
0.122073 -0.0782208 0.658164
0.121593 -0.0793083 0.657819
0.12107 -0.0803586 0.65719
0.120526 -0.0813888 0.656421
0.119993 -0.0824249 0.655716
0.119505 -0.0834967 0.6553
0.119032 -0.0845797 0.654978
0.11862 -0.0857156 0.655055
0.118268 -0.0869061 0.655531
0.117932 -0.0881127 0.656112
0.117619 -0.0893434 0.656851
0.117324 -0.0905945 0.65772
0.117025 -0.0918452 0.658565
0.116715 -0.0930891 0.659346
0.116415 -0.0943463 0.6602
0.153332 -0.00378815 0.674105
0.154817 -0.00545411 0.677822
0.153193 -0.00649059 0.671801
0.152036 -0.00756153 0.668125
0.151182 -0.00865803 0.66597
0.150567 -0.00977939 0.665032
0.149905 -0.0108907 0.663839
0.149239 -0.0119973 0.662623
0.148534 -0.0130937 0.661201
0.147856 -0.0141896 0.659905
0.147133 -0.0152729 0.658367
0.146424 -0.0163535 0.656894
0.145751 -0.0174362 0.655599
0.145113 -0.0185213 0.654478
0.144472 -0.019602 0.653337
0.143859 -0.0206848 0.652336
0.143231 -0.0217605 0.651245
0.142587 -0.0228287 0.650066
0.141911 -0.0238846 0.648708
0.141272 -0.0249453 0.64754
0.140651 -0.0260063 0.646455
0.140046 -0.0270682 0.645454
0.139453 -0.0281301 0.644511
0.138908 -0.0292028 0.643824
0.138355 -0.0302707 0.643089
0.137832 -0.0313454 0.642513
0.137276 -0.0324069 0.641748
0.136715 -0.0334639 0.64095
0.136159 -0.0345199 0.640178
0.135609 -0.0355753 0.639436
0.135079 -0.036635 0.638794
0.134606 -0.0377141 0.638468
0.134134 -0.0387924 0.638147
0.133695 -0.0398826 0.638007
0.133271 -0.0409786 0.637954
0.132862 -0.0420804 0.637981
0.132464 -0.0431874 0.638075
0.132085 -0.0443026 0.638272
0.131683 -0.0454084 0.638342
0.131282 -0.0465146 0.638416
0.130892 -0.0476268 0.638558
0.130547 -0.048761 0.638959
0.130197 -0.0498943 0.639333
0.129847 -0.0510292 0.639712
0.129514 -0.052174 0.64019
0.129156 -0.0533075 0.640526
0.128777 -0.0544308 0.640739
0.128418 -0.0555659 0.641072
0.128092 -0.056721 0.641603
0.127739 -0.0578623 0.641976
0.127416 -0.0590232 0.642534
0.12709 -0.0601838 0.643073
0.126804 -0.0613717 0.643863
0.126546 -0.0625799 0.644824
0.126327 -0.0638165 0.646027
0.12612 -0.0650657 0.647311
0.125904 -0.0663141 0.64855
0.125651 -0.0675429 0.649574
0.125355 -0.0687459 0.65034
0.125122 -0.069996 0.651499
0.124938 -0.0712853 0.652967
0.124803 -0.0726168 0.654758
0.124639 -0.0739332 0.656373
0.124438 -0.0752296 0.657776
0.124132 -0.0764512 0.658526
0.123746 -0.0776138 0.658777
0.123268 -0.0787053 0.658451
0.122777 -0.0797853 0.658041
0.122264 -0.0808451 0.657483
0.121741 -0.081894 0.656857
0.12123 -0.0829509 0.656306
0.120753 -0.0840342 0.655969
0.120291 -0.0851292 0.655727
0.119878 -0.0862662 0.655801
0.119516 -0.0874491 0.656207
0.11917 -0.0886483 0.656722
0.118858 -0.0898808 0.657461
0.118563 -0.0911329 0.658322
0.118266 -0.0923871 0.65918
0.117957 -0.093633 0.65996
0.117658 -0.0948916 0.660811
0.116482 -0.0959759 0.663552
0.11734 -0.0961363 0.66155
0.154037 -0.00809067 0.672282
0.152801 -0.00914495 0.668224
0.151862 -0.0102261 0.665656
0.15125 -0.0113457 0.664735
0.150627 -0.0124605 0.66375
0.149974 -0.0135671 0.662609
0.149309 -0.0146676 0.661399
0.148583 -0.0157529 0.659861
0.147833 -0.0168283 0.658192
0.147117 -0.0179045 0.656689
0.146429 -0.0189815 0.655324
0.145754 -0.0200565 0.654021
0.145123 -0.0211366 0.652932
0.144515 -0.0222184 0.651965
0.143883 -0.0232908 0.65086
0.143204 -0.0243474 0.649501
0.142562 -0.0254089 0.64833
0.14191 -0.0264633 0.647096
0.141276 -0.0275185 0.645951
0.140656 -0.0285736 0.644874
0.140097 -0.0296433 0.644121
0.139544 -0.0307119 0.643393
0.139043 -0.0317944 0.642939
0.138498 -0.0328608 0.642245
0.137958 -0.0339265 0.641576
0.137403 -0.0349843 0.640818
0.136862 -0.0360442 0.64013
0.136342 -0.0371094 0.639554
0.135881 -0.038195 0.639303
0.13541 -0.0392756 0.638992
0.13499 -0.0403755 0.638965
0.134565 -0.0414732 0.638909
0.134145 -0.0425729 0.638882
0.133737 -0.0436772 0.638918
0.133357 -0.0447941 0.639112
0.132933 -0.0458922 0.639064
0.13252 -0.0469949 0.639075
0.132119 -0.0481029 0.639149
0.131761 -0.0492328 0.639479
0.131409 -0.0503661 0.639837
0.131058 -0.0515018 0.64021
0.130724 -0.0526475 0.640681
0.130366 -0.0537822 0.641016
0.129997 -0.0549124 0.641289
0.129641 -0.0560504 0.641637
0.129328 -0.0572146 0.642246
0.128998 -0.0583707 0.642753
0.128707 -0.0595522 0.643499
0.128406 -0.0607299 0.644185
0.128135 -0.0619293 0.64506
0.127893 -0.0631495 0.646109
0.127674 -0.0643891 0.647309
0.127434 -0.0656192 0.648386
0.127174 -0.0668409 0.649353
0.126895 -0.068054 0.650215
0.126587 -0.0692498 0.6509
0.126346 -0.0704957 0.652003
0.126177 -0.071797 0.653558
0.126047 -0.0731322 0.655359
0.125872 -0.074442 0.656898
0.125652 -0.0757242 0.658166
0.125313 -0.0769219 0.658708
0.124894 -0.07806 0.658754
0.124414 -0.0791504 0.658417
0.123922 -0.0802305 0.658007
0.12341 -0.081292 0.657464
0.122906 -0.0823578 0.656968
0.122416 -0.0834327 0.656552
0.12195 -0.0845265 0.65629
0.121497 -0.0856312 0.656114
0.121094 -0.0867784 0.656255
0.120734 -0.0879637 0.656668
0.120387 -0.0891633 0.657175
0.120074 -0.0903965 0.657909
0.11978 -0.0916496 0.658766
0.119484 -0.0929056 0.659624
0.119167 -0.0941447 0.660347
0.11887 -0.0954063 0.661208
0.118553 -0.0966516 0.66194
0.154748 -0.00967649 0.672087
0.153451 -0.0107141 0.667746
0.152543 -0.0117938 0.665341
0.151964 -0.0129167 0.664596
0.151366 -0.0140336 0.663743
0.150726 -0.0151404 0.662673
0.15001 -0.0162297 0.66121
0.149254 -0.0173063 0.659529
0.148519 -0.0183812 0.657948
0.147788 -0.0194513 0.656376
0.147079 -0.0205208 0.654909
0.146417 -0.0215956 0.653674
0.145793 -0.0226752 0.652635
0.145172 -0.0237517 0.651602
0.144504 -0.0248124 0.650311
0.143857 -0.0258744 0.649131
0.143178 -0.026923 0.647766
0.142525 -0.0279742 0.646533
0.141865 -0.0290191 0.645258
0.14128 -0.0300817 0.644371
0.140726 -0.0311508 0.643645
0.140234 -0.0322374 0.643251
0.139689 -0.0333047 0.642565
0.139171 -0.0343785 0.642017
0.138637 -0.0354451 0.641385
0.138109 -0.0365113 0.64078
0.137602 -0.0375827 0.640281
0.137153 -0.0386749 0.640103
0.136693 -0.0397615 0.639857
0.136275 -0.0408644 0.639847
0.135848 -0.0419632 0.639781
0.135426 -0.0430639 0.639745
0.135015 -0.0441691 0.639768
0.134612 -0.0452783 0.639842
0.134176 -0.0463723 0.639724
0.133751 -0.047471 0.63967
0.133336 -0.0485746 0.639676
0.132957 -0.0496951 0.639878
0.132591 -0.050823 0.64016
0.132226 -0.0519525 0.64045
0.13188 -0.053093 0.640851
0.131523 -0.0542288 0.641189
0.131168 -0.055367 0.641539
0.130825 -0.0565132 0.641963
0.130535 -0.057691 0.6427
0.130239 -0.0588681 0.643406
0.129974 -0.0600659 0.644296
0.129698 -0.061261 0.645132
0.129453 -0.062478 0.646155
0.129222 -0.0637075 0.647265
0.128982 -0.0649357 0.648331
0.128717 -0.066152 0.649254
0.128432 -0.0673592 0.650067
0.128141 -0.0685656 0.650851
0.127824 -0.0697568 0.651477
0.127596 -0.0710125 0.65265
0.127419 -0.0723093 0.654144
0.127279 -0.0736381 0.655871
0.127073 -0.0749257 0.657205
0.126821 -0.0761851 0.65827
0.12645 -0.0773592 0.658613
0.126022 -0.0784907 0.658602
0.12553 -0.0795719 0.658194
0.125038 -0.0806517 0.657784
0.124534 -0.0817208 0.657302
0.124041 -0.0827956 0.656876
0.12356 -0.0838793 0.656527
0.123103 -0.0849815 0.656326
0.12266 -0.0860947 0.656211
0.122268 -0.087252 0.656421
0.121908 -0.0884391 0.656841
0.121555 -0.0896329 0.657299
0.121241 -0.0908651 0.658018
0.120956 -0.0921269 0.658928
0.120653 -0.093376 0.65973
0.120338 -0.0946174 0.660463
0.120051 -0.0958892 0.661384
0.119734 -0.0971348 0.662112
0.155016 -0.0112004 0.669678
0.153782 -0.0122347 0.665671
0.153245 -0.0133648 0.665142
0.15269 -0.0144899 0.664514
0.152074 -0.0156023 0.663579
0.151392 -0.0166994 0.662303
0.150656 -0.0177815 0.660743
0.149931 -0.0188606 0.65923
0.149183 -0.0199294 0.657589
0.148482 -0.0210028 0.65618
0.14779 -0.0220731 0.654809
0.147139 -0.0231484 0.65364
0.146502 -0.024223 0.652538
0.145843 -0.0252879 0.65131
0.145183 -0.0263482 0.650072
0.144476 -0.0273913 0.64858
0.143803 -0.0284387 0.64726
0.143125 -0.0294795 0.645898
0.142512 -0.0305352 0.644874
0.141942 -0.0316008 0.644076
0.14145 -0.0326881 0.643682
0.140914 -0.0337599 0.643056
0.140409 -0.0348394 0.642586
0.139888 -0.0359117 0.642028
0.139372 -0.0369838 0.641494
0.138884 -0.0380645 0.641113
0.138449 -0.0391637 0.641014
0.138002 -0.0402574 0.640843
0.137585 -0.041363 0.640843
0.137166 -0.0424676 0.640829
0.136731 -0.0435651 0.640724
0.136305 -0.044666 0.640667
0.135888 -0.0457712 0.640666
0.135449 -0.0468657 0.640536
0.13501 -0.0479604 0.640412
0.134584 -0.0490601 0.640353
0.134181 -0.0501708 0.640425
0.133791 -0.0512886 0.640575
0.133404 -0.0524079 0.640737
0.133037 -0.0535382 0.641015
0.13268 -0.054675 0.641353
0.132347 -0.0558257 0.641828
0.132028 -0.0569861 0.642388
0.131775 -0.0581858 0.643334
0.131514 -0.0593843 0.644236
0.131287 -0.0606059 0.645341
0.131038 -0.061819 0.646328
0.130807 -0.0630469 0.647428
0.130542 -0.0642585 0.648339
0.130275 -0.0654721 0.649241
0.129985 -0.0666743 0.650012
0.12968 -0.0678695 0.650698
0.129383 -0.0690735 0.651443
0.129089 -0.0702824 0.65221
0.128865 -0.071542 0.653397
0.128657 -0.0728179 0.654691
0.128482 -0.0741228 0.656195
0.12824 -0.0753844 0.657298
0.127955 -0.0766196 0.658154
0.127564 -0.0777789 0.658372
0.127125 -0.0789019 0.658295
0.12663 -0.0799817 0.657877
0.126138 -0.0810611 0.657468
0.125634 -0.08213 0.656988
0.125152 -0.0832144 0.656637
0.124681 -0.0843062 0.656352
0.124224 -0.0854091 0.656156
0.12379 -0.0865301 0.656099
0.123399 -0.0876884 0.656313
0.123031 -0.088868 0.656676
0.122678 -0.0900623 0.657135
0.122365 -0.0912945 0.65785
0.122083 -0.0925587 0.658772
0.121781 -0.0938081 0.659571
0.121469 -0.0950514 0.660312
0.121181 -0.0963219 0.66122
0.120854 -0.0975572 0.661875
0.155527 -0.0127519 0.668499
0.154741 -0.0138475 0.666742
0.153967 -0.0149389 0.665035
0.15335 -0.0160522 0.664102
0.152679 -0.0171523 0.662897
0.151967 -0.0182402 0.661475
0.15127 -0.019326 0.660118
0.150549 -0.020402 0.658629
0.149871 -0.0214823 0.657355
0.149186 -0.0225565 0.656034
0.14853 -0.023633 0.654856
0.147877 -0.0247058 0.653682
0.1472 -0.0257685 0.652383
0.146537 -0.0268302 0.651144
0.145814 -0.0278708 0.649584
0.145137 -0.0289189 0.648254
0.144439 -0.0299561 0.646808
0.143796 -0.0310048 0.64564
0.143198 -0.0320631 0.644701
0.142691 -0.0331475 0.644238
0.142132 -0.0342125 0.643492
0.141638 -0.0352972 0.64309
0.141129 -0.0363751 0.642605
0.140624 -0.0374527 0.642138
0.140148 -0.0385392 0.641823
0.139744 -0.0396519 0.641895
0.13932 -0.040757 0.641858
0.138905 -0.0418656 0.641871
0.138488 -0.0429731 0.64187
0.138047 -0.0440708 0.641741
0.137596 -0.0451636 0.641557
0.137156 -0.0462601 0.641426
0.136704 -0.047351 0.641231
0.13625 -0.0484405 0.641029
0.13581 -0.0495355 0.640899
0.135384 -0.0506365 0.640844
0.134972 -0.0517442 0.640867
0.134571 -0.0528576 0.640953
0.134202 -0.0539879 0.64122
0.133857 -0.0551316 0.641623
0.133539 -0.0562916 0.642183
0.133244 -0.0574661 0.642878
0.133018 -0.0586815 0.643965
0.132772 -0.0598901 0.64495
0.132561 -0.061123 0.646144
0.132325 -0.0623452 0.647197
0.132095 -0.0635757 0.648297
0.131817 -0.064781 0.649127
0.131538 -0.0659882 0.649949
0.131235 -0.0671838 0.650642
0.130931 -0.0683818 0.651337
0.130641 -0.0695917 0.652117
0.130353 -0.0708054 0.65291
0.13012 -0.072061 0.654042
0.129877 -0.0733135 0.655118
0.129656 -0.0745856 0.656329
0.129364 -0.0758122 0.65713
0.129054 -0.0770282 0.657825
0.12865 -0.0781778 0.657965
0.128201 -0.0792931 0.657828
0.127707 -0.080373 0.657417
0.127223 -0.0814588 0.657061
0.126718 -0.0825269 0.656579
0.126238 -0.0836122 0.65624
0.125779 -0.0847147 0.656038
0.125334 -0.0858269 0.655913
0.1249 -0.0869481 0.655857
0.124508 -0.0881059 0.656067
0.124141 -0.0892853 0.656427
0.123788 -0.0904794 0.656882
0.123476 -0.0917119 0.657597
0.123195 -0.0929768 0.658519
0.122886 -0.0942187 0.659264
0.122564 -0.0954525 0.659938
0.122267 -0.096712 0.66077
0.121929 -0.0979358 0.661348
0.157604 -0.0133221 0.672921
0.156513 -0.0143759 0.669682
0.155448 -0.0154232 0.666555
0.15457 -0.0164927 0.664338
0.153912 -0.0175955 0.663204
0.153217 -0.0186872 0.661882
0.152562 -0.0197824 0.660748
0.151881 -0.0208682 0.65948
0.151242 -0.0219587 0.658416
0.150581 -0.0230404 0.657234
0.149947 -0.0241243 0.65618
0.1493 -0.0252012 0.655052
0.148617 -0.0262649 0.653736
0.147924 -0.0273212 0.652358
0.147183 -0.0283593 0.650725
0.146501 -0.0294083 0.649387
0.145788 -0.0304432 0.647877
0.145107 -0.0314825 0.646526
0.144478 -0.0325332 0.645437
0.143951 -0.0336129 0.644879
0.143351 -0.0346661 0.64393
0.142834 -0.0357441 0.643412
0.142337 -0.0368272 0.642995
0.141842 -0.0379095 0.642588
0.141365 -0.0389968 0.642272
0.14096 -0.0401104 0.642341
0.14055 -0.0412221 0.642379
0.140136 -0.0423324 0.642398
0.13972 -0.0434418 0.642405
0.139276 -0.0445398 0.642267
0.138825 -0.0456336 0.642081
0.138371 -0.0467258 0.641882
0.137918 -0.0478178 0.64169
0.137464 -0.0489084 0.641488
0.137023 -0.050004 0.641354
0.136594 -0.0511053 0.641289
0.136179 -0.0522131 0.6413
0.135777 -0.0533268 0.641377
0.135407 -0.054458 0.641641
0.135074 -0.0556092 0.64211
0.134769 -0.0567773 0.64274
0.134491 -0.0579622 0.643522
0.13429 -0.0591933 0.644748
0.134068 -0.0604173 0.645865
0.13387 -0.0616594 0.647124
0.133635 -0.0628845 0.648179
0.133395 -0.0641106 0.649212
0.133094 -0.0653037 0.649905
0.132791 -0.0664981 0.65059
0.132478 -0.0676889 0.651222
0.13218 -0.0688915 0.651942
0.131904 -0.070112 0.6528
0.131617 -0.0713286 0.6536
0.131362 -0.0725698 0.65459
0.131072 -0.0737908 0.655382
0.130791 -0.0750214 0.656232
0.130451 -0.0762133 0.656742
0.130096 -0.0773954 0.657159
0.129682 -0.0785362 0.657233
0.129233 -0.0796506 0.657097
0.128739 -0.0807302 0.65669
0.128253 -0.0818139 0.656327
0.12777 -0.0828981 0.655977
0.127301 -0.0839924 0.655711
0.126856 -0.0851056 0.655593
0.126433 -0.0862359 0.655605
0.12601 -0.0873662 0.655616
0.125607 -0.0885144 0.655756
0.125239 -0.0896927 0.656107
0.124884 -0.0908847 0.656547
0.124564 -0.0921097 0.657207
0.124285 -0.0933745 0.658126
0.123977 -0.0946161 0.658868
0.123645 -0.0958391 0.659468
0.123327 -0.0970778 0.66016
0.158501 -0.0149417 0.67363
0.157104 -0.0159382 0.668904
0.155941 -0.0169604 0.665306
0.155133 -0.018037 0.663448
0.154491 -0.0191396 0.6624
0.153877 -0.0202443 0.661484
0.153226 -0.0213375 0.660374
0.152614 -0.022436 0.65946
0.151967 -0.0235229 0.658361
0.15132 -0.0246057 0.657253
0.150682 -0.0256871 0.656187
0.150007 -0.0267548 0.654923
0.149319 -0.0278149 0.653591
0.148573 -0.0288538 0.651947
0.147912 -0.0299112 0.650732
0.147197 -0.0309483 0.649232
0.146513 -0.0319897 0.647886
0.145841 -0.0330294 0.646586
0.14528 -0.0341007 0.645861
0.144634 -0.0351408 0.644685
0.144076 -0.0362066 0.643961
0.143566 -0.0372864 0.643481
0.143071 -0.03837 0.643079
0.142582 -0.0394544 0.642708
0.142177 -0.0405692 0.642777
0.141776 -0.0416856 0.642866
0.141353 -0.0427938 0.642841
0.140949 -0.0439093 0.642914
0.140517 -0.0450134 0.642838
0.140073 -0.0461124 0.642702
0.139621 -0.0472069 0.642517
0.139181 -0.0483059 0.642393
0.138717 -0.0493938 0.642143
0.138284 -0.0504953 0.64206
0.137844 -0.0515926 0.641935
0.137417 -0.0526961 0.641882
0.137002 -0.0538056 0.641898
0.136643 -0.0549435 0.64222
0.136324 -0.0561035 0.642764
0.136035 -0.0572814 0.643477
0.135781 -0.0584817 0.644396
0.135592 -0.0597212 0.645681
0.135372 -0.0609479 0.646799
0.135162 -0.0621852 0.647984
0.134927 -0.0634121 0.649034
0.134676 -0.0646334 0.649999
0.134377 -0.065829 0.650696
0.134076 -0.0670265 0.65139
0.133764 -0.0682197 0.652025
0.133465 -0.069424 0.652741
0.133178 -0.0706391 0.653532
0.132869 -0.0718418 0.654194
0.132576 -0.0730587 0.654959
0.132237 -0.0742472 0.655464
0.131887 -0.0754291 0.655902
0.13149 -0.0765796 0.656071
0.131089 -0.0777276 0.656214
0.130653 -0.0788508 0.656156
0.130195 -0.0799569 0.655965
0.129714 -0.0810442 0.655634
0.129249 -0.0821432 0.655399
0.128799 -0.0832518 0.655245
0.128353 -0.0843642 0.655122
0.127933 -0.0854963 0.65515
0.127532 -0.0866448 0.655297
0.12712 -0.0877842 0.655375
0.126707 -0.0889232 0.655448
0.126327 -0.0900917 0.655729
0.125962 -0.0912737 0.656099
0.125632 -0.0924885 0.656688
0.125333 -0.0937341 0.657475
0.125014 -0.0949646 0.658142
0.124669 -0.0961742 0.658656
0.124496 -0.0975486 0.66025
0.159009 -0.016498 0.672429
0.157611 -0.0174831 0.667723
0.156609 -0.0185269 0.66493
0.155836 -0.0196062 0.663251
0.155102 -0.0206878 0.661755
0.154516 -0.0217958 0.66098
0.153955 -0.0229068 0.660329
0.153348 -0.0240048 0.659442
0.152753 -0.0251024 0.658609
0.15213 -0.0261899 0.65763
0.151453 -0.0272601 0.656374
0.150761 -0.0283217 0.655035
0.150007 -0.0293612 0.653372
0.14933 -0.030417 0.652093
0.148638 -0.0314635 0.650727
0.147942 -0.032504 0.649333
0.147229 -0.0335338 0.64784
0.14663 -0.0345954 0.64693
0.145948 -0.0356257 0.645581
0.145348 -0.0366792 0.644649
0.144823 -0.0377558 0.644104
0.144327 -0.0388405 0.643702
0.143824 -0.0399211 0.643261
0.143418 -0.0410367 0.643323
0.143015 -0.0421543 0.643408
0.142604 -0.0432684 0.643447
0.142211 -0.0443903 0.643584
0.141781 -0.045497 0.643523
0.141337 -0.0465975 0.643389
0.140896 -0.0476988 0.643268
0.140468 -0.0488052 0.643216
0.140007 -0.0498961 0.642983
0.139598 -0.0510107 0.643033
0.139167 -0.0521152 0.642967
0.13874 -0.0532212 0.642919
0.138326 -0.0543335 0.642942
0.13798 -0.0554802 0.643335
0.137662 -0.0566434 0.643887
0.137375 -0.0578246 0.644606
0.137123 -0.0590285 0.645534
0.136924 -0.0602647 0.646756
0.136703 -0.0614934 0.647864
0.136483 -0.0627265 0.648982
0.136238 -0.0639495 0.64997
0.135976 -0.0651667 0.650872
0.135678 -0.066365 0.651574
0.135366 -0.0675578 0.652203
0.135044 -0.0687468 0.652782
0.134733 -0.0699447 0.653424
0.134411 -0.0711378 0.654005
0.134062 -0.0723156 0.654439
0.13372 -0.0735002 0.654918
0.133334 -0.0746557 0.655143
0.132923 -0.0757955 0.65523
0.13251 -0.0769335 0.655301
0.132085 -0.0780629 0.655302
0.131639 -0.079177 0.65518
0.131182 -0.0802824 0.654994
0.130723 -0.081385 0.654791
0.130273 -0.0824942 0.654644
0.129846 -0.0836212 0.654636
0.129426 -0.0847531 0.654665
0.12902 -0.085896 0.654774
0.12862 -0.0870449 0.654925
0.128207 -0.0881835 0.654998
0.127784 -0.0893136 0.65501
0.127395 -0.0904727 0.655226
0.127029 -0.0916538 0.65559
0.126698 -0.0928665 0.656165
0.126378 -0.094092 0.656814
0.126047 -0.0953098 0.657398
0.125691 -0.096508 0.657838
0.159465 -0.0180411 0.670991
0.158268 -0.0190527 0.667278
0.157322 -0.0201016 0.664775
0.15643 -0.021153 0.662521
0.155737 -0.0222394 0.66123
0.155233 -0.023364 0.660866
0.154692 -0.0244784 0.660314
0.154151 -0.025591 0.659763
0.153567 -0.0266907 0.658991
0.152903 -0.0277667 0.657812
0.152223 -0.0288344 0.656551
0.151489 -0.0298825 0.65501
0.150822 -0.0309443 0.653798
0.150139 -0.0319969 0.652495
0.149415 -0.0330321 0.650976
0.148657 -0.034051 0.649271
0.148002 -0.0350974 0.648088
0.147273 -0.0361145 0.646514
0.146631 -0.037156 0.645383
0.146093 -0.0382295 0.644775
0.145606 -0.0393191 0.644425
0.145087 -0.0403957 0.64391
0.144666 -0.0415075 0.6439
0.144249 -0.0426208 0.643912
0.14385 -0.0437412 0.644016
0.143449 -0.044861 0.644108
0.14303 -0.0459741 0.644112
0.14261 -0.0470861 0.644104
0.14218 -0.0481939 0.644046
0.141755 -0.0493037 0.644013
0.141304 -0.0504014 0.643842
0.140907 -0.0515238 0.643959
0.140476 -0.0526304 0.643897
0.140063 -0.0537455 0.64393
0.139661 -0.0548662 0.644022
0.139327 -0.0560216 0.644482
0.139009 -0.0571871 0.64503
0.138722 -0.0583709 0.64575
0.13847 -0.0595771 0.646673
0.138261 -0.0608099 0.647831
0.138029 -0.0620348 0.648875
0.137797 -0.0632633 0.649922
0.137542 -0.0644827 0.65085
0.13727 -0.0656959 0.651694
0.136973 -0.0668964 0.652395
0.13665 -0.0680841 0.65296
0.136304 -0.06926 0.653405
0.135967 -0.0704428 0.653897
0.135606 -0.0716118 0.654256
0.13522 -0.0727657 0.654476
0.134831 -0.0739187 0.654682
0.134407 -0.0750483 0.654689
0.133959 -0.0761613 0.654558
0.133531 -0.077288 0.654543
0.133082 -0.0783993 0.654405
0.132635 -0.0795116 0.654278
0.132189 -0.0806236 0.654153
0.131731 -0.081726 0.653957
0.131273 -0.0828284 0.653767
0.130862 -0.0839659 0.653845
0.130457 -0.0851086 0.65396
0.130052 -0.0862514 0.654074
0.129663 -0.0874082 0.654287
0.12927 -0.0885625 0.654478
0.128858 -0.0897016 0.654556
0.12847 -0.090861 0.654775
0.128105 -0.0920416 0.655137
0.127771 -0.0932517 0.655694
0.127431 -0.0944575 0.656209
0.127088 -0.0956641 0.656719
0.126722 -0.0968508 0.657086
0.16015 -0.019623 0.670665
0.159034 -0.0206433 0.667366
0.157979 -0.0216651 0.664348
0.157144 -0.0227239 0.662381
0.156526 -0.0238249 0.661465
0.156042 -0.0249543 0.661204
0.155545 -0.0260794 0.660873
0.15499 -0.0271887 0.660255
0.154364 -0.0282771 0.659281
0.153692 -0.0293497 0.658074
0.152956 -0.0304001 0.65654
0.152274 -0.0314604 0.655265
0.15161 -0.0325216 0.654076
0.150867 -0.033554 0.652478
0.150101 -0.0345739 0.650761
0.149437 -0.0356202 0.649545
0.148702 -0.0366385 0.647961
0.148012 -0.0376661 0.646593
0.147446 -0.0387326 0.645855
0.146943 -0.0398187 0.645429
0.146382 -0.0408821 0.644707
0.145935 -0.0419858 0.644565
0.145493 -0.0430913 0.644453
0.145093 -0.0442126 0.644552
0.144692 -0.0453341 0.644649
0.144286 -0.0464539 0.644722
0.143879 -0.0475733 0.644787
0.143472 -0.0486928 0.644853
0.143058 -0.0498094 0.644881
0.142629 -0.0509195 0.644834
0.142257 -0.0520557 0.645085
0.141851 -0.0531766 0.645157
0.141462 -0.0543064 0.645324
0.141084 -0.0554418 0.645545
0.140762 -0.0566068 0.646072
0.140443 -0.0577756 0.646621
0.140155 -0.0589626 0.647339
0.13989 -0.0601647 0.648185
0.139659 -0.0613884 0.649217
0.139403 -0.0626029 0.650129
0.13915 -0.0638219 0.651056
0.138872 -0.0650302 0.651853
0.138577 -0.0662315 0.652562
0.138254 -0.0674192 0.653126
0.137908 -0.0685942 0.65356
0.137548 -0.0697622 0.653919
0.137175 -0.0709236 0.65421
0.136787 -0.0720764 0.654419
0.136375 -0.0732142 0.654496
0.13594 -0.0743361 0.654436
0.135469 -0.0754336 0.654176
0.134984 -0.0765205 0.653836
0.134531 -0.0776284 0.653676
0.13405 -0.0787159 0.653357
0.133594 -0.0798199 0.653176
0.133147 -0.0809295 0.653043
0.132699 -0.0820379 0.652906
0.132231 -0.0831308 0.652654
0.131832 -0.0842753 0.652794
0.131437 -0.0854248 0.65297
0.131043 -0.0865749 0.653145
0.130666 -0.0877399 0.653425
0.130295 -0.0889108 0.65374
0.129907 -0.0900683 0.653954
0.129532 -0.0912386 0.654253
0.129168 -0.0924195 0.654617
0.128825 -0.09362 0.655109
0.128482 -0.0948225 0.655604
0.128131 -0.0960197 0.656052
0.127766 -0.0972061 0.656421
0.161519 -0.0186378 0.675163
0.163113 -0.0176764 0.680713
0.164745 -0.0181954 0.682749
0.16343 -0.0192107 0.67858
0.162044 -0.0201977 0.674048
0.160797 -0.0211971 0.670159
0.159645 -0.0222028 0.666704
0.158715 -0.0232452 0.664307
0.15802 -0.0243322 0.663029
0.157516 -0.0254596 0.662673
0.157018 -0.0265876 0.662348
0.156421 -0.027689 0.661532
0.155803 -0.0287821 0.660611
0.155141 -0.0298602 0.659471
0.154417 -0.0309166 0.658013
0.153743 -0.0319821 0.656794
0.153089 -0.0330493 0.655669
0.152348 -0.0340857 0.654102
0.15159 -0.035111 0.652442
0.150924 -0.0361601 0.651233
0.150199 -0.0371848 0.649714
0.149501 -0.0382136 0.648329
0.148894 -0.0392692 0.647394
0.148348 -0.0403432 0.646761
0.147756 -0.041398 0.645893
0.147281 -0.0424938 0.645615
0.146813 -0.0435912 0.64537
0.146398 -0.0447086 0.645394
0.145994 -0.045831 0.64548
0.145578 -0.0469482 0.645499
0.145183 -0.048075 0.645634
0.144791 -0.0492031 0.64578
0.144388 -0.0503272 0.645874
0.143972 -0.0514451 0.645893
0.143611 -0.0525893 0.646209
0.14322 -0.0537197 0.646361
0.142845 -0.0548589 0.646603
0.142492 -0.0560097 0.646963
0.142183 -0.0571847 0.647562
0.141866 -0.0583572 0.648118
0.141565 -0.0595404 0.648763
0.141287 -0.0607386 0.649538
0.14102 -0.061946 0.650379
0.140741 -0.0631493 0.651155
0.140462 -0.0643564 0.651943
0.140157 -0.0655509 0.652589
0.139849 -0.0667462 0.653225
0.139513 -0.0679271 0.65371
0.139141 -0.0690879 0.654002
0.138767 -0.0702486 0.654285
0.138368 -0.0713948 0.654435
0.137945 -0.0725257 0.654447
0.13751 -0.0736483 0.65439
0.137049 -0.0747539 0.654193
0.136541 -0.0758265 0.65373
0.136029 -0.0768943 0.653239
0.135553 -0.0779854 0.652949
0.13505 -0.0790558 0.652501
0.134584 -0.0801512 0.652262
0.134136 -0.0812594 0.652128
0.133688 -0.0823662 0.651987
0.133217 -0.0834553 0.651716
0.132814 -0.0845958 0.651835
0.132427 -0.0857497 0.65205
0.132046 -0.0869087 0.652298
0.131684 -0.0880838 0.652655
0.131329 -0.0892669 0.653062
0.130965 -0.0904435 0.653414
0.130594 -0.0916162 0.653732
0.130232 -0.0927976 0.654103
0.129889 -0.0939976 0.654591
0.129536 -0.09519 0.655019
0.129281 -0.0964726 0.656038
0.129086 -0.0978146 0.657427
0.165044 -0.0197304 0.680536
0.163841 -0.0207558 0.676917
0.162623 -0.0217652 0.673204
0.161438 -0.0227688 0.669628
0.160487 -0.0238114 0.667157
0.159761 -0.0248966 0.665752
0.159231 -0.026023 0.66528
0.158668 -0.0271399 0.664652
0.158034 -0.0282365 0.663674
0.157383 -0.029325 0.662607
0.156691 -0.0303984 0.66133
0.155935 -0.0314495 0.659735
0.155229 -0.0325091 0.658375
0.154554 -0.0335732 0.657162
0.153798 -0.034608 0.655541
0.153055 -0.0356407 0.653969
0.152404 -0.036698 0.652852
0.151688 -0.0377292 0.651401
0.150984 -0.0387591 0.649999
0.150354 -0.0398101 0.648964
0.149762 -0.0408707 0.648108
0.149151 -0.0419215 0.647159
0.148648 -0.0430094 0.646745
0.148151 -0.0440981 0.646359
0.14772 -0.0452114 0.646306
0.147311 -0.0463339 0.646369
0.146883 -0.0474484 0.646331
0.146502 -0.048583 0.646538
0.146124 -0.0497195 0.646761
0.145734 -0.0508514 0.646922
0.145343 -0.0519834 0.647079
0.144985 -0.0531313 0.647408
0.144607 -0.0542713 0.647638
0.144244 -0.0554188 0.647943
0.143905 -0.0565796 0.648377
0.143588 -0.0577532 0.648932
0.143262 -0.0589243 0.649442
0.142948 -0.0601036 0.650019
0.142644 -0.0612906 0.650654
0.142351 -0.0624857 0.651349
0.142046 -0.0636771 0.651987
0.14174 -0.0648706 0.652626
0.141408 -0.066051 0.653124
0.141084 -0.0672384 0.653671
0.140724 -0.0684063 0.654026
0.140329 -0.0695537 0.654188
0.139941 -0.0707069 0.654398
0.139518 -0.0718377 0.654407
0.139071 -0.0729538 0.654292
0.138622 -0.0740677 0.65416
0.138148 -0.0751647 0.653892
0.137614 -0.0762197 0.653287
0.137086 -0.0772765 0.652713
0.136606 -0.0783641 0.6524
0.136078 -0.0794167 0.651819
0.135601 -0.0805032 0.651516
0.135152 -0.0816093 0.651374
0.134691 -0.0827058 0.651161
0.134187 -0.0837687 0.650701
0.133772 -0.0848983 0.650748
0.133383 -0.0860484 0.650946
0.133015 -0.0872158 0.651262
0.132669 -0.0884027 0.651712
0.132354 -0.0896162 0.65234
0.132015 -0.0908127 0.652836
0.131666 -0.0920028 0.653277
0.131307 -0.0931858 0.653658
0.130975 -0.0943941 0.654204
0.130622 -0.0955865 0.654632
0.130493 -0.0969811 0.656389
0.164221 -0.0222886 0.675117
0.16321 -0.0233321 0.672405
0.162235 -0.024374 0.669845
0.161474 -0.0254559 0.668292
0.160897 -0.0265761 0.66761
0.160276 -0.0276829 0.666712
0.159613 -0.0287761 0.66561
0.158953 -0.0298658 0.664513
0.158245 -0.0309386 0.663177
0.157493 -0.0319944 0.661623
0.156777 -0.0330549 0.660234
0.156069 -0.0341125 0.658871
0.155295 -0.0351451 0.657181
0.154576 -0.0361887 0.655747
0.153917 -0.0372469 0.654604
0.153198 -0.0382806 0.653156
0.152485 -0.039311 0.651727
0.151833 -0.0403579 0.650598
0.15121 -0.0414108 0.649602
0.150594 -0.0424626 0.648636
0.150074 -0.0435473 0.648147
0.149562 -0.0446335 0.647698
0.149113 -0.0457426 0.647558
0.148678 -0.0468574 0.647495
0.148233 -0.0479673 0.647377
0.14784 -0.0490988 0.64752
0.14745 -0.0502325 0.647685
0.147063 -0.0513678 0.647862
0.146697 -0.0525136 0.648152
0.146341 -0.0536649 0.648493
0.145987 -0.0548184 0.648847
0.145647 -0.0559802 0.649276
0.145322 -0.0571507 0.649784
0.144995 -0.0583225 0.650288
0.144668 -0.0594959 0.650793
0.144326 -0.0606637 0.651226
0.143996 -0.0618391 0.651719
0.143676 -0.0630224 0.652275
0.143335 -0.0641958 0.652719
0.143002 -0.0653753 0.653207
0.142655 -0.0665487 0.653625
0.142307 -0.0677231 0.654039
0.141926 -0.0688791 0.654278
0.14153 -0.0700274 0.65444
0.14113 -0.0711736 0.654579
0.140692 -0.0722959 0.65451
0.140231 -0.0734039 0.654322
0.139768 -0.0745094 0.654117
0.13927 -0.0755907 0.653718
0.13871 -0.0766284 0.652974
0.138156 -0.0776675 0.65226
0.137649 -0.0787363 0.651802
0.137097 -0.0797709 0.651087
0.136604 -0.0808455 0.6507
0.136143 -0.0819419 0.650491
0.135671 -0.0830289 0.650216
0.135156 -0.0840825 0.649697
0.134729 -0.0852016 0.649676
0.134342 -0.0863513 0.649878
0.133988 -0.0875275 0.650268
0.133659 -0.0887261 0.650808
0.133359 -0.0899498 0.651513
0.133043 -0.091164 0.652135
0.132705 -0.0923623 0.652636
0.132347 -0.0935448 0.653017
0.132017 -0.0947537 0.653569
0.131676 -0.095955 0.654058
0.13167 -0.0974571 0.656522
0.164791 -0.0238559 0.67423
0.163974 -0.0249358 0.672442
0.163182 -0.0260154 0.670765
0.162553 -0.0271277 0.669847
0.161877 -0.0282253 0.668705
0.161178 -0.0293129 0.667446
0.160499 -0.0304012 0.666274
0.159774 -0.0314726 0.664871
0.159001 -0.0325256 0.663231
0.158277 -0.0335868 0.661819
0.157544 -0.0346403 0.660355
0.156789 -0.0356818 0.658778
0.15608 -0.0367317 0.657408
0.15543 -0.0377961 0.656325
0.154705 -0.0388314 0.654867
0.153972 -0.0398585 0.653358
0.15329 -0.0408981 0.652093
0.152651 -0.0419483 0.651031
0.152033 -0.0430027 0.650071
0.151512 -0.04409 0.649585
0.151011 -0.0451834 0.649198
0.150561 -0.0462953 0.649059
0.150124 -0.0474125 0.648991
0.149687 -0.0485291 0.648921
0.14928 -0.049658 0.648998
0.148886 -0.0507933 0.649148
0.148497 -0.051931 0.64932
0.148131 -0.0530797 0.649611
0.147752 -0.0542235 0.649835
0.147409 -0.0553854 0.65025
0.14707 -0.0565504 0.650683
0.146732 -0.0577182 0.651131
0.146404 -0.0588921 0.651628
0.146073 -0.0600663 0.652111
0.145703 -0.0612224 0.652399
0.145346 -0.062386 0.652753
0.145002 -0.0635581 0.653177
0.144622 -0.0647123 0.653418
0.144252 -0.0658726 0.65371
0.14388 -0.0670329 0.653994
0.143509 -0.0681946 0.654282
0.143117 -0.0693453 0.654463
0.142709 -0.0704871 0.654561
0.142307 -0.0716329 0.654692
0.141867 -0.072755 0.654617
0.141404 -0.073862 0.654415
0.140929 -0.0749605 0.654149
0.140417 -0.0760333 0.653679
0.139831 -0.0770542 0.6528
0.13925 -0.0780755 0.651947
0.138696 -0.0791113 0.651231
0.138116 -0.0801268 0.650374
0.137599 -0.0811829 0.649853
0.137123 -0.0822674 0.649561
0.136651 -0.0833526 0.649283
0.136159 -0.0844226 0.648897
0.135736 -0.085543 0.648892
0.135361 -0.0867014 0.649163
0.135017 -0.0878845 0.649605
0.13469 -0.0890829 0.650146
0.134381 -0.0902987 0.650797
0.134066 -0.0915119 0.651416
0.133718 -0.0926999 0.651849
0.133357 -0.0938791 0.652212
0.133042 -0.0950989 0.65284
0.132726 -0.0963209 0.65347
0.132846 -0.0979309 0.656636
0.164772 -0.0265487 0.672641
0.164101 -0.0276547 0.671542
0.163395 -0.0287479 0.670271
0.16268 -0.0298344 0.668951
0.161987 -0.0309219 0.667727
0.161258 -0.0319949 0.66632
0.160496 -0.0330538 0.664751
0.15978 -0.0341204 0.663393
0.15903 -0.0351718 0.661864
0.158292 -0.0362215 0.660386
0.157575 -0.0372722 0.658996
0.156906 -0.0383336 0.657835
0.156163 -0.0393658 0.656303
0.155433 -0.040397 0.654827
0.154735 -0.0414341 0.6535
0.154071 -0.0424784 0.652331
0.153478 -0.0435445 0.651502
0.152971 -0.0446405 0.651097
0.152483 -0.0457422 0.650782
0.152035 -0.0468588 0.650666
0.15161 -0.0479838 0.65066
0.151173 -0.0491041 0.650597
0.150762 -0.0502348 0.650659
0.150353 -0.0513672 0.650738
0.149959 -0.0525059 0.650887
0.149577 -0.053651 0.651102
0.149172 -0.0547859 0.651198
0.148816 -0.0559447 0.651549
0.148464 -0.0571065 0.651918
0.148101 -0.0582643 0.652235
0.147746 -0.0594274 0.652596
0.147387 -0.0605893 0.652933
0.14699 -0.0617331 0.653081
0.146606 -0.0628843 0.653297
0.146236 -0.064044 0.653588
0.145842 -0.0651909 0.65375
0.145459 -0.0663451 0.653973
0.145084 -0.0675049 0.654243
0.144714 -0.0686681 0.654537
0.144332 -0.0698256 0.654771
0.143924 -0.0709684 0.65487
0.143509 -0.0721071 0.654931
0.143069 -0.0732301 0.654856
0.142595 -0.0743309 0.654598
0.142097 -0.0754155 0.654212
0.141569 -0.0764789 0.653663
0.140977 -0.0774971 0.652764
0.14037 -0.078501 0.651773
0.139789 -0.0795193 0.650922
0.139195 -0.0805246 0.649992
0.138662 -0.0815692 0.649387
0.138174 -0.0826444 0.649029
0.137701 -0.0837293 0.648752
0.137222 -0.0848087 0.648442
0.136801 -0.0859303 0.648448
0.136438 -0.0870969 0.64878
0.136093 -0.0882788 0.649213
0.135754 -0.0894666 0.649678
0.135432 -0.0906709 0.650249
0.135105 -0.0918731 0.650793
0.134732 -0.0930401 0.651084
0.134362 -0.0942098 0.651387
0.13407 -0.0954475 0.652139
0.133793 -0.0967022 0.652988
0.134022 -0.0984053 0.656752
0.16473 -0.0292256 0.670948
0.164057 -0.0303242 0.669838
0.163377 -0.031417 0.668687
0.162658 -0.032495 0.667349
0.161895 -0.0335556 0.665791
0.16118 -0.0346244 0.66445
0.160416 -0.0356738 0.662869
0.159677 -0.0367251 0.661398
0.15894 -0.0377718 0.659932
0.158267 -0.0388339 0.658762
0.157515 -0.0398654 0.657206
0.156795 -0.0409018 0.655792
0.156106 -0.0419443 0.654524
0.155465 -0.0429991 0.653477
0.154886 -0.044073 0.652729
0.154405 -0.0451816 0.65246
0.153945 -0.0462971 0.652289
0.153525 -0.0474277 0.652314
0.153114 -0.0485625 0.652388
0.152717 -0.0497028 0.652526
0.152295 -0.0508332 0.652542
0.151874 -0.0519639 0.652563
0.151461 -0.0530984 0.652625
0.151049 -0.0542334 0.652692
0.150613 -0.0553575 0.652639
0.15023 -0.0565068 0.652855
0.14985 -0.0576579 0.653086
0.149446 -0.0587984 0.653197
0.149063 -0.0599493 0.653413
0.148664 -0.0610929 0.653548
0.148266 -0.0622379 0.653693
0.14787 -0.0633843 0.653847
0.147487 -0.0645382 0.654069
0.147089 -0.0656849 0.654217
0.146703 -0.0668381 0.654421
0.146317 -0.0679929 0.654633
0.145946 -0.069157 0.654923
0.145576 -0.0703226 0.655219
0.14518 -0.0714736 0.655379
0.144754 -0.0726069 0.655383
0.144313 -0.073731 0.655309
0.143826 -0.0748254 0.654989
0.143302 -0.0758946 0.65447
0.142736 -0.0769344 0.653725
0.142138 -0.0779494 0.652801
0.141504 -0.0789359 0.651674
0.140897 -0.0799372 0.650692
0.140288 -0.0809322 0.649687
0.139738 -0.0819655 0.648999
0.139227 -0.0830239 0.648518
0.138767 -0.0841176 0.648311
0.138313 -0.0852155 0.648141
0.137906 -0.0863476 0.648225
0.137544 -0.0875147 0.648558
0.137197 -0.0886943 0.648973
0.136831 -0.0898616 0.649293
0.136485 -0.0910458 0.649722
0.136135 -0.0922282 0.65013
0.135749 -0.0933827 0.65034
0.135386 -0.0945578 0.650684
0.135119 -0.0958152 0.651569
0.134875 -0.0970965 0.652592
0.135025 -0.0987273 0.655871
0.163923 -0.032958 0.667717
0.163186 -0.0340268 0.666296
0.162488 -0.0351018 0.665049
0.161735 -0.0361561 0.663539
