ply
format ascii 1.0
element vertex 1729
property float x
property float y
property float z
end_header
0.245701 0.001294 0.662287
0.245693 0.000125491 0.663563
0.245776 -0.00102609 0.665202
0.245878 -0.00217757 0.666917
0.245926 -0.00334424 0.668423
0.245948 -0.00452034 0.669835
0.245932 -0.00570711 0.671098
0.247486 -0.00659951 0.678572
0.249167 -0.00749185 0.686576
0.247982 -0.00834829 0.688498
0.281612 0.134902 0.656186
0.281182 0.133499 0.655972
0.28066 0.132027 0.655453
0.280088 0.130518 0.654768
0.279442 0.128956 0.653841
0.278753 0.127365 0.652766
0.277974 0.125709 0.651387
0.277231 0.124087 0.650126
0.276516 0.122489 0.64895
0.275773 0.120875 0.647676
0.275163 0.119364 0.64684
0.274604 0.117893 0.646166
0.274094 0.116461 0.645653
0.273674 0.115096 0.645437
0.273366 0.113813 0.645592
0.273093 0.112556 0.645866
0.272973 0.111408 0.646652
0.272924 0.110307 0.647674
0.272881 0.109209 0.64872
0.272877 0.108136 0.649899
0.27287 0.107058 0.65107
0.272671 0.105847 0.651597
0.272456 0.104624 0.652071
0.272209 0.10338 0.652439
0.271929 0.102112 0.652691
0.271616 0.100824 0.652833
0.271403 0.099602 0.653316
0.271079 0.0983069 0.653419
0.270748 0.097008 0.653499
0.270289 0.0956271 0.653139
0.269761 0.0942047 0.652542
0.269101 0.0927011 0.651489
0.268392 0.0911705 0.650261
0.267536 0.0895531 0.648523
0.266638 0.0879162 0.646635
0.265819 0.0863342 0.645014
0.265037 0.0847803 0.643512
0.264273 0.0832426 0.642067
0.263531 0.0817237 0.640693
0.262862 0.0802526 0.639565
0.262138 0.0787536 0.638242
0.261427 0.0772669 0.636957
0.260737 0.0757972 0.635742
0.260125 0.0743771 0.634796
0.259497 0.0729516 0.63379
0.258859 0.071524 0.632741
0.258258 0.0701212 0.631819
0.257714 0.0687537 0.631094
0.257179 0.0673943 0.630399
0.25667 0.0660517 0.629789
0.256239 0.0647535 0.629453
0.255769 0.063437 0.628978
0.255281 0.0621133 0.628436
0.254735 0.0607617 0.627683
0.254241 0.0594404 0.627113
0.253697 0.0580962 0.626361
0.253214 0.056786 0.625825
0.252806 0.0555158 0.625555
0.252462 0.0542786 0.62551
0.252086 0.0530269 0.62535
0.251743 0.0517929 0.625309
0.25143 0.0505741 0.625374
0.251051 0.0493245 0.625197
0.250708 0.0480935 0.625151
0.250493 0.0469227 0.625569
0.250258 0.0457418 0.62591
0.250047 0.0445724 0.626344
0.249792 0.0433825 0.626614
0.249539 0.0421939 0.626893
0.249195 0.0409659 0.626838
0.248944 0.039779 0.627125
0.24867 0.0385821 0.627324
0.248484 0.0374223 0.627848
0.248298 0.0362618 0.628371
0.248093 0.0350931 0.628826
0.247872 0.0339176 0.629224
0.247682 0.0327541 0.629736
0.247497 0.0315918 0.630267
0.247313 0.0304289 0.630799
0.247145 0.0292718 0.631396
0.246957 0.028106 0.631916
0.246821 0.0269588 0.632631
0.246709 0.0258191 0.63344
0.246626 0.0246881 0.634359
0.246525 0.0235487 0.63521
0.246451 0.0224171 0.636166
0.246406 0.0212931 0.637231
0.246482 0.0202069 0.638757
0.246614 0.019135 0.640495
0.246917 0.0181129 0.642887
0.247329 0.0171188 0.645699
0.24773 0.0161135 0.648476
0.247989 0.015058 0.650723
0.248118 0.0139581 0.652483
0.248113 0.0128152 0.653736
0.248006 0.0116403 0.654605
0.24782 0.0104416 0.655172
0.24773 0.00926836 0.656105
0.247698 0.00810858 0.657265
0.247632 0.00693754 0.658298
0.247544 0.0057591 0.659248
0.24741 0.00456675 0.660023
0.247234 0.00336277 0.660635
0.247114 0.00217116 0.661469
0.247059 0.000992703 0.662555
0.247053 -0.000177215 0.663834
0.24716 -0.00132572 0.665554
0.247248 -0.00248165 0.667208
0.247298 -0.00365045 0.668717
0.247323 -0.00482737 0.670132
0.248037 -0.00587534 0.674252
0.250453 -0.0066188 0.685069
0.282715 0.13337 0.656543
0.28221 0.131911 0.656089
0.28168 0.130435 0.65555
0.281057 0.128891 0.654704
0.28037 0.127302 0.653646
0.27961 0.125662 0.652343
0.278824 0.124008 0.650952
0.278081 0.12239 0.649694
0.27733 0.120771 0.648406
0.27672 0.11926 0.647575
0.276139 0.117774 0.646839
0.275626 0.116339 0.646323
0.27518 0.114956 0.646027
0.274848 0.113655 0.646106
0.274529 0.112364 0.646228
0.274405 0.11121 0.646997
0.274333 0.110092 0.647941
0.274289 0.108991 0.64898
0.274291 0.10792 0.650173
0.274286 0.106841 0.651349
0.274068 0.105616 0.651812
0.273849 0.10439 0.652274
0.273579 0.103128 0.652561
0.273251 0.101829 0.652655
0.272932 0.100537 0.652779
0.272737 0.0993255 0.65332
0.272437 0.0980455 0.653506
0.272153 0.0967765 0.653747
0.27178 0.0954511 0.653686
0.271321 0.0940724 0.653331
0.270685 0.0925839 0.652368
0.269992 0.0910644 0.65121
0.26911 0.0894323 0.649399
0.268164 0.0877672 0.647362
0.26728 0.086147 0.645531
0.266449 0.084565 0.643873
0.265658 0.0830127 0.642346
0.26491 0.0814911 0.640961
0.264238 0.0800197 0.639834
0.263507 0.0785185 0.6385
0.262788 0.0770283 0.637197
0.262071 0.075545 0.635902
0.261454 0.0741225 0.634944
0.260806 0.0726865 0.633874
0.260165 0.0712592 0.632829
0.259563 0.0698566 0.631909
0.259017 0.0684889 0.631186
0.258463 0.0671198 0.63043
0.257955 0.0657787 0.629831
0.257521 0.0644792 0.629489
0.257052 0.0631639 0.629025
0.256563 0.0618397 0.628481
0.256012 0.0604871 0.627723
0.255511 0.0591626 0.627133
0.254963 0.0578173 0.626375
0.254478 0.0565065 0.625837
0.254074 0.0552383 0.625583
0.25371 0.0539913 0.625471
0.253316 0.0527315 0.625253
0.25297 0.0514959 0.625202
0.252661 0.0502788 0.625282
0.252284 0.0490304 0.625116
0.251961 0.0478088 0.625145
0.251745 0.0466365 0.625556
0.251502 0.0454521 0.625874
0.251284 0.0442788 0.62628
0.251024 0.0430865 0.626534
0.250772 0.0418979 0.626817
0.250448 0.0406785 0.626837
0.250202 0.0394929 0.627139
0.249928 0.038296 0.627344
0.249746 0.037137 0.627881
0.249562 0.0359764 0.62841
0.249359 0.0348079 0.628873
0.249137 0.033631 0.629264
0.248948 0.032467 0.629779
0.248742 0.0312959 0.630231
0.248554 0.0301313 0.630753
0.248386 0.0289732 0.631346
0.2482 0.0278076 0.631872
0.248049 0.0266541 0.632532
0.247955 0.02552 0.633404
0.247872 0.0243876 0.634316
0.247773 0.0232481 0.635173
0.247681 0.0221093 0.636058
0.247672 0.0209964 0.637255
0.247803 0.0199261 0.638976
0.248014 0.0188775 0.641007
0.248383 0.0178729 0.643632
0.248857 0.0168942 0.64666
0.249282 0.0158919 0.649517
0.249509 0.014823 0.651633
0.249587 0.013705 0.653192
0.249565 0.0125542 0.654377
0.249442 0.0113729 0.655182
0.249237 0.0101672 0.655676
0.249148 0.00899221 0.65661
0.249115 0.00783073 0.657764
0.249031 0.00665248 0.658724
0.248959 0.00547608 0.659732
0.248826 0.00428222 0.660509
0.248632 0.00307319 0.661054
0.248511 0.00187904 0.661881
0.248456 0.000699098 0.66296
0.248435 -0.000475869 0.664178
0.248547 -0.001625 0.66591
0.248658 -0.002779 0.667643
0.248728 -0.00394569 0.669225
0.249493 -0.00498009 0.673508
0.251041 -0.00587855 0.68086
0.283708 0.131752 0.656544
0.283196 0.130289 0.656067
0.282594 0.128762 0.655298
0.281925 0.127188 0.654308
0.281187 0.125566 0.653091
0.280418 0.123926 0.651766
0.279673 0.122307 0.650512
0.278918 0.120686 0.649222
0.278302 0.119172 0.648383
0.277719 0.117684 0.647649
0.277205 0.116249 0.647136
0.276756 0.114861 0.646833
0.2764 0.113543 0.646839
0.276056 0.112233 0.646879
0.275889 0.111047 0.647504
0.275771 0.109895 0.648296
0.275685 0.108763 0.649192
0.275663 0.107673 0.650304
0.275639 0.10658 0.651411
0.27542 0.105353 0.651869
0.275199 0.104124 0.652324
0.274924 0.10286 0.652598
0.274593 0.101558 0.652681
0.274271 0.100263 0.652798
0.274097 0.0990648 0.653409
0.273823 0.0978012 0.653685
0.273588 0.0965627 0.654091
0.273267 0.0952696 0.654208
0.272854 0.0939194 0.654014
0.272239 0.0924448 0.653133
0.271564 0.0909366 0.652044
0.270672 0.0892999 0.650216
0.269717 0.0876311 0.648164
0.268804 0.0859948 0.646248
0.267925 0.0843854 0.644441
0.267104 0.0828169 0.642826
0.26633 0.0812818 0.641366
0.265636 0.0797983 0.640173
0.264886 0.0782872 0.638783
0.264159 0.0767939 0.637464
0.263415 0.0752967 0.636087
0.262773 0.0738613 0.635052
0.262105 0.0724155 0.633924
0.261461 0.0709872 0.632873
0.260872 0.0695935 0.632012
0.260345 0.0682366 0.631359
0.259788 0.0668668 0.630601
0.259297 0.0655346 0.630066
0.25886 0.0642342 0.629722
0.258391 0.0629184 0.629259
0.257882 0.0615845 0.628654
0.257328 0.0602308 0.627892
0.256806 0.0588964 0.627236
0.256255 0.0575501 0.626473
0.25575 0.0562299 0.625871
0.255344 0.0549612 0.625617
0.254978 0.0537132 0.6255
0.254601 0.0524611 0.625342
0.254254 0.0512252 0.625294
0.253946 0.050008 0.625378
0.253569 0.04876 0.625219
0.253249 0.0475391 0.625259
0.253 0.0463513 0.625553
0.252737 0.0451572 0.625797
0.252494 0.0439722 0.626113
0.252246 0.0427853 0.626413
0.251997 0.0415977 0.626707
0.251693 0.0403869 0.626803
0.251466 0.0392089 0.627175
0.251209 0.0380182 0.627439
0.251009 0.0368512 0.627911
0.250822 0.0356887 0.62843
0.25062 0.0345198 0.628896
0.250397 0.033342 0.629283
0.250207 0.0321769 0.629795
0.249999 0.0310044 0.630241
0.249814 0.0298397 0.630768
0.249648 0.0286816 0.631367
0.249467 0.0275173 0.631914
0.249318 0.0263636 0.632578
0.249225 0.0252286 0.633451
0.249138 0.0240937 0.634346
0.249021 0.022947 0.635135
0.248928 0.0218066 0.63601
0.248905 0.0206878 0.637151
0.24915 0.0196526 0.639287
0.249493 0.0186431 0.641796
0.249974 0.0176693 0.64483
0.25052 0.0167076 0.648112
0.250996 0.0157151 0.651145
0.251143 0.0146186 0.652953
0.251142 0.0134737 0.654212
0.251081 0.0123091 0.655245
0.250922 0.0111158 0.655911
0.250717 0.00990856 0.656406
0.250609 0.00872658 0.657268
0.250575 0.00756163 0.658415
0.25049 0.00638196 0.659369
0.250437 0.00520754 0.660447
0.250306 0.00401249 0.661228
0.250114 0.00280142 0.66178
0.249973 0.00160115 0.662531
0.249918 0.000418919 0.663609
0.249881 -0.000761855 0.664757
0.249976 -0.00191701 0.666419
0.250125 -0.00306592 0.668291
0.250237 -0.00422644 0.670024
0.251774 -0.00511702 0.677265
0.284771 0.130186 0.656766
0.284166 0.128656 0.655994
0.283509 0.127092 0.655055
0.282787 0.125483 0.653898
0.282018 0.123843 0.652584
0.281292 0.12224 0.651406
0.280573 0.120647 0.650245
0.279935 0.119115 0.649341
0.279305 0.117594 0.648462
0.278785 0.116154 0.647938
0.27831 0.114749 0.647556
0.277911 0.113398 0.647423
0.277544 0.112072 0.647393
0.277374 0.110882 0.648008
0.277233 0.109712 0.648719
0.277145 0.108576 0.649607
0.277099 0.107469 0.650638
0.277053 0.106358 0.651667
0.276827 0.105125 0.652105
0.276586 0.103882 0.652491
0.276291 0.102604 0.6527
0.275982 0.101316 0.652861
0.275683 0.100036 0.653055
0.275536 0.0988537 0.653757
0.27531 0.0976197 0.654193
0.275145 0.0964243 0.654837
0.274872 0.0951598 0.655117
0.274524 0.0938488 0.655145
0.27393 0.0923872 0.654347
0.273269 0.0908877 0.653318
0.272367 0.0892455 0.65147
0.271381 0.0875591 0.649331
0.270395 0.0858801 0.647183
0.269464 0.0842411 0.645215
0.26859 0.0826423 0.643432
0.267772 0.0810823 0.641833
0.267057 0.079588 0.64058
0.266305 0.0780772 0.639197
0.265556 0.0765729 0.637816
0.264788 0.0750627 0.636362
0.264119 0.0736137 0.635247
0.263425 0.0721548 0.63404
0.262779 0.0707269 0.632992
0.262189 0.0693332 0.632133
0.261677 0.0679847 0.631538
0.261118 0.0666144 0.63078
0.260642 0.0652908 0.630305
0.260205 0.0639903 0.629966
0.25975 0.062682 0.629558
0.259239 0.0613477 0.628955
0.258703 0.0600031 0.62826
0.258165 0.0586606 0.627554
0.257592 0.0573041 0.626724
0.257064 0.0559731 0.626048
0.256633 0.0546921 0.62571
0.256248 0.053435 0.625531
0.255885 0.0521899 0.625428
0.25554 0.0509541 0.625385
0.255229 0.0497356 0.625465
0.254869 0.048495 0.625366
0.254583 0.0472894 0.625531
0.254319 0.046094 0.625774
0.25404 0.0448922 0.625963
0.253777 0.0436978 0.626209
0.253511 0.0425019 0.626441
0.253227 0.0412988 0.62661
0.252927 0.0400899 0.626724
0.252735 0.038926 0.627224
0.252495 0.0377417 0.627549
0.252308 0.0365791 0.628068
0.252121 0.0354156 0.628586
0.251932 0.034251 0.629098
0.251691 0.0330655 0.629424
0.251502 0.0318996 0.629935
0.251279 0.0307204 0.630325
0.251094 0.0295553 0.630856
0.250914 0.0283908 0.6314
0.250734 0.0272263 0.631951
0.250586 0.0260716 0.632615
0.25051 0.0249416 0.633549
0.250425 0.023806 0.634447
0.250325 0.0226638 0.635294
0.250233 0.0215227 0.636172
0.250353 0.0204488 0.637837
0.250713 0.0194469 0.640387
0.251179 0.0184717 0.643342
0.25175 0.0175207 0.646693
0.252341 0.0165655 0.650128
0.252686 0.0155282 0.652658
0.252721 0.0143948 0.654043
0.25265 0.013227 0.655037
0.252529 0.0120435 0.655841
0.25237 0.0108476 0.656508
0.252183 0.00964424 0.657073
0.252093 0.0084651 0.658002
0.252044 0.00729358 0.659087
0.251978 0.00611688 0.660109
0.251948 0.00494569 0.661268
0.25182 0.00374849 0.662064
0.251632 0.00253665 0.66263
0.251508 0.00133829 0.663442
0.251431 0.000148394 0.664437
0.251373 -0.00103892 0.665503
0.251471 -0.00219712 0.667165
0.251643 -0.00334415 0.669117
0.251799 -0.00449864 0.671014
0.285787 0.128584 0.656838
0.285124 0.127015 0.655886
0.284396 0.125402 0.65472
0.283602 0.123746 0.65334
0.282875 0.122143 0.652169
0.282175 0.120564 0.651079
0.28151 0.119014 0.650098
0.280873 0.117488 0.649205
0.280347 0.116043 0.648666
0.279867 0.114634 0.648277
0.279467 0.113282 0.648142
0.27912 0.111968 0.648181
0.278928 0.110762 0.648726
0.278743 0.109559 0.649293
0.278607 0.108389 0.650021
0.278514 0.107247 0.650893
0.278423 0.106104 0.651772
0.278175 0.104856 0.652136
0.277955 0.103627 0.652593
0.277685 0.102364 0.652886
0.277406 0.101096 0.653149
0.277155 0.0998454 0.653505
0.277058 0.0986928 0.654369
0.276877 0.0974864 0.65496
0.27674 0.0963062 0.655695
0.276507 0.0950651 0.656112
0.276182 0.093767 0.656221
0.275584 0.0923023 0.655418
0.274901 0.0907891 0.654325
0.273992 0.0891439 0.652469
0.272976 0.0874409 0.650244
0.271939 0.0857335 0.647943
0.270956 0.0840653 0.645814
0.270027 0.0824365 0.643861
0.269194 0.0808697 0.642226
0.268456 0.079363 0.640904
0.267724 0.0778648 0.639599
0.267013 0.0763833 0.63836
0.266259 0.0748823 0.636968
0.265566 0.0734202 0.635779
0.264863 0.0719574 0.634553
0.264192 0.0705163 0.633429
0.263581 0.0691121 0.632508
0.26305 0.0677539 0.631856
0.26249 0.0663833 0.6311
0.261993 0.0650491 0.630561
0.261534 0.0637368 0.630147
0.261059 0.0624187 0.629678
0.260563 0.0610921 0.629131
0.260029 0.0597494 0.628451
0.25949 0.0584067 0.627748
0.258912 0.0570486 0.626911
0.258378 0.0557148 0.626219
0.257904 0.0544132 0.625735
0.257498 0.0531461 0.625485
0.257134 0.0519008 0.625384
0.256792 0.0506664 0.625353
0.256481 0.0494474 0.625432
0.256151 0.048221 0.625447
0.255883 0.0470226 0.625674
0.255621 0.0458274 0.625924
0.255361 0.0446338 0.626186
0.255116 0.043446 0.626494
0.25485 0.0422497 0.626731
0.254566 0.041046 0.626903
0.254285 0.0398437 0.627083
0.254076 0.0386717 0.627522
0.253818 0.0374793 0.627785
0.253612 0.0363078 0.628234
0.253406 0.0351359 0.628684
0.2532 0.0339636 0.629134
0.252959 0.0327776 0.62946
0.25277 0.0316112 0.629974
0.252548 0.0304316 0.630367
0.252365 0.0292663 0.630902
0.2522 0.0281068 0.631502
0.252035 0.0269461 0.632104
0.251888 0.0257911 0.632772
0.251814 0.0246601 0.633708
0.25175 0.0235306 0.634682
0.251652 0.0223877 0.635534
0.25171 0.0212941 0.636959
0.251996 0.0202703 0.639222
0.252514 0.0193137 0.642345
0.253113 0.0183732 0.645771
0.253773 0.0174423 0.649437
0.254257 0.0164479 0.652461
0.254478 0.0153681 0.654524
0.254385 0.0141931 0.655432
0.254209 0.0129929 0.656035
0.254029 0.0117905 0.656623
0.253835 0.0105835 0.657158
0.253631 0.00937317 0.657656
0.253541 0.00819214 0.658584
0.253495 0.00701929 0.659677
0.253433 0.00584096 0.660713
0.253448 0.00467843 0.662036
0.253345 0.00348584 0.662924
0.253177 0.00227645 0.663567
0.253052 0.00107463 0.664375
0.252973 -0.00011721 0.665357
0.252877 -0.00131601 0.666278
0.252956 -0.00248016 0.667862
0.253149 -0.00362599 0.669886
0.253373 -0.00477108 0.672034
0.287815 0.128807 0.658964
0.286676 0.126888 0.656504
0.285916 0.125253 0.655246
0.285098 0.123581 0.653799
0.284369 0.121978 0.652632
0.283712 0.120431 0.65169
0.283042 0.118878 0.650701
0.282401 0.11735 0.649805
0.281867 0.1159 0.649247
0.281363 0.114473 0.648784
0.280939 0.113105 0.64858
0.280593 0.111791 0.648624
0.28038 0.110568 0.649098
0.280171 0.109348 0.649588
0.28001 0.10816 0.650235
0.279892 0.107 0.651023
0.279776 0.105839 0.651818
0.279528 0.10459 0.652182
0.279331 0.103375 0.652716
0.27909 0.10213 0.653104
0.278836 0.100877 0.653449
0.278633 0.0996561 0.653964
0.278606 0.0985463 0.655059
0.278475 0.0973682 0.65581
0.278384 0.0962145 0.656698
0.278193 0.0949973 0.657256
0.277886 0.0937088 0.657431
0.277285 0.0922414 0.656626
0.2766 0.0907264 0.655536
0.275683 0.0890777 0.653671
0.274659 0.0873714 0.651438
0.273592 0.0856481 0.649056
0.272556 0.0839504 0.646765
0.271572 0.0822908 0.644643
0.270686 0.0806946 0.642842
0.269918 0.0791716 0.641431
0.269184 0.0776733 0.64013
0.268495 0.0762054 0.638979
0.267722 0.0746948 0.637534
0.267019 0.0732282 0.636324
0.266288 0.0717507 0.635012
0.265592 0.0702966 0.633811
0.264961 0.0688823 0.63283
0.264449 0.0675346 0.632251
0.263885 0.0661622 0.63149
0.263366 0.0648167 0.630881
0.262884 0.0634926 0.630395
0.262386 0.0621629 0.629851
0.261889 0.0608361 0.629307
0.261372 0.0595022 0.628692
0.260852 0.0581697 0.628065
0.260273 0.0568113 0.627229
0.25973 0.0554736 0.626515
0.25923 0.0541596 0.625946
0.258783 0.0528733 0.62556
0.25842 0.0516283 0.625464
0.258079 0.0503945 0.625443
0.257771 0.0491762 0.625532
0.257441 0.0479494 0.625549
0.257171 0.0467498 0.625773
0.256892 0.0455466 0.625964
0.256653 0.0443611 0.626297
0.256409 0.0431732 0.62661
0.256159 0.041983 0.626904
0.255892 0.0407858 0.627138
0.255628 0.0395899 0.627381
0.255403 0.0384104 0.627764
0.255161 0.0372236 0.628087
0.25494 0.036045 0.628481
0.254715 0.0348645 0.628862
0.254493 0.0336853 0.629257
0.254251 0.0324981 0.629579
0.254063 0.031331 0.630094
0.253858 0.0301573 0.630551
0.253673 0.0289901 0.631078
0.253524 0.0278353 0.631737
0.253376 0.0266796 0.632398
0.25323 0.0255235 0.63307
0.25316 0.0243922 0.634016
0.253136 0.0232743 0.635132
0.253063 0.0221378 0.636071
0.253301 0.0210999 0.638144
0.253752 0.0201241 0.640997
0.254413 0.0192062 0.644625
0.255112 0.0182897 0.648406
0.255787 0.0173549 0.652109
0.256103 0.0163036 0.654505
0.256176 0.0151766 0.65602
0.255962 0.0139633 0.656482
0.255709 0.012739 0.656798
0.255492 0.0115244 0.657249
0.2553 0.0103163 0.657792
0.255115 0.00910963 0.658364
0.255047 0.00793163 0.659368
0.25502 0.0067623 0.660527
0.254983 0.00558744 0.661654
0.255021 0.00442763 0.663061
0.254944 0.00323745 0.664044
0.254778 0.00202629 0.664695
0.254634 0.000817981 0.665434
0.254536 -0.000381582 0.666339
0.254419 -0.00158641 0.66718
0.254461 -0.0027611 0.66862
0.254678 -0.00390533 0.670724
0.254968 -0.0050409 0.67311
0.288577 0.127011 0.658215
0.287302 0.125004 0.655335
0.286559 0.123388 0.654138
0.285873 0.121817 0.653116
0.285262 0.120303 0.652331
0.284593 0.118752 0.651356
0.283968 0.117236 0.650519
0.28343 0.115783 0.649957
0.282905 0.114342 0.649433
0.282459 0.112957 0.649159
0.28211 0.11164 0.649198
0.281851 0.110386 0.649528
0.281597 0.109134 0.649871
0.281408 0.107926 0.650426
0.281267 0.106748 0.651137
0.281131 0.105573 0.651863
0.280907 0.104339 0.652308
0.280757 0.103153 0.652991
0.280562 0.101937 0.65353
0.280355 0.100712 0.654031
0.280219 0.0995324 0.654765
0.280216 0.0984349 0.655938
0.280092 0.0972591 0.656712
0.280002 0.0961035 0.657604
0.279814 0.0948861 0.658173
0.279485 0.0935817 0.658275
0.278903 0.0921259 0.657542
0.278252 0.0906321 0.656578
0.277376 0.0890082 0.65486
0.27639 0.0873257 0.652772
0.27534 0.0856135 0.650465
0.274274 0.0838997 0.648094
0.273215 0.0821981 0.645739
0.272251 0.0805584 0.643692
0.271411 0.0789961 0.642055
0.270653 0.0774851 0.640685
0.269964 0.0760171 0.639539
0.269192 0.0745085 0.638113
0.268488 0.0730417 0.636907
0.267747 0.0715596 0.635572
0.267023 0.0700917 0.63429
0.266386 0.068675 0.6333
0.265872 0.0673257 0.632718
0.265306 0.0659528 0.63196
0.264761 0.0645939 0.631269
0.264255 0.0632575 0.630706
0.263729 0.061914 0.630074
0.26321 0.0605768 0.629463
0.262692 0.059243 0.628852
0.262174 0.0579117 0.628236
0.261594 0.0565533 0.627404
0.26103 0.0552061 0.626624
0.260526 0.0538911 0.626051
0.260055 0.0525934 0.625584
0.259709 0.0513559 0.625548
0.259369 0.0501221 0.625532
0.259063 0.0489049 0.625634
0.258736 0.0476788 0.625662
0.258466 0.0464789 0.625888
0.258168 0.0452669 0.626015
0.257927 0.0440798 0.62634
0.257682 0.0428913 0.626653
0.257434 0.0417014 0.626955
0.257168 0.0405041 0.627194
0.256904 0.0393078 0.627438
0.256679 0.0381274 0.62782
0.256437 0.0369397 0.62814
0.256213 0.0357594 0.628526
0.255988 0.0345786 0.62891
0.255764 0.0333977 0.629296
0.255521 0.0322097 0.629617
0.255351 0.0310484 0.630194
0.255184 0.0298874 0.630783
0.25502 0.0287269 0.631387
0.254893 0.0275784 0.632123
0.254766 0.0264283 0.632857
0.254641 0.0252779 0.633603
0.254557 0.0241401 0.634497
0.254552 0.0230263 0.635677
0.254647 0.0219426 0.637221
0.255083 0.0209642 0.640002
0.255691 0.0200319 0.643411
0.256447 0.0191358 0.647368
0.257126 0.0182051 0.651056
0.257632 0.0172124 0.654128
0.257774 0.0161046 0.655882
0.257707 0.0149332 0.656878
0.257452 0.0137068 0.657193
0.257197 0.0124808 0.657506
0.256962 0.0112599 0.657892
0.256755 0.0100459 0.65838
0.256588 0.00884176 0.659016
0.256501 0.00765706 0.65995
0.256476 0.00648586 0.661114
0.256461 0.0053138 0.662316
0.256523 0.00415742 0.663806
0.256448 0.00296615 0.664793
0.2563 0.00175637 0.665512
0.256157 0.000546054 0.666249
0.256058 -0.000655687 0.667154
0.255923 -0.00186655 0.667927
0.255948 -0.00304747 0.669295
0.256163 -0.00419478 0.671382
0.256515 -0.00532167 0.673991
0.289059 0.12502 0.656592
0.28789 0.123101 0.654058
0.287239 0.121556 0.653157
0.286719 0.120108 0.652666
0.286077 0.118576 0.651785
0.285499 0.117093 0.651105
0.284983 0.115656 0.65062
0.284453 0.114211 0.650087
0.283982 0.112809 0.649739
0.283627 0.111488 0.649763
0.283341 0.110213 0.650006
0.283061 0.108943 0.650268
0.28285 0.107718 0.650749
0.282708 0.106538 0.651455
0.282572 0.105362 0.652186
0.282373 0.104143 0.65271
0.282252 0.102974 0.653486
0.282104 0.101786 0.654179
0.281922 0.100576 0.65476
0.281831 0.0994219 0.65564
0.281832 0.0983234 0.65682
0.281731 0.0971598 0.657672
0.281624 0.0959907 0.658504
0.281436 0.0947708 0.659073
0.281102 0.0934624 0.659164
0.280538 0.0920169 0.658498
0.279891 0.0905254 0.657557
0.279079 0.08894 0.656065
0.278114 0.0872712 0.654064
0.277041 0.0855473 0.6517
0.275945 0.0838173 0.649247
0.274831 0.082086 0.646727
0.273811 0.0804164 0.644513
0.272919 0.0788256 0.642714
0.27215 0.0773096 0.64132
0.271459 0.0758413 0.64018
0.270702 0.0743415 0.638814
0.269976 0.0728635 0.637547
0.26923 0.0713792 0.636205
0.268498 0.0699081 0.634909
0.267837 0.0684788 0.633845
0.267302 0.0671188 0.633201
0.266731 0.0657435 0.632434
0.266162 0.0643724 0.631669
0.265628 0.0630219 0.631018
0.265077 0.061666 0.630306
0.264552 0.0603262 0.629681
0.264032 0.0589917 0.62907
0.263534 0.0576705 0.62853
0.262957 0.0563142 0.627717
0.262391 0.0549666 0.626939
0.261866 0.0536412 0.626296
0.26137 0.0523324 0.625751
0.261004 0.0510855 0.62565
0.260661 0.0498503 0.625627
0.260376 0.0486421 0.625804
0.260049 0.0474153 0.625832
0.259796 0.0462222 0.62612
0.259512 0.0450157 0.626299
0.259252 0.0438196 0.626558
0.259007 0.0426302 0.626872
0.258778 0.0414472 0.62724
0.258515 0.04025 0.627488
0.258253 0.0390537 0.627743
0.258044 0.0378787 0.628182
0.257783 0.0366828 0.628438
0.257556 0.0355001 0.628812
0.257329 0.0343174 0.629189
0.257103 0.0331348 0.62957
0.256861 0.0319462 0.629893
0.25671 0.0307905 0.630537
0.256547 0.02963 0.631143
0.256392 0.0284709 0.631775
0.25629 0.0273296 0.632598
0.256186 0.0261863 0.633417
0.256084 0.0250415 0.63424
0.256018 0.0239077 0.635199
0.256069 0.0228098 0.636574
0.256327 0.0217754 0.638696
0.256946 0.0208496 0.642121
0.257733 0.019966 0.646157
0.258506 0.0190669 0.650158
0.259114 0.0181069 0.653573
0.259424 0.0170491 0.655923
0.259378 0.0158836 0.656992
0.259145 0.0146622 0.657388
0.258873 0.0134298 0.657639
0.258618 0.0122017 0.657955
0.258404 0.0109853 0.658418
0.258215 0.00977496 0.658972
0.258052 0.00857017 0.659623
0.257984 0.007388 0.660622
0.25796 0.00621429 0.661787
0.257925 0.00503545 0.662915
0.25797 0.0038725 0.664336
0.257892 0.00267867 0.665311
0.257745 0.00146772 0.666029
0.257621 0.000260186 0.666837
0.257526 -0.000942825 0.667753
0.257392 -0.00215599 0.668529
0.257413 -0.00333998 0.669879
0.257572 -0.00450034 0.671745
0.257849 -0.00564483 0.67406
0.258267 -0.00620304 0.681871
0.259366 -0.00657343 0.681015
0.290822 0.125034 0.657847
0.289176 0.12278 0.653832
0.288631 0.121312 0.653272
0.288184 0.119915 0.653019
0.287614 0.118435 0.652374
0.287103 0.116999 0.651914
0.286611 0.115577 0.65151
0.286081 0.114132 0.650984
0.285605 0.112725 0.650626
0.285241 0.111396 0.650624
0.284907 0.110089 0.650718
0.284601 0.1088 0.650898
0.284367 0.107558 0.651306
0.284224 0.106376 0.652011
0.284094 0.105201 0.652754
0.283919 0.103996 0.653357
0.283846 0.102855 0.654288
0.28375 0.101698 0.655147
0.283574 0.100489 0.65575
0.283508 0.0993479 0.656709
0.283509 0.0982463 0.657888
0.283385 0.0970656 0.658664
0.28323 0.0958644 0.659338
0.283035 0.0946385 0.659886
0.282655 0.093301 0.65983
0.282091 0.0918557 0.659173
0.281467 0.0903777 0.658314
0.280724 0.0888338 0.657063
0.279807 0.0871942 0.655235
0.278772 0.085493 0.653012
0.277666 0.0837596 0.650548
0.276514 0.0820079 0.647921
0.275438 0.0803084 0.64554
0.274473 0.0786779 0.643514
0.273654 0.0771352 0.641967
0.272972 0.0756719 0.640865
0.272232 0.0741825 0.63957
0.271506 0.0727049 0.638313
0.270778 0.0712309 0.637044
0.27004 0.0697568 0.635739
0.269352 0.0683136 0.634595
0.268773 0.0669304 0.63381
0.2682 0.0655539 0.633043
0.267607 0.064171 0.632207
0.267069 0.0628186 0.631551
0.266493 0.0614503 0.630762
0.265944 0.0600985 0.630062
0.265403 0.058754 0.629386
0.264901 0.0574311 0.62884
0.26434 0.0560831 0.628091
0.263775 0.0547361 0.627323
0.263267 0.0534187 0.626745
0.26277 0.052109 0.626202
0.262398 0.0508589 0.626085
0.262053 0.0496221 0.626059
0.261787 0.048421 0.626301
0.261478 0.0472013 0.626396
0.261226 0.0460071 0.626686
0.260921 0.0447904 0.626795
0.260637 0.0435833 0.626976
0.260372 0.0423842 0.62722
0.260126 0.0411931 0.62753
0.259864 0.0399955 0.627783
0.259621 0.0388059 0.628105
0.259395 0.0376231 0.628487
0.259131 0.0364249 0.628733
0.258902 0.0352408 0.629103
0.258676 0.0340571 0.629482
0.258452 0.0328743 0.62987
0.258229 0.0316916 0.630261
0.258098 0.0305422 0.630978
0.257959 0.0293883 0.631663
0.257827 0.028236 0.632379
0.257768 0.0271076 0.633352
0.257704 0.0259755 0.63431
0.257622 0.0248352 0.635205
0.257578 0.0237057 0.636237
0.257766 0.0226489 0.638094
0.258162 0.0216538 0.640699
0.258939 0.0207706 0.644671
0.259723 0.0198784 0.64868
0.260435 0.0189528 0.652443
0.260873 0.0179349 0.655235
0.261029 0.0168282 0.657025
0.260838 0.0156177 0.65757
0.260625 0.014401 0.658037
0.260374 0.0131724 0.658367
0.260139 0.0119483 0.658754
0.259926 0.0107303 0.659223
0.259737 0.00951795 0.65978
0.259574 0.00831139 0.66043
0.259489 0.00712254 0.661363
0.259447 0.00594196 0.662461
0.259389 0.00475548 0.6635
0.259393 0.00358116 0.664767
0.259275 0.00237646 0.66559
0.259126 0.00116324 0.666302
0.258987 -4.87713e-05 0.66705
0.258895 -0.0012524 0.667977
0.258764 -0.00246547 0.668759
0.258767 -0.00365446 0.670038
0.259284 -0.00475042 0.673222
0.259947 -0.0058283 0.676955
0.26131 -0.00679416 0.683302
0.29178 0.123385 0.657729
0.290877 0.121663 0.65606
0.290053 0.120001 0.654631
0.289299 0.118393 0.653418
0.288792 0.116957 0.652975
0.288276 0.115519 0.652502
0.2877 0.114042 0.651838
0.287195 0.112616 0.651396
0.286783 0.111254 0.651246
0.286424 0.109928 0.65126
0.286117 0.108638 0.651441
0.285905 0.107409 0.651922
0.285787 0.106241 0.652703
0.285678 0.105078 0.653516
0.285551 0.103901 0.654271
0.285506 0.102775 0.655289
0.285439 0.101633 0.656241
0.285289 0.100438 0.656928
0.285226 0.0992952 0.657895
0.285203 0.0981755 0.658994
0.285052 0.0969752 0.659681
0.284845 0.0957404 0.66019
0.284622 0.0944954 0.660646
0.284212 0.0931389 0.660497
0.283666 0.0917043 0.659906
0.283068 0.0902413 0.65914
0.282372 0.0887251 0.658051
0.281516 0.0871218 0.65644
0.280522 0.0854455 0.654369
0.279406 0.0837074 0.651891
0.278239 0.0819495 0.649237
0.27713 0.0802323 0.646763
0.276091 0.0785625 0.644512
0.275204 0.076983 0.642753
0.274469 0.0754915 0.641487
0.273703 0.0739888 0.640117
0.272976 0.0725113 0.638866
0.272232 0.0710299 0.637556
0.271528 0.0695742 0.636374
0.270834 0.0681283 0.635221
0.270249 0.0667423 0.634425
0.269653 0.0653541 0.633589
0.269059 0.0639706 0.632757
0.268499 0.0626073 0.632035
0.26794 0.0612477 0.631312
0.267371 0.0598862 0.630552
0.266823 0.0585386 0.629862
0.266336 0.0572224 0.629371
0.265771 0.0558722 0.628614
0.265206 0.0545254 0.627856
0.264715 0.0532159 0.627345
0.264235 0.0519134 0.626864
0.263862 0.0506618 0.626749
0.263537 0.0494323 0.626792
0.263269 0.0482294 0.627033
0.262963 0.0470098 0.627141
0.262711 0.045814 0.627434
0.262405 0.0445949 0.627539
0.262101 0.0433781 0.627655
0.261813 0.0421679 0.62782
0.261542 0.0409656 0.628048
0.26126 0.0397588 0.628236
0.260999 0.0385607 0.628495
0.260774 0.037377 0.62888
0.260509 0.0361773 0.629123
0.260281 0.0349921 0.629497
0.260054 0.0338073 0.629876
0.259853 0.032632 0.630346
0.259652 0.0314559 0.630814
0.259545 0.0303128 0.63161
0.259425 0.0291639 0.632363
0.259329 0.0280223 0.633205
0.25927 0.0268913 0.634174
0.259226 0.0257634 0.635201
0.259205 0.024641 0.636309
0.259225 0.0235292 0.637564
0.259489 0.022493 0.639685
0.260019 0.0215349 0.642754
0.26078 0.0206396 0.646651
0.261484 0.0197155 0.650353
0.262105 0.0187568 0.653777
0.262427 0.0177003 0.656141
0.262467 0.0165566 0.657508
0.262298 0.015351 0.658134
0.262109 0.0141388 0.658688
0.261899 0.0129202 0.659167
0.261686 0.0117 0.659634
0.261473 0.0104801 0.660102
0.261284 0.00926524 0.66066
0.261122 0.00805641 0.661313
0.260999 0.00685643 0.662109
0.260914 0.00566357 0.663048
0.260834 0.00446933 0.664002
0.260793 0.00328269 0.665102
0.260633 0.00206794 0.665772
0.260484 0.00085373 0.66648
0.260365 -0.000355569 0.667302
0.26028 -0.0015597 0.668249
0.26017 -0.00276958 0.669107
0.260534 -0.00389175 0.671705
0.261476 -0.00491407 0.676437
0.26255 -0.00592692 0.681669
0.264322 -0.00683453 0.689493
0.270351 -0.00902438 0.72093
0.269866 -0.0083987 0.712616
0.271782 -0.00936745 0.721058
0.293164 0.122031 0.658936
0.291998 0.120132 0.656457
0.291245 0.118523 0.655257
0.29058 0.116979 0.654329
0.289879 0.115415 0.653286
0.289322 0.11395 0.652687
0.288833 0.112534 0.652302
0.288397 0.111155 0.652078
0.288013 0.109812 0.65202
0.287708 0.108521 0.652208
0.287519 0.107306 0.652764
0.287429 0.106153 0.653634
0.28737 0.105019 0.654603
0.287291 0.10387 0.655511
0.287293 0.10277 0.656681
0.287253 0.101642 0.657717
0.287128 0.100458 0.658482
0.287064 0.0993113 0.659446
0.286995 0.0981595 0.660396
0.286792 0.096925 0.660918
0.286533 0.0956563 0.66126
0.286281 0.094392 0.661626
0.285849 0.0930212 0.66141
0.2853 0.091584 0.660816
0.284715 0.0901286 0.660102
0.284037 0.0886227 0.659082
0.283203 0.0870325 0.657555
0.282231 0.0853699 0.655572
0.281131 0.0836422 0.653164
0.279935 0.0818696 0.650435
0.278791 0.0801353 0.647868
0.277679 0.0784265 0.645394
0.276736 0.0768178 0.643465
0.275951 0.0753005 0.642048
0.275196 0.0738041 0.640723
0.27447 0.0723283 0.63949
0.273766 0.0708684 0.638323
0.273063 0.0694137 0.637156
0.272362 0.0679644 0.635989
0.271729 0.0665538 0.635042
0.271107 0.0651527 0.634129
0.27049 0.063758 0.633229
0.269951 0.0624051 0.632584
0.269433 0.0610653 0.632006
0.268903 0.0597224 0.631384
0.268393 0.0583921 0.630828
0.26794 0.0570911 0.630459
0.267374 0.0557395 0.629708
0.266804 0.0543895 0.62894
0.266332 0.0530873 0.628499
0.265872 0.0517926 0.628094
0.265464 0.0505234 0.627865
0.265157 0.0493003 0.627975
0.264888 0.0480942 0.628212
0.264544 0.0468564 0.628197
0.264255 0.0456428 0.628366
0.263948 0.044422 0.628473
0.26362 0.0431931 0.628507
0.263306 0.0419712 0.628591
0.263033 0.040766 0.628811
0.262746 0.0395556 0.628983
0.262482 0.0383551 0.629237
0.262256 0.0371692 0.629619
0.261991 0.0359681 0.629866
0.261764 0.0347814 0.630243
0.26154 0.033596 0.630634
0.261342 0.0324196 0.631112
0.261144 0.0312427 0.631591
0.26102 0.0300917 0.632329
0.260897 0.0289397 0.633073
0.2608 0.0277954 0.633907
0.26074 0.0266618 0.634871
0.2607 0.0255329 0.635907
0.26074 0.0244281 0.637227
0.260829 0.0233359 0.638721
0.261208 0.022332 0.641238
0.261849 0.0214028 0.644682
0.262585 0.0204929 0.648471
0.26319 0.0195326 0.651807
0.263715 0.0185396 0.654874
0.26391 0.0174422 0.65678
0.263865 0.0162722 0.657844
0.263743 0.0150781 0.658632
0.263602 0.0138775 0.659356
0.263416 0.0126634 0.659923
0.263224 0.0114472 0.660466
0.26301 0.0102245 0.660933
0.262821 0.00900846 0.66149
0.262655 0.00779641 0.662132
0.262513 0.00658931 0.662858
0.262386 0.00538447 0.663639
0.262279 0.00418248 0.664495
0.262195 0.00298443 0.665435
0.261996 0.00175957 0.665965
0.261844 0.000543124 0.666662
0.261745 -0.000662573 0.667555
0.261664 -0.00186768 0.668512
0.261556 -0.00307916 0.669376
0.262316 -0.00412901 0.673405
0.263675 -0.00508207 0.679635
0.265158 -0.00603239 0.686336
0.27003 -0.00767969 0.706803
0.271905 -0.00863935 0.715025
0.273114 -0.0097262 0.720816
0.295926 0.122714 0.663245
0.294571 0.120684 0.660203
0.293573 0.118906 0.658259
0.292725 0.117236 0.656775
0.291832 0.115541 0.655146
0.291144 0.113988 0.654148
0.29054 0.112495 0.653409
0.290076 0.111096 0.653105
0.28969 0.10975 0.653044
0.289406 0.108471 0.653302
0.289222 0.107256 0.653873
0.289165 0.106121 0.654845
0.289159 0.105017 0.655981
0.289087 0.103869 0.65691
0.289093 0.102768 0.658089
0.289052 0.101635 0.65912
0.288902 0.100434 0.659811
0.288793 0.0992555 0.660628
0.28872 0.098098 0.661564
0.28851 0.0968571 0.662066
0.288228 0.0955724 0.662337
0.287957 0.0942945 0.662644
0.287521 0.0929201 0.662419
0.286946 0.091467 0.661749
0.286309 0.0899814 0.660877
0.285623 0.0884716 0.659843
0.284783 0.0868784 0.658306
0.283831 0.0852285 0.656403
0.282757 0.0835177 0.654099
0.281576 0.0817558 0.651439
0.280422 0.0800179 0.648859
0.279295 0.078303 0.646355
0.278297 0.076666 0.644264
0.27746 0.0751216 0.642689
0.276715 0.0736309 0.641406
0.275987 0.0721546 0.640177
0.275284 0.0706958 0.639025
0.274623 0.0692627 0.638004
0.273936 0.0678208 0.636896
0.273278 0.0663976 0.635877
0.272628 0.064982 0.634878
0.272023 0.0635934 0.634028
0.271482 0.0622387 0.633382
0.270987 0.0609097 0.632889
0.270502 0.0595874 0.632423
0.270038 0.0582777 0.632028
0.269608 0.0569858 0.631741
0.269077 0.0556493 0.631117
0.268545 0.054315 0.630484
0.268073 0.053011 0.630051
0.267651 0.0517317 0.629784
0.267243 0.0504596 0.629558
0.266896 0.0492166 0.62954
0.266583 0.0479888 0.629634
0.266212 0.0467368 0.629529
0.26588 0.0455027 0.629556
0.265551 0.0442707 0.629592
0.265202 0.0430314 0.62956
0.264868 0.0417994 0.629578
0.26457 0.0405825 0.629717
0.264261 0.0393617 0.629817
0.263976 0.0381512 0.630002
0.263749 0.036963 0.63038
0.263484 0.0357606 0.630632
0.263257 0.0345723 0.631011
0.263032 0.0333846 0.6314
0.26285 0.032212 0.631933
0.262671 0.0310401 0.632479
0.262548 0.0298871 0.63322
0.262407 0.0287267 0.633901
0.262305 0.0275781 0.634716
0.262226 0.0264357 0.635611
0.26219 0.0253059 0.636661
0.262276 0.0242131 0.638134
0.262455 0.0231464 0.639935
0.262946 0.0221733 0.642833
0.263542 0.021224 0.646102
0.264188 0.0202809 0.64956
0.264681 0.0192824 0.652488
0.265098 0.0182535 0.655158
0.265182 0.0171224 0.656666
0.265189 0.0159656 0.657906
0.265134 0.0147888 0.658933
0.26506 0.0136052 0.659891
0.264917 0.0124007 0.66061
0.264747 0.0111883 0.661233
0.264553 0.00996899 0.661769
0.264363 0.00874996 0.662324
0.264178 0.00753137 0.662895
0.26401 0.00631643 0.663531
0.263859 0.00510356 0.664225
0.26373 0.0038951 0.665001
0.263607 0.00268657 0.665799
0.263407 0.00146016 0.666322
0.263273 0.000246399 0.667085
0.263178 -0.000960392 0.667986
0.263079 -0.00217042 0.66888
0.26334 -0.00331287 0.671073
0.264494 -0.00429688 0.676511
0.266239 -0.00518999 0.684111
0.268096 -0.00608793 0.692141
0.270515 -0.00691573 0.702242
0.27253 -0.0078396 0.710905
0.273734 -0.00891664 0.71663
0.297525 0.124924 0.667034
0.298602 0.123325 0.667242
0.297262 0.121303 0.664269
0.296107 0.119417 0.661861
0.295041 0.117598 0.659718
0.293948 0.115768 0.657484
0.293115 0.114118 0.656048
0.29235 0.112517 0.654818
0.291745 0.111026 0.654084
0.291334 0.109662 0.653947
0.291066 0.108392 0.654259
0.290888 0.107178 0.65485
0.290859 0.106058 0.655908
0.290886 0.104972 0.657146
0.290839 0.103836 0.658152
0.290824 0.102718 0.659263
0.290757 0.101566 0.66021
0.290604 0.10036 0.660888
0.290469 0.0991635 0.661627
0.290375 0.0979905 0.662494
0.290166 0.0967477 0.663
0.289907 0.0954744 0.663344
0.289617 0.0941835 0.663593
0.289183 0.0928093 0.663383
0.288601 0.091352 0.662699
0.287957 0.0898616 0.661811
0.287237 0.0883324 0.660677
0.286412 0.0867488 0.659203
0.285499 0.0851218 0.65744
0.284466 0.0834351 0.655285
0.283286 0.0816756 0.652649
0.282103 0.0799232 0.649992
0.280936 0.0781886 0.647378
0.279882 0.0765229 0.645121
0.278995 0.074953 0.643398
0.278248 0.0734624 0.642123
0.277555 0.0720043 0.641016
0.276873 0.0705565 0.639944
0.276211 0.0691227 0.63893
0.275546 0.0676916 0.637902
0.274879 0.0662639 0.636866
0.2742 0.0648341 0.635785
0.27359 0.0634418 0.634922
0.273044 0.0620846 0.63427
0.272553 0.0607563 0.633795
0.272092 0.0594444 0.633415
0.271673 0.0581545 0.633174
0.271272 0.0568746 0.63299
0.270805 0.055566 0.632585
0.270333 0.0542576 0.632163
0.269897 0.0529675 0.631858
0.269496 0.0516945 0.631665
0.269106 0.050428 0.631509
0.268731 0.0491694 0.631401
0.268368 0.047917 0.63133
0.267946 0.0466411 0.631062
0.267545 0.0453761 0.630865
0.267149 0.0441145 0.63068
0.266776 0.0428637 0.630572
0.266385 0.0416069 0.630401
0.26607 0.0403815 0.630483
0.26574 0.0391512 0.630517
0.265452 0.037938 0.630692
0.265188 0.0367342 0.630947
0.264959 0.0355439 0.631323
0.264733 0.0343541 0.631705
0.264507 0.0331645 0.632092
0.264322 0.0319891 0.632616
0.264158 0.0308206 0.633215
0.263996 0.0296521 0.633822
0.263855 0.0284897 0.634501
0.263772 0.0273458 0.63538
0.263696 0.0262022 0.636284
0.263663 0.0250708 0.637338
0.263793 0.0239896 0.638959
0.264016 0.0229336 0.640907
0.264498 0.0219529 0.643757
0.265021 0.0209768 0.64676
0.265562 0.0199978 0.649833
0.265941 0.0189622 0.652348
0.266257 0.0179019 0.654653
0.26633 0.0167663 0.656115
0.266406 0.0156287 0.657592
0.266461 0.014481 0.658996
0.266473 0.0133193 0.660256
0.266395 0.0121303 0.661201
0.266266 0.0109269 0.661969
0.266094 0.00971088 0.662583
0.265904 0.0084903 0.66314
0.2657 0.00726471 0.663645
0.265491 0.0060377 0.664134
0.265318 0.00481898 0.664747
0.265187 0.00360775 0.665515
0.265048 0.00239436 0.666255
0.264851 0.00116683 0.666789
0.264738 -4.45087e-05 0.667626
0.264624 -0.00125665 0.668458
0.264833 -0.0024087 0.670454
0.265474 -0.00348405 0.674005
0.266993 -0.00441019 0.68073
0.269093 -0.00525381 0.689571
0.27127 -0.00611189 0.69872
0.273071 -0.00705979 0.706533
0.274416 -0.0081041 0.712723
0.301247 0.1239 0.671088
0.299801 0.121807 0.667819
0.298545 0.119851 0.665121
0.297364 0.117954 0.662645
0.296137 0.116036 0.660019
0.295178 0.114301 0.658209
0.294288 0.112618 0.656605
0.293571 0.111052 0.655532
0.293083 0.109637 0.655164
0.292792 0.10835 0.655407
0.292614 0.107134 0.655998
0.292608 0.106026 0.657127
0.292637 0.104936 0.658368
0.292568 0.103784 0.659303
0.292505 0.102633 0.66026
0.292406 0.101458 0.661107
0.292225 0.100233 0.661698
0.292046 0.099008 0.662297
0.291956 0.0978346 0.663174
0.291795 0.0966186 0.663833
0.291544 0.0953484 0.664206
0.291255 0.0940564 0.66446
0.29084 0.0926919 0.664314
0.290252 0.0912303 0.663617
0.28956 0.089713 0.662587
0.288835 0.0881814 0.661449
0.288001 0.0865935 0.659957
0.287103 0.0849762 0.658257
0.286112 0.0833138 0.656251
0.284953 0.0815681 0.653703
0.283762 0.0798133 0.65104
0.282581 0.0780734 0.648403
0.281494 0.0763917 0.646056
0.280559 0.0747974 0.644192
0.279812 0.0733068 0.642925
0.279137 0.0718582 0.641888
0.278454 0.0704098 0.640822
0.277808 0.068984 0.63987
0.277141 0.0675519 0.638847
0.276495 0.0661338 0.637886
0.275793 0.0646925 0.636739
0.275195 0.0633062 0.635929
0.274646 0.0619464 0.635274
0.274191 0.0606341 0.634924
0.27377 0.05934 0.634685
0.273395 0.0580683 0.634592
0.273035 0.0568052 0.634549
0.272591 0.055505 0.634226
0.272143 0.0542051 0.633891
0.271716 0.0529162 0.633619
0.271313 0.0516398 0.633428
0.270894 0.0503581 0.633181
0.270491 0.0490851 0.632987
0.270081 0.0478103 0.632765
0.269606 0.0465104 0.632327
0.269156 0.0452233 0.631972
0.268733 0.0439487 0.6317
0.268336 0.0426866 0.631516
0.26792 0.0414189 0.631269
0.267582 0.0401832 0.63128
0.267249 0.0389501 0.631305
0.266942 0.0377281 0.631419
0.266676 0.0365219 0.631669
0.266449 0.0353305 0.632051
0.266203 0.0341321 0.632371
0.265958 0.0329337 0.632691
0.265751 0.0317489 0.633142
0.265567 0.030572 0.633673
0.265388 0.0293959 0.63422
0.265249 0.0282324 0.634902
0.265167 0.0270871 0.635784
0.265091 0.0259422 0.636688
0.26508 0.0248159 0.637814
0.265231 0.023739 0.639502
0.265459 0.0226815 0.641458
0.265845 0.0216676 0.643964
0.266259 0.0206552 0.646573
0.266708 0.0196458 0.64931
0.267003 0.0185843 0.651522
0.267264 0.0175072 0.653623
0.267404 0.0163911 0.655311
0.267565 0.0152758 0.657076
0.267693 0.0141468 0.658728
0.267775 0.0130023 0.660224
0.267767 0.011831 0.661411
0.267682 0.010637 0.662332
0.267552 0.00943069 0.663095
0.267386 0.00821367 0.663731
0.267182 0.00698685 0.664239
0.266972 0.00575817 0.664724
0.266816 0.00454081 0.665401
0.266687 0.00332854 0.666173
0.266574 0.0021186 0.667005
0.266421 0.000898429 0.667693
0.266333 -0.000309805 0.668616
0.26622 -0.00152481 0.669452
0.266741 -0.00262038 0.672551
0.267719 -0.00364023 0.677294
0.269573 -0.00451685 0.685183
0.271565 -0.00539248 0.693592
0.273496 -0.00630528 0.701808
0.274677 -0.00736443 0.707353
0.302871 0.123775 0.671783
0.301743 0.121898 0.669505
0.300642 0.120047 0.6673
0.299473 0.118159 0.66488
0.298256 0.116248 0.662304
0.29724 0.114476 0.660336
0.296277 0.112745 0.658524
0.295515 0.111149 0.657325
0.294991 0.109709 0.656852
0.294654 0.10839 0.656957
0.294448 0.107153 0.657462
0.294395 0.106012 0.658445
0.294369 0.104884 0.659512
0.294226 0.103683 0.660216
0.294109 0.102496 0.661003
0.293961 0.10129 0.661697
0.293751 0.100046 0.662197
0.293572 0.098819 0.662796
0.293535 0.0976752 0.663839
0.293429 0.0964889 0.664668
0.293226 0.095245 0.665195
0.292961 0.0939645 0.665525
0.292542 0.0925966 0.665373
0.291902 0.0911046 0.664519
0.291181 0.0895716 0.663411
0.290432 0.0880267 0.662204
0.28955 0.0864135 0.660575
0.288647 0.0847942 0.658869
0.287693 0.083154 0.656998
0.286532 0.0814094 0.654461
0.285316 0.0796436 0.651737
0.284145 0.0779112 0.649149
0.283066 0.0762356 0.646846
0.282106 0.0746297 0.644915
0.281381 0.073151 0.643732
0.280728 0.0717138 0.642777
0.280058 0.0702718 0.641762
0.279389 0.0688342 0.640745
0.278737 0.0674089 0.639778
0.278069 0.06598 0.638756
0.277387 0.0645486 0.637687
0.276831 0.0631817 0.63702
0.276301 0.06183 0.636435
0.275844 0.0605155 0.636086
0.275458 0.0592355 0.635963
0.275118 0.0579781 0.63599
0.274758 0.0567126 0.635951
0.274356 0.0554294 0.635774
0.273949 0.0541457 0.63558
0.273521 0.0528542 0.635313
0.273096 0.0515659 0.635056
0.272652 0.0502708 0.634732
0.272202 0.0489754 0.634388
0.271727 0.047672 0.633961
0.271212 0.0463536 0.633394
0.270718 0.045047 0.632898
0.270245 0.0437515 0.63247
0.269822 0.0424779 0.632203
0.269401 0.041207 0.631941
0.269061 0.0399691 0.631948
0.268724 0.0387335 0.631965
0.268436 0.0375173 0.632145
0.268167 0.0363087 0.632389
0.267942 0.035116 0.632778
0.267695 0.0339153 0.633093
0.267451 0.032716 0.633421
0.267224 0.0315224 0.633806
0.267018 0.0303357 0.63426
0.266837 0.0291575 0.634802
0.266699 0.0279927 0.635488
0.266603 0.0268408 0.636319
0.26653 0.0256945 0.63723
0.266517 0.0245658 0.638349
0.266613 0.0234686 0.639839
0.266779 0.0223895 0.641575
0.267077 0.0213461 0.643767
0.267378 0.0202976 0.645976
0.267693 0.0192475 0.64824
0.267926 0.0181675 0.650226
0.268131 0.0170744 0.652121
0.268279 0.0159604 0.653824
0.268469 0.0148542 0.655677
0.268704 0.0137544 0.657692
0.268882 0.0126347 0.659512
0.268988 0.011492 0.661088
0.268993 0.0103197 0.66232
0.268966 0.00913766 0.663441
0.268866 0.00793497 0.664306
0.268709 0.00671732 0.664978
0.268542 0.00549676 0.665613
0.268425 0.00428651 0.666427
0.268318 0.00307577 0.667277
0.268251 0.00187276 0.66827
0.268168 0.000664495 0.669207
0.268108 -0.000541421 0.670229
0.268115 -0.00173669 0.671491
0.268863 -0.00279585 0.675379
0.270049 -0.00378602 0.680836
0.271794 -0.00469307 0.688298
0.273499 -0.00562994 0.695639
0.275024 -0.00661934 0.702362
0.303239 0.121687 0.669813
0.302313 0.119955 0.668156
0.301331 0.118192 0.666324
0.300316 0.116413 0.664381
0.299267 0.11462 0.662329
0.298228 0.112841 0.660302
0.297429 0.11122 0.659
0.296872 0.109758 0.658434
0.296486 0.108405 0.658391
0.29623 0.107135 0.658747
0.296121 0.105955 0.659555
0.296014 0.104775 0.660371
0.295791 0.103523 0.66083
0.295597 0.102287 0.661377
0.295397 0.101048 0.661907
0.295162 0.0997874 0.66233
0.294987 0.0985622 0.662941
0.295 0.0974456 0.664135
0.294926 0.0962763 0.665063
0.294754 0.0950486 0.665685
0.294512 0.0937806 0.666092
0.294086 0.0924078 0.665921
0.293441 0.0909134 0.66506
0.292714 0.0893774 0.66394
0.291961 0.0878315 0.662734
0.291074 0.0862165 0.661098
0.290187 0.084608 0.659461
0.28925 0.0829779 0.657654
0.28813 0.0812573 0.655264
0.286934 0.0795047 0.652624
0.285778 0.0777824 0.650104
0.284689 0.0761032 0.647786
0.28372 0.0744935 0.645841
0.28297 0.0730022 0.644588
0.282339 0.0715762 0.643714
0.281667 0.0701324 0.642699
0.28101 0.0687011 0.641734
0.280371 0.0672819 0.640819
0.279723 0.0658623 0.639872
0.279061 0.0644398 0.638875
0.27853 0.0630836 0.638298
0.278001 0.0617308 0.637722
0.277523 0.0604047 0.63731
0.277135 0.0591222 0.637188
0.276753 0.0578437 0.637083
0.276368 0.0565656 0.63697
0.275998 0.0552952 0.636902
0.275609 0.0540174 0.636769
0.27514 0.0527062 0.636374
0.274709 0.0514137 0.636101
0.274255 0.0501135 0.635754
0.27374 0.0487895 0.635202
0.273225 0.0474683 0.634648
0.272728 0.0461571 0.634151
0.272234 0.0448497 0.63366
0.271745 0.0435466 0.633183
0.271295 0.0422614 0.632833
0.270849 0.0409801 0.632495
0.270485 0.0397319 0.632425
0.27013 0.0384886 0.632385
0.26986 0.0372781 0.632627
0.269595 0.0360695 0.632884
0.269368 0.034875 0.633268
0.269121 0.0336731 0.633586
0.268873 0.032471 0.633902
0.268626 0.0312692 0.634219
0.268419 0.0300808 0.63467
0.268255 0.0289068 0.635269
0.268119 0.0277411 0.63596
0.268025 0.026588 0.636798
0.267951 0.0254395 0.637702
0.267936 0.0243084 0.638812
0.267971 0.0231899 0.640091
0.268074 0.0220892 0.641604
0.268241 0.0210039 0.643338
0.268406 0.0199137 0.64507
0.268572 0.0188193 0.646811
0.268717 0.0177146 0.648485
0.268849 0.016602 0.650119
0.269017 0.0154951 0.65188
0.26921 0.0143902 0.653734
0.269512 0.0133094 0.655966
0.269804 0.0122201 0.658168
0.270068 0.0111175 0.660281
0.270214 0.00998002 0.661991
0.270343 0.00883469 0.663648
0.270352 0.00765634 0.664894
0.270244 0.00644848 0.665733
0.270125 0.00523629 0.666538
0.270054 0.00403376 0.667509
0.269994 0.00283098 0.668522
0.269997 0.00163869 0.669758
0.270005 0.000445149 0.671014
0.270037 -0.000746577 0.672357
0.270144 -0.00192713 0.67397
0.271 -0.00297284 0.678219
0.272313 -0.00394896 0.6841
0.273787 -0.00491479 0.690564
0.275158 -0.00591711 0.696686
0.301883 0.116254 0.664939
0.300995 0.114566 0.663389
0.300066 0.112857 0.661711
0.299269 0.111238 0.660426
0.298711 0.109774 0.659866
0.298271 0.108386 0.659664
0.297962 0.10708 0.659861
0.297795 0.105862 0.66049
0.297609 0.104631 0.661062
0.297328 0.103342 0.661342
0.297083 0.102075 0.661736
0.296856 0.100818 0.662183
0.296596 0.0995419 0.662531
0.296396 0.0983001 0.66306
0.296391 0.0971714 0.664196
0.296322 0.0960038 0.665138
0.296176 0.09479 0.665841
0.29594 0.0935243 0.666265
0.295513 0.0921508 0.666094
0.294884 0.0906665 0.665292
0.294173 0.0891402 0.66423
0.293417 0.0875937 0.663024
0.29255 0.0859911 0.661463
0.291679 0.0843929 0.659887
0.290781 0.0827853 0.658217
0.289705 0.0810908 0.655985
0.288555 0.0793644 0.653508
0.287422 0.077656 0.651079
0.286344 0.075984 0.648813
0.285342 0.0743584 0.646779
0.284564 0.0728531 0.645449
0.283908 0.0714136 0.6445
0.283254 0.0699795 0.643556
0.282595 0.0685464 0.64259
0.281952 0.0671255 0.641674
0.2813 0.0657035 0.640722
0.280657 0.06429 0.639797
0.280104 0.0629225 0.639155
0.279577 0.06157 0.638593
0.279097 0.060242 0.638181
