ply
format ascii 1.0
element vertex 1606
property float x
property float y
property float z
end_header
0.0156404 -0.000578263 0.740222
0.0165533 -0.00154905 0.740308
0.0174661 -0.00251981 0.740388
0.0183696 -0.00349001 0.740122
0.0192835 -0.00446032 0.740262
0.0201997 -0.00543112 0.74048
0.0211203 -0.00640279 0.740832
0.0220493 -0.00737671 0.741431
0.0229889 -0.00835387 0.742327
0.02392 -0.00933048 0.742913
0.0248591 -0.0103102 0.743698
0.0257973 -0.0112908 0.744414
0.0267327 -0.0122716 0.745012
0.0276801 -0.0132574 0.745899
0.0286413 -0.0142496 0.747091
0.0296069 -0.0152451 0.748329
0.0305922 -0.0162505 0.749979
0.0315816 -0.0172599 0.751643
0.0325906 -0.0182803 0.753672
0.0336116 -0.0193087 0.755874
0.0346262 -0.0203373 0.75782
0.0356292 -0.0213624 0.759444
0.0366325 -0.0223897 0.760991
0.0376077 -0.0234045 0.761906
0.0385606 -0.024408 0.762355
0.0395216 -0.0254166 0.762935
0.0404796 -0.026424 0.763438
0.0414435 -0.0274353 0.764028
0.042413 -0.0284504 0.764706
0.0433983 -0.0294752 0.765642
0.0443771 -0.030497 0.766436
0.0453531 -0.0315179 0.767148
0.0463332 -0.0325421 0.767904
0.0473195 -0.0335707 0.768739
0.0482999 -0.0345963 0.769452
0.0492972 -0.0356335 0.770404
0.0503213 -0.0366885 0.77175
0.0513563 -0.037752 0.773216
0.0524023 -0.0388237 0.774804
0.0534588 -0.039904 0.77649
0.0544952 -0.040972 0.777843
0.0555505 -0.0420542 0.779415
0.0565928 -0.0431284 0.780765
0.0576745 -0.0442311 0.782615
0.0590758 -0.0455576 0.788772
-0.0533971 0.0764352 0.789184
-0.0523848 0.0753416 0.788701
-0.0513574 0.0742236 0.787935
-0.0503189 0.0730869 0.786938
-0.0492592 0.0719145 0.785508
-0.048198 0.0707381 0.783989
-0.047147 0.0695761 0.782588
-0.0460876 0.0683984 0.78096
-0.0450277 0.0672173 0.779242
-0.0439851 0.0660625 0.777785
-0.0429519 0.0649215 0.776451
-0.0419216 0.0637833 0.775108
-0.0409182 0.0626886 0.774271
-0.0399306 0.0616199 0.77374
-0.0389452 0.0605542 0.773228
-0.0379726 0.0595097 0.772976
-0.0370152 0.058492 0.773078
-0.0360686 0.0574937 0.773445
-0.0351287 0.0565081 0.774
-0.0341999 0.0555435 0.774872
-0.033273 0.0545843 0.775849
-0.032342 0.0536188 0.776765
-0.0314201 0.0526724 0.777998
-0.0304844 0.0517017 0.778902
-0.0295334 0.0507022 0.779387
-0.0285768 0.049692 0.779718
-0.0276211 0.0486844 0.780098
-0.0266473 0.0476393 0.77987
-0.025681 0.0466097 0.779888
-0.0247123 0.0455745 0.779807
-0.0237335 0.0445161 0.779307
-0.0227436 0.0434304 0.778289
-0.0217497 0.0423322 0.776986
-0.0207463 0.0412061 0.775089
-0.0197436 0.0400755 0.773011
-0.0187444 0.0389462 0.77085
-0.0177539 0.0378317 0.768879
-0.0167716 0.0367318 0.767102
-0.0157992 0.0356529 0.76568
-0.0148317 0.0345819 0.76435
-0.0138678 0.0335151 0.763034
-0.0129048 0.0324441 0.761539
-0.0119444 0.0313732 0.759951
-0.0109872 0.030303 0.758279
-0.010032 0.0292288 0.756395
-0.00908273 0.0281658 0.754675
-0.00813918 0.0271153 0.753175
-0.00719906 0.0260675 0.75164
-0.00626385 0.0250323 0.750355
-0.00533225 0.0240057 0.749229
-0.00440407 0.0229895 0.748334
-0.00347795 0.021972 0.747314
-0.00255443 0.020966 0.746594
-0.00163311 0.0199558 0.745654
-0.000713591 0.0189539 0.744928
0.000203896 0.0179523 0.744136
0.00112076 0.0169607 0.743662
0.00203477 0.0159644 0.742925
0.00294879 0.014976 0.742458
0.00386198 0.0139902 0.742047
0.00477493 0.0130075 0.741733
0.00568646 0.0120251 0.741378
0.00659866 0.0110462 0.741162
0.00750878 0.0100664 0.740842
0.00841785 0.00908758 0.740518
0.00932743 0.00811097 0.740288
0.0102393 0.00713737 0.740239
0.0111522 0.00616519 0.740281
0.0120676 0.00519433 0.740453
0.0129786 0.0042213 0.740394
0.0138903 0.00324917 0.74039
0.0148006 0.00227682 0.740327
0.0157124 0.00130527 0.740349
0.0166225 0.000333613 0.740305
0.0175376 -0.000637083 0.740468
0.0184489 -0.00160819 0.740486
0.0193538 -0.00257914 0.740281
0.020266 -0.0035496 0.740349
0.0211804 -0.00452025 0.740492
0.0221033 -0.00549205 0.740905
0.0230328 -0.00646536 0.741499
0.0239712 -0.00744144 0.742323
0.0249028 -0.00841754 0.742902
0.0258424 -0.0093964 0.743676
0.0267788 -0.0103757 0.744318
0.0277149 -0.0113559 0.74492
0.0286607 -0.0123399 0.745741
0.0296201 -0.0133297 0.746855
0.0305836 -0.0143227 0.748013
0.0315698 -0.0153258 0.749647
0.032564 -0.0163343 0.751382
0.033579 -0.0173538 0.753494
0.0346066 -0.0183817 0.75578
0.0356296 -0.0194106 0.757866
0.0366391 -0.0204361 0.759579
0.0376451 -0.0214625 0.761136
0.0386252 -0.0224781 0.762125
0.0395863 -0.0234852 0.762719
0.0405498 -0.0244947 0.763318
0.0415136 -0.0255048 0.763908
0.0424832 -0.0265185 0.764586
0.0434549 -0.0275337 0.765282
0.0444376 -0.0285564 0.766133
0.0454172 -0.0295777 0.766911
0.0463938 -0.0305983 0.767609
0.0473758 -0.0316225 0.768373
0.0483689 -0.0326539 0.769295
0.0493613 -0.0336859 0.770179
0.0503721 -0.0347301 0.771307
0.0514055 -0.0357889 0.772758
0.052444 -0.0368524 0.774229
0.0534918 -0.0379231 0.775798
0.0545496 -0.0390016 0.777463
0.0556048 -0.04008 0.779037
0.0566812 -0.0411734 0.780864
0.0577516 -0.0422646 0.782551
0.0590967 -0.0435392 0.787931
-0.0523876 0.0774725 0.789734
-0.0513898 0.0764009 0.789503
-0.0503769 0.0753044 0.788993
-0.0493497 0.0741834 0.788198
-0.0483002 0.0730241 0.786951
-0.047239 0.0718435 0.785427
-0.0461899 0.0706809 0.784063
-0.0451303 0.0694984 0.782425
-0.044067 0.0683067 0.780628
-0.0430181 0.0671371 0.779039
-0.0419877 0.0659972 0.777759
-0.0409494 0.064841 0.776237
-0.0399377 0.0637296 0.775224
-0.0389422 0.0626455 0.774522
-0.0379524 0.0615704 0.773912
-0.0369722 0.0605115 0.773491
-0.0360141 0.0594929 0.77359
-0.035067 0.058495 0.773969
-0.0341318 0.0575206 0.774681
-0.0332046 0.056563 0.775651
-0.0322817 0.0556156 0.776797
-0.0313513 0.0546555 0.777796
-0.0304264 0.0537087 0.779024
-0.0294834 0.0527268 0.779767
-0.0285301 0.0517252 0.780231
-0.027567 0.050703 0.780388
-0.0266051 0.049684 0.780596
-0.0256308 0.0486374 0.780359
-0.024666 0.0476115 0.780455
-0.0236951 0.0465715 0.78031
-0.0227183 0.0455165 0.779895
-0.021731 0.0444337 0.778964
-0.020738 0.0433329 0.777662
-0.0197379 0.0422082 0.775849
-0.0187385 0.0410783 0.773853
-0.0177399 0.0399419 0.771627
-0.0167495 0.0388195 0.769566
-0.015767 0.0377115 0.767692
-0.0147931 0.0366217 0.766095
-0.0138246 0.035541 0.764606
-0.0128609 0.0344682 0.763201
-0.0118986 0.0333911 0.761619
-0.01094 0.0323175 0.760019
-0.00998476 0.0312453 0.758353
-0.00903262 0.0301722 0.756558
-0.00808631 0.0291127 0.754987
-0.00714468 0.0280632 0.753575
-0.00620603 0.0270132 0.75205
-0.00527173 0.0259729 0.750682
-0.00434119 0.0249438 0.74954
-0.00341366 0.0239236 0.748571
-0.00248859 0.0229046 0.747557
-0.00156566 0.0218975 0.746848
-0.000644942 0.0208881 0.745992
0.000274024 0.0198847 0.745261
0.00119049 0.0188796 0.744398
0.00210654 0.0178845 0.743829
0.00301913 0.0168847 0.743001
0.00393194 0.0158934 0.742447
0.0048439 0.0149053 0.741959
0.0057563 0.0139222 0.741645
0.00666646 0.0129379 0.741222
0.00757723 0.0119574 0.740933
0.0084867 0.0109773 0.740613
0.009395 0.009998 0.740281
0.0103041 0.00902135 0.74006
0.0112182 0.0080498 0.740164
0.0121342 0.00707944 0.740364
0.0130515 0.00610945 0.740618
0.0139626 0.00513601 0.740562
0.0148745 0.00416326 0.740554
0.0157827 0.00318986 0.740401
0.0166944 0.00221793 0.740412
0.0176045 0.0012461 0.74037
0.0185217 0.000275376 0.740603
0.0194353 -0.000695899 0.740697
0.0203424 -0.00166733 0.740568
0.0212551 -0.00263841 0.740638
0.02217 -0.00360953 0.740783
0.0230937 -0.00458138 0.741193
0.0240217 -0.00555443 0.741711
0.0249583 -0.00652955 0.742447
0.0258882 -0.00750484 0.742956
0.026826 -0.00848257 0.743654
0.0277604 -0.00946069 0.744226
0.0286997 -0.010441 0.744893
0.0296468 -0.0114244 0.745723
0.0306046 -0.0124122 0.746768
0.0315683 -0.0134036 0.747899
0.0325522 -0.0144034 0.749435
0.033545 -0.0154088 0.751099
0.0345629 -0.0164258 0.753232
0.0355977 -0.0174527 0.755616
0.0366281 -0.0184814 0.757802
0.0376474 -0.0195086 0.759664
0.0386549 -0.0205328 0.761228
0.0396366 -0.0215478 0.762221
0.040603 -0.0225572 0.762885
0.0415667 -0.0235656 0.76348
0.0425367 -0.0245781 0.764167
0.0435133 -0.0255944 0.764948
0.0444913 -0.0266124 0.765724
0.0454747 -0.0276342 0.766565
0.0464509 -0.028653 0.767257
0.0474226 -0.02967 0.767856
0.0484095 -0.0306958 0.768686
0.0494052 -0.0317276 0.769619
0.0504055 -0.0327629 0.770601
0.0514341 -0.0338155 0.77198
0.0524708 -0.0348742 0.77344
0.053507 -0.0359344 0.774837
0.0545565 -0.0370036 0.776391
0.0556087 -0.0380761 0.777937
0.056654 -0.0391457 0.779344
0.0577202 -0.0402298 0.780987
0.0590408 -0.0414757 0.786052
-0.0503894 0.0774572 0.790251
-0.0493909 0.0763834 0.790002
-0.0483735 0.075277 0.789391
-0.0473295 0.074124 0.788249
-0.0462782 0.0729562 0.786907
-0.0452283 0.0717884 0.785526
-0.0441675 0.0705993 0.783857
-0.0431 0.069395 0.781963
-0.0420511 0.0682209 0.780364
-0.0410138 0.0670649 0.778933
-0.0399685 0.0658913 0.777242
-0.038952 0.0647681 0.776116
-0.037952 0.0636737 0.775312
-0.0369555 0.0625841 0.774542
-0.0359751 0.0615237 0.774121
-0.0350186 0.0605092 0.774284
-0.0340669 0.059504 0.774576
-0.0331302 0.0585298 0.775292
-0.0322042 0.0575784 0.776346
-0.0312764 0.0566255 0.777412
-0.0303439 0.0556655 0.778409
-0.0294163 0.054718 0.779622
-0.0284662 0.053724 0.780186
-0.0275089 0.0527155 0.78055
-0.026545 0.0516924 0.780699
-0.025581 0.0506694 0.780851
-0.0246072 0.0496233 0.780635
-0.0236444 0.0486028 0.780826
-0.0226731 0.0475615 0.780673
-0.0216981 0.0465098 0.780332
-0.0207132 0.0454296 0.77948
-0.0197229 0.0443311 0.778261
-0.018726 0.0432081 0.776535
-0.0177298 0.0420793 0.774621
-0.0167318 0.0409351 0.772321
-0.0157405 0.0398007 0.770095
-0.0147582 0.0386848 0.768122
-0.0137845 0.0375874 0.766425
-0.0128156 0.0364972 0.764783
-0.0118525 0.035418 0.763287
-0.0108926 0.0343415 0.761765
-0.00993589 0.0332657 0.760165
-0.00898266 0.0321917 0.758512
-0.00803317 0.0311204 0.756816
-0.00708896 0.0300617 0.75533
-0.00614878 0.0290104 0.753929
-0.00521171 0.0279579 0.7524
-0.00427859 0.0269153 0.751033
-0.00334914 0.0258841 0.749885
-0.00242241 0.0248616 0.748902
-0.0014982 0.0238411 0.747894
-0.000575773 0.0228325 0.747187
0.000344243 0.0218215 0.746329
0.0012627 0.0208167 0.745602
0.00217802 0.0198076 0.744654
0.00309302 0.0188092 0.744006
0.00400396 0.0178054 0.743078
0.00491528 0.0168112 0.742438
0.00582574 0.0158204 0.741872
0.00673768 0.0148368 0.741557
0.00764626 0.0138505 0.741064
0.00855646 0.0128695 0.74077
0.00946527 0.011889 0.740448
0.0103718 0.0109081 0.740048
0.0112792 0.00993018 0.739755
0.0121956 0.0089609 0.739995
0.0131131 0.00799185 0.740272
0.0140327 0.00702315 0.740627
0.014947 0.00605101 0.740718
0.0158604 0.00507856 0.740771
0.0167667 0.00410368 0.740536
0.0176765 0.00313087 0.740466
0.0185845 0.00215818 0.740346
0.0195002 0.00118732 0.740516
0.0204158 0.000216267 0.74068
0.0213252 -0.000755347 0.740634
0.0222406 -0.00172648 0.740787
0.0231589 -0.00269782 0.741023
0.0240831 -0.00366974 0.741429
0.0250094 -0.00464245 0.74187
0.0259442 -0.00561682 0.742526
0.0268716 -0.00659154 0.742948
0.0278073 -0.00756807 0.743571
0.0287424 -0.0085457 0.744143
0.0296857 -0.00952598 0.744892
0.0306307 -0.0105079 0.745647
0.0315858 -0.0114937 0.746601
0.0325465 -0.0124826 0.747638
0.0335313 -0.0134804 0.749161
0.0345264 -0.014484 0.750833
0.0355515 -0.0155 0.753071
0.0365972 -0.0165273 0.755621
0.0376419 -0.017558 0.758038
0.0386682 -0.0185852 0.759992
0.0396759 -0.0196078 0.761504
0.040662 -0.0206233 0.762554
0.0416286 -0.0216316 0.763213
0.0425895 -0.0226385 0.763733
0.0435663 -0.0236534 0.764513
0.0445527 -0.0246733 0.765449
0.045538 -0.0256941 0.766321
0.0465234 -0.026716 0.767168
0.0474998 -0.0277342 0.767839
0.0484672 -0.0287484 0.768351
0.0494507 -0.0297716 0.769099
0.0504489 -0.0308036 0.770043
0.051456 -0.0318412 0.771105
0.0524928 -0.0328963 0.772575
0.0535385 -0.0339582 0.774124
0.0545765 -0.0350173 0.775515
0.055617 -0.0360793 0.776904
0.0566531 -0.0371396 0.778195
0.0579303 -0.0383442 0.78276
0.0592414 -0.0395732 0.78766
-0.0494005 0.0785387 0.79124
-0.0484054 0.0774706 0.791071
-0.0473922 0.0763704 0.790551
-0.0463544 0.0752249 0.789523
-0.0453123 0.07407 0.788359
-0.0442632 0.0729 0.786995
-0.0432057 0.0717121 0.785385
-0.0421376 0.0705017 0.783469
-0.0410881 0.0693219 0.781851
-0.0400466 0.0681542 0.780326
-0.0390005 0.0669743 0.778606
-0.0379803 0.065841 0.777396
-0.0369733 0.0647308 0.776433
-0.0359729 0.0636317 0.775574
-0.0349879 0.0625615 0.775054
-0.0340241 0.0615331 0.775054
-0.0330651 0.0605147 0.775183
-0.0321269 0.0595401 0.775896
-0.0311985 0.0585882 0.77694
-0.0302664 0.0576308 0.777939
-0.0293342 0.0566758 0.779004
-0.0284043 0.0557285 0.780212
-0.02745 0.0547276 0.780682
-0.0264892 0.0537126 0.780955
-0.0255246 0.0526891 0.781104
-0.0245585 0.0516616 0.781197
-0.023585 0.0506159 0.781002
-0.0226217 0.0495954 0.781199
-0.0216502 0.0485532 0.781046
-0.0206769 0.0475047 0.780778
-0.0196939 0.0464272 0.780001
-0.0187065 0.045332 0.778877
-0.0177138 0.044215 0.777313
-0.0167219 0.0430917 0.775563
-0.0157268 0.0419474 0.773334
-0.0147358 0.0408043 0.77102
-0.0137546 0.0396831 0.769014
-0.0127797 0.0385737 0.767142
-0.0118102 0.037472 0.765331
-0.0108459 0.0363793 0.763605
-0.00988755 0.0353001 0.762073
-0.0089319 0.0342183 0.760396
-0.00797999 0.0331392 0.758683
-0.00703248 0.0320656 0.756993
-0.00609056 0.0310111 0.755658
-0.00515178 0.029958 0.754265
-0.00421617 0.0289035 0.752749
-0.00328452 0.0278611 0.751445
-0.00235587 0.0268301 0.75036
-0.00142995 0.0258033 0.749307
-0.00050642 0.0247829 0.748366
0.000415973 0.0237753 0.74773
0.00133589 0.0227644 0.746937
0.00225374 0.0217557 0.746142
0.00316779 0.0207423 0.745113
0.0040812 0.0197379 0.744308
0.00499045 0.0187301 0.743288
0.0058996 0.0177309 0.742502
0.00680938 0.0167392 0.741934
0.00772103 0.015755 0.741622
0.00863 0.0147691 0.741188
0.00953985 0.0137873 0.740892
0.0104494 0.0128073 0.740633
0.0113546 0.0118244 0.740172
0.0122614 0.0108456 0.739865
0.0131781 0.00987607 0.740097
0.0140947 0.008906 0.740309
0.0150136 0.00793682 0.740611
0.0159285 0.00696486 0.74072
0.0168419 0.00599218 0.740774
0.0177456 0.00501601 0.740449
0.018657 0.00404348 0.740446
0.0195669 0.00307106 0.740403
0.0204851 0.00210059 0.740653
0.0214036 0.00112972 0.740897
0.022318 0.000158001 0.741
0.0232345 -0.000813556 0.741169
0.0241538 -0.00178531 0.741418
0.0250768 -0.00275734 0.741759
0.026001 -0.00373004 0.742121
0.0269308 -0.00470377 0.742613
0.0278555 -0.00567798 0.742947
0.028789 -0.0066537 0.743494
0.0297274 -0.00763118 0.744135
0.0306749 -0.00861143 0.744965
0.0316212 -0.00959285 0.745724
0.0325746 -0.0105772 0.746611
0.0335323 -0.011564 0.747554
0.0345148 -0.0125591 0.74899
0.0355084 -0.0135599 0.750592
0.03654 -0.0145746 0.752909
0.0375965 -0.0156012 0.755621
0.0386569 -0.016634 0.758285
0.0396943 -0.0176621 0.760407
0.0407129 -0.0186871 0.762077
0.0417013 -0.0197023 0.763134
0.042673 -0.0207125 0.763856
0.0436347 -0.0217194 0.764367
0.0446128 -0.022734 0.765151
0.045603 -0.0237551 0.766103
0.0465944 -0.0247776 0.767056
0.0475776 -0.0257978 0.767836
0.0485512 -0.0268144 0.768434
0.0495152 -0.0278267 0.768868
0.0504945 -0.0288473 0.769525
0.0514937 -0.0298782 0.770471
0.0525089 -0.0309187 0.771622
0.0535538 -0.0319762 0.773171
0.0546076 -0.0330401 0.774804
0.0556482 -0.0340983 0.776205
0.0566848 -0.0351563 0.777502
0.0577119 -0.0362102 0.778633
0.0592465 -0.0375518 0.786611
0.0608427 -0.0389379 0.795165
0.0608759 -0.0410032 0.796723
-0.0474123 0.0785521 0.792051
-0.0463984 0.0774493 0.791525
-0.0453685 0.0763155 0.790651
-0.0443314 0.0751668 0.789588
-0.0432837 0.0739958 0.788248
-0.0422316 0.0728133 0.786742
-0.0411674 0.0716044 0.784889
-0.0401138 0.0704122 0.783173
-0.0390686 0.0692328 0.781554
-0.0380228 0.0680484 0.779825
-0.0370019 0.0669102 0.778596
-0.0359915 0.0657906 0.777552
-0.0349909 0.0646888 0.776693
-0.0340052 0.0636163 0.776172
-0.0330364 0.0625786 0.776074
-0.0320729 0.0615518 0.77611
-0.0311294 0.0605695 0.776729
-0.0301936 0.0596058 0.777616
-0.0292568 0.0586422 0.77853
-0.0283228 0.0576875 0.779594
-0.0273862 0.0567296 0.780649
-0.0264266 0.0557183 0.780971
-0.0254648 0.0547023 0.781234
-0.0244995 0.0536778 0.781376
-0.0235309 0.0526445 0.781388
-0.0225595 0.0516034 0.781274
-0.0215973 0.0505873 0.781546
-0.0206255 0.049544 0.781389
-0.0196538 0.0484997 0.781205
-0.0186732 0.0474263 0.780522
-0.0176896 0.0463391 0.779574
-0.0166998 0.0452249 0.778109
-0.0157105 0.0441035 0.776447
-0.014717 0.0429548 0.774211
-0.0137268 0.0418029 0.771807
-0.0127458 0.040673 0.769705
-0.0117716 0.0395556 0.76774
-0.0108027 0.0384465 0.765839
-0.00983923 0.0373464 0.764021
-0.00888226 0.0362642 0.762482
-0.00792763 0.035176 0.760723
-0.00697756 0.0340943 0.759009
-0.00603195 0.0330205 0.757375
-0.00509128 0.0319641 0.756044
-0.00415381 0.0309083 0.754647
-0.00321974 0.0298544 0.753203
-0.00228902 0.0288099 0.751903
-0.00136131 0.0277771 0.750826
-0.000436119 0.0267486 0.749782
0.000486779 0.0257262 0.748836
0.00140886 0.0247169 0.748197
0.00232828 0.0237043 0.747403
0.00324515 0.0226915 0.746535
0.00415777 0.021674 0.745429
0.00506956 0.0206654 0.744531
0.00597683 0.0196535 0.743429
0.00688431 0.0186511 0.742569
0.00779365 0.0176586 0.74201
0.008705 0.0166739 0.741702
0.00961337 0.0156871 0.741265
0.010523 0.0147046 0.740964
0.0114336 0.0137255 0.74078
0.0123385 0.0127418 0.740326
0.0132451 0.0117621 0.740018
0.0141619 0.0107922 0.740231
0.0150769 0.00982065 0.740357
0.0159945 0.00885049 0.740587
0.0169078 0.00787762 0.740633
0.0178214 0.0069049 0.74069
0.0187247 0.00592843 0.740373
0.0196379 0.00495641 0.740439
0.0205482 0.0039838 0.740407
0.0214692 0.00301397 0.740737
0.0223907 0.00204353 0.741067
0.0233102 0.00107225 0.741319
0.024228 0.000100321 0.741509
0.0251503 -0.000871573 0.741825
0.0260741 -0.00184402 0.742163
0.0269985 -0.00281705 0.742502
0.0279261 -0.00379078 0.742912
0.0288511 -0.00476504 0.743237
0.0297854 -0.00574071 0.743779
0.0307252 -0.00671803 0.744425
0.0316713 -0.00769749 0.745193
0.0326158 -0.00867809 0.745884
0.0335669 -0.00966109 0.746693
0.0345251 -0.0106471 0.747622
0.0355097 -0.0116409 0.749062
0.0365089 -0.0126408 0.750738
0.0375481 -0.0136549 0.753137
0.038616 -0.0146813 0.756003
0.0396882 -0.0157139 0.758828
0.040735 -0.0167427 0.761062
0.0417575 -0.0177668 0.762756
0.0427518 -0.0187834 0.763885
0.0437248 -0.0197939 0.76459
0.0446796 -0.0207983 0.764959
0.0456589 -0.0218127 0.765733
0.046655 -0.0228351 0.766759
0.0476443 -0.023856 0.767643
0.0486293 -0.024876 0.768435
0.0496041 -0.0258926 0.769033
0.0505683 -0.026905 0.769451
0.0515495 -0.0279259 0.770113
0.0525505 -0.0289571 0.771053
0.0535682 -0.0299974 0.772207
0.0546218 -0.031057 0.773846
0.0556731 -0.0321171 0.775412
0.056717 -0.0331756 0.776817
0.0577557 -0.0342326 0.778117
0.0590178 -0.0354103 0.7824
0.0608437 -0.0368976 0.794064
-0.0454013 0.0785295 0.792489
-0.044375 0.0774002 0.791688
-0.043346 0.0762642 0.79079
-0.0423029 0.0750984 0.789542
-0.0412521 0.073914 0.788054
-0.0401924 0.0727087 0.786287
-0.0391327 0.0714991 0.78442
-0.0380843 0.070308 0.782708
-0.0370386 0.0691185 0.780962
-0.036018 0.0679777 0.779738
-0.0350048 0.0668493 0.778623
-0.0340038 0.0657445 0.777759
-0.0330143 0.0646625 0.777147
-0.0320415 0.0636162 0.776961
-0.0310709 0.0625746 0.776825
-0.0301252 0.0615903 0.777424
-0.0291847 0.0606199 0.778223
-0.0282459 0.0596558 0.779129
-0.0273103 0.0587024 0.780209
-0.0263718 0.0577452 0.781269
-0.0254092 0.0567282 0.78152
-0.0244461 0.0557106 0.781768
-0.0234778 0.054679 0.781818
-0.0225044 0.0536329 0.78165
-0.0215323 0.0525897 0.781515
-0.020571 0.0515777 0.781854
-0.0196009 0.0505396 0.78179
-0.0186325 0.0495057 0.781788
-0.017658 0.0484512 0.781444
-0.0166792 0.0473779 0.780768
-0.0156914 0.0462661 0.779404
-0.0147038 0.0451454 0.777821
-0.0137104 0.0439875 0.7755
-0.0127195 0.0428216 0.772926
-0.0117373 0.041675 0.770586
-0.0107628 0.0405447 0.768444
-0.00979469 0.0394275 0.76645
-0.00883256 0.0383236 0.764618
-0.00787685 0.0372388 0.763079
-0.00692372 0.0361468 0.761307
-0.005975 0.0350613 0.759572
-0.00503059 0.0339806 0.757846
-0.00409089 0.0329212 0.756502
-0.00315463 0.03186 0.755032
-0.00222189 0.0308038 0.753591
-0.00129241 0.0297571 0.752293
-0.00036561 0.0287225 0.751217
0.00055844 0.0276894 0.750104
0.0014806 0.0266659 0.74917
0.00240233 0.0256549 0.748525
0.00332115 0.0246411 0.747742
0.00423726 0.0236267 0.746871
0.00514879 0.0226069 0.745759
0.00605967 0.021596 0.744839
0.00696586 0.0205821 0.743729
0.00787258 0.019578 0.742867
0.0087817 0.0185848 0.742324
0.00969186 0.0175971 0.741941
0.0105989 0.0166078 0.74144
0.011508 0.0156242 0.741126
0.012419 0.0146449 0.740959
0.0133237 0.0136605 0.740517
0.0142319 0.0126817 0.740293
0.0151491 0.0117113 0.740498
0.016064 0.0107387 0.740598
0.0169813 0.009768 0.740797
0.0178946 0.00879436 0.740825
0.0188084 0.0078214 0.740886
0.0197139 0.00684498 0.740653
0.020628 0.00587282 0.740736
0.0215387 0.00489951 0.74071
0.0224609 0.00392962 0.741054
0.0233835 0.002959 0.741391
0.0243039 0.00198751 0.741652
0.025222 0.00101507 0.741834
0.0261454 4.29419e-05 0.742153
0.0270666 -0.000929886 0.742404
0.0279911 -0.00190302 0.742731
0.0289193 -0.00287681 0.743137
0.0298452 -0.00385117 0.743469
0.0307778 -0.00482662 0.743948
0.0317216 -0.00580383 0.744666
0.0326687 -0.00678292 0.745426
0.0336145 -0.00776321 0.746124
0.0345632 -0.0087452 0.746854
0.0355298 -0.00973174 0.74793
0.0365272 -0.0107268 0.749587
0.0375453 -0.0117294 0.751588
0.0386016 -0.0127452 0.754248
0.0396865 -0.0137729 0.757353
0.0407686 -0.0148055 0.760266
0.0418118 -0.0158313 0.762356
0.0428253 -0.0168513 0.763827
0.0438185 -0.0178672 0.764882
0.0447892 -0.0188767 0.765515
0.0457409 -0.0198805 0.765803
0.0467222 -0.0208954 0.766579
0.0477196 -0.0219173 0.767597
0.0487065 -0.0229369 0.768401
0.0496975 -0.0239589 0.769257
0.0506741 -0.0249762 0.769857
0.0516344 -0.0259868 0.7702
0.0526171 -0.0270083 0.770854
0.0536194 -0.0280389 0.771787
0.0546345 -0.0290768 0.772874
0.0556915 -0.0301357 0.774527
0.0567523 -0.0311986 0.77618
0.0578044 -0.0322593 0.777665
0.0590799 -0.0334332 0.782131
0.0606197 -0.0347471 0.789979
-0.0433688 0.0784679 0.792518
-0.0423433 0.0773361 0.79169
-0.0413048 0.0761757 0.790531
-0.0402579 0.0749952 0.789118
-0.0392035 0.073795 0.787449
-0.0381479 0.0725884 0.785657
-0.0371003 0.0713937 0.783947
-0.0360551 0.0702 0.782198
-0.0350343 0.0690551 0.780964
-0.034021 0.0679237 0.77985
-0.0330199 0.0668165 0.778989
-0.0320294 0.0657312 0.778368
-0.0310525 0.0646763 0.778098
-0.0300779 0.0636254 0.777869
-0.0291249 0.0626275 0.778304
-0.0281771 0.0616433 0.778929
-0.0272316 0.0606668 0.779673
-0.0262915 0.0597069 0.78066
-0.025349 0.0587444 0.781642
-0.0243855 0.0577265 0.781887
-0.0234215 0.056708 0.782128
-0.0224524 0.0556748 0.782163
-0.0214785 0.054627 0.781982
-0.0205061 0.0535824 0.781839
-0.0195456 0.0525754 0.782257
-0.018577 0.051543 0.782294
-0.0176113 0.0505202 0.78248
-0.0166399 0.0494767 0.782338
-0.0156637 0.0484123 0.781843
-0.0146777 0.047303 0.780571
-0.0136918 0.0461833 0.779066
-0.0126995 0.0450197 0.776724
-0.0117102 0.0438482 0.774131
-0.0107287 0.0426917 0.771694
-0.00975404 0.0415482 0.769382
-0.00878662 0.0404221 0.767287
-0.00782529 0.0393105 0.76537
-0.00687018 0.0382188 0.763756
-0.00591826 0.0371207 0.761919
-0.0049709 0.0360313 0.760165
-0.00402776 0.0349433 0.758347
-0.00308924 0.0338776 0.756915
-0.00215429 0.032811 0.755378
-0.00122298 0.0317522 0.753931
-0.000294563 0.0307061 0.752698
0.000631732 0.0296727 0.751701
0.00155494 0.0286374 0.750585
0.00247694 0.0276146 0.749721
0.00339836 0.0266019 0.749073
0.00431692 0.0255863 0.748292
0.0052319 0.0245677 0.747352
0.0061426 0.0235457 0.746235
0.00705185 0.0225305 0.745239
0.00795701 0.0215145 0.744124
0.00886211 0.0205065 0.743189
0.00977087 0.019512 0.742646
0.0106808 0.0185232 0.742257
0.0115889 0.0175344 0.741823
0.012498 0.0165498 0.741512
0.0134093 0.0155697 0.741349
0.0143141 0.0145843 0.740914
0.0152227 0.0136046 0.740703
0.0161374 0.0126313 0.740777
0.0170507 0.0116571 0.740793
0.0179659 0.0106842 0.740891
0.0188806 0.00971112 0.740971
0.0197952 0.00873794 0.741045
0.020703 0.00776202 0.740896
0.0216198 0.00679027 0.741058
0.022533 0.00581711 0.741097
0.0234536 0.00484622 0.741369
0.0243765 0.00387529 0.741694
0.0252978 0.00290342 0.741959
0.0262162 0.00193071 0.742136
0.0271401 0.00095828 0.742452
0.0280617 -1.48766e-05 0.742695
0.0289872 -0.000988169 0.743027
0.0299166 -0.001962 0.743441
0.0308441 -0.00293661 0.743796
0.031778 -0.00391202 0.744281
0.032723 -0.0048892 0.744999
0.0336706 -0.00586794 0.74574
0.0346141 -0.0068476 0.746363
0.0355634 -0.00782918 0.747081
0.0365286 -0.00881464 0.748095
0.0375513 -0.00981228 0.750214
0.0385998 -0.010819 0.752748
0.0396847 -0.0118388 0.755862
0.0407906 -0.0128688 0.75925
0.0418893 -0.0139035 0.762359
0.042918 -0.0149241 0.764107
0.0439166 -0.0159397 0.765244
0.0449028 -0.0169533 0.76613
0.0458662 -0.0179605 0.766609
0.0468194 -0.0189653 0.766899
0.0477979 -0.0199791 0.767595
0.0487979 -0.0210019 0.768605
0.0497857 -0.0220212 0.769402
0.0507846 -0.0230461 0.770335
0.051763 -0.0240638 0.770939
0.0527258 -0.0250763 0.77129
0.0537045 -0.0260959 0.77186
0.0547091 -0.027127 0.772792
0.0557211 -0.0281626 0.773801
0.0567757 -0.0292185 0.775377
0.0578508 -0.030286 0.777183
0.058918 -0.0313519 0.778836
0.0604462 -0.0326395 0.786569
-0.0413476 0.0784305 0.7928
-0.040309 0.0772666 0.791636
-0.0392652 0.0760882 0.790281
-0.0382143 0.0748906 0.788679
-0.03716 0.0736811 0.786899
-0.0361164 0.0724903 0.785275
-0.0350776 0.0713055 0.783671
-0.0340537 0.0701506 0.782361
-0.0330344 0.0690018 0.781082
-0.0320323 0.0678905 0.780207
-0.031038 0.0667954 0.779496
-0.030055 0.0657254 0.779067
-0.029077 0.0646663 0.778757
-0.0281222 0.0636666 0.779181
-0.0271699 0.0626747 0.779715
-0.0262222 0.0616971 0.780448
-0.0252775 0.0607303 0.781344
-0.0243308 0.0597613 0.782238
-0.0233657 0.0587409 0.782459
-0.022399 0.0577161 0.782622
-0.0214276 0.0566768 0.782583
-0.0204553 0.0556342 0.78249
-0.0194843 0.0545946 0.782434
-0.0185245 0.053594 0.782954
-0.0175584 0.0525725 0.783174
-0.0165958 0.0515659 0.783628
-0.0156262 0.0505323 0.78367
-0.0146525 0.0494812 0.783427
-0.0136675 0.0483738 0.782247
-0.0126823 0.0472541 0.780809
-0.0116907 0.046084 0.778443
-0.0107017 0.0449013 0.77575
-0.00971908 0.0437251 0.77305
-0.00874443 0.0425668 0.770554
-0.00777706 0.0414265 0.768269
-0.0068162 0.0403028 0.766193
-0.0058619 0.0392046 0.76451
-0.0049114 0.0381035 0.76268
-0.00396531 0.0370074 0.760855
-0.00302359 0.0359122 0.758949
-0.00208621 0.0348396 0.757426
-0.00115278 0.0337664 0.7558
-0.000222787 0.0327054 0.754355
0.000704576 0.0316571 0.753124
0.00163054 0.0306245 0.752191
0.0025529 0.0295871 0.751075
0.00347487 0.0285649 0.750278
0.00439623 0.0275508 0.749635
0.00531503 0.0265357 0.748915
0.00622956 0.025515 0.747977
0.00714045 0.0244933 0.746934
0.00804854 0.023474 0.745881
0.00895193 0.0224532 0.74469
0.00985517 0.0214409 0.743672
0.0107622 0.0204422 0.743034
0.0116709 0.0194502 0.742576
0.0125798 0.018462 0.742203
0.0134891 0.0174765 0.741897
0.0144006 0.0164954 0.741729
0.0153067 0.0155103 0.741361
0.016219 0.0145327 0.741291
0.017133 0.0135573 0.741306
0.0180453 0.0125809 0.741262
0.018959 0.0116061 0.74128
0.0198721 0.0106311 0.741284
0.0207829 0.00965533 0.741218
0.0216914 0.00867907 0.74109
0.0226132 0.00770892 0.741393
0.023529 0.00673597 0.741501
0.0244522 0.00576523 0.741826
0.0253759 0.0047939 0.742149
0.0262999 0.00382203 0.742466
0.0272166 0.00284815 0.742574
0.0281414 0.00187531 0.74289
0.0290612 0.000901507 0.743069
0.0299876 -7.21499e-05 0.743406
0.0309153 -0.00104626 0.743758
0.0318438 -0.00202111 0.744118
0.0327788 -0.00299669 0.744603
0.033728 -0.0039736 0.745388
0.0346771 -0.00495222 0.746133
0.035625 -0.00593219 0.746821
0.0365759 -0.00691366 0.747543
0.0375721 -0.00790268 0.74914
0.0386222 -0.00890288 0.751719
0.0397016 -0.00991344 0.754749
0.0408111 -0.0109354 0.758216
0.0419338 -0.0119673 0.761774
0.0430078 -0.0129943 0.764325
0.0440142 -0.0140091 0.765604
0.0449987 -0.0150209 0.766446
0.0459719 -0.0160306 0.767079
0.0469377 -0.0170394 0.767558
0.0478967 -0.0180464 0.767925
0.0488817 -0.0190622 0.768694
0.0498801 -0.0200842 0.769637
0.0508745 -0.0211053 0.770508
0.0518816 -0.0221327 0.771532
0.052864 -0.0231528 0.772152
0.0538294 -0.0241665 0.772518
0.0548145 -0.0251886 0.773156
0.0558155 -0.0262182 0.773995
0.0568233 -0.0272513 0.774913
0.0578816 -0.0283075 0.776489
0.0589667 -0.0293773 0.778385
0.0600508 -0.0304489 0.780219
-0.0393177 0.0783765 0.792911
-0.0382734 0.0771932 0.79154
-0.0372226 0.0759908 0.789926
-0.0361661 0.0747705 0.78807
-0.0351234 0.0735767 0.786452
-0.0340882 0.0723955 0.784929
-0.0330613 0.0712295 0.783531
-0.0320414 0.070076 0.782234
-0.0310386 0.0689605 0.781342
-0.0300436 0.0678621 0.780622
-0.0290598 0.0667899 0.780191
-0.0280832 0.0657352 0.779958
-0.0271242 0.0647278 0.780303
-0.0261654 0.0637218 0.780672
-0.0252108 0.0627294 0.781223
-0.0242594 0.0617485 0.781939
-0.0233067 0.0607666 0.782661
-0.0223389 0.0597396 0.782798
-0.0213734 0.0587202 0.783042
-0.0204035 0.0576871 0.783098
-0.0194331 0.0566516 0.783121
-0.0184649 0.0556236 0.783248
-0.0175067 0.054635 0.783952
-0.0165421 0.053624 0.784347
-0.0155792 0.052623 0.784905
-0.0146102 0.0515977 0.785101
-0.0136366 0.05055 0.784949
-0.0126511 0.0494387 0.783764
-0.0116651 0.0483107 0.782251
-0.0106747 0.0471353 0.779875
-0.0096866 0.0459417 0.777084
-0.00870452 0.0447504 0.774207
-0.00773048 0.0435774 0.771528
-0.00676393 0.0424224 0.76905
-0.00580454 0.041293 0.766932
-0.00485137 0.0401875 0.765171
-0.00390238 0.0390878 0.763429
-0.00295768 0.0379963 0.761763
-0.00201732 0.0369008 0.759925
-0.00108091 0.0358211 0.758317
-0.000148582 0.0347436 0.756669
0.000780323 0.0336757 0.755137
0.00170665 0.0326217 0.753836
0.00263177 0.0315842 0.752838
0.00355346 0.0305445 0.751724
0.00447457 0.0295176 0.750854
0.00539489 0.0284985 0.750127
0.00631264 0.0274792 0.749338
0.00722721 0.0264589 0.748461
0.00813754 0.0254357 0.747437
0.00904497 0.0244146 0.746386
0.0099474 0.0233913 0.745185
0.0108495 0.0223762 0.744148
0.0117533 0.0213712 0.743346
0.0126602 0.0203757 0.742808
0.0135691 0.0193866 0.742437
0.0144785 0.0184007 0.742145
0.0153899 0.0174187 0.741976
0.016299 0.0164358 0.741736
0.0172133 0.015459 0.741733
0.0181281 0.0144831 0.741757
0.0190429 0.0135075 0.741793
0.0199592 0.0125331 0.741882
0.0208732 0.0115573 0.741891
0.0217847 0.0105805 0.741828
0.0226961 0.00960427 0.741773
0.0236168 0.00863244 0.742009
0.0245309 0.00765778 0.742046
0.0254524 0.00668562 0.742293
0.0263743 0.00571303 0.74254
0.0272965 0.00474016 0.742788
0.0282137 0.00376587 0.742896
0.0291393 0.00279288 0.743214
0.0300599 0.00181856 0.743397
0.0309873 0.000844729 0.743739
0.0319184 -0.00012939 0.744154
0.0328506 -0.00110443 0.74457
0.0337866 -0.00208015 0.745059
0.0347375 -0.00305698 0.745846
0.0356921 -0.00403564 0.746676
0.0366417 -0.00501566 0.74737
0.0376246 -0.00599999 0.748701
0.0386584 -0.00699227 0.750964
0.0397474 -0.00799645 0.75418
0.0408615 -0.00901087 0.757734
0.0419979 -0.0100359 0.761552
0.0431029 -0.0110629 0.764653
0.0441535 -0.0120848 0.766685
0.0451336 -0.0130947 0.767433
0.0460951 -0.0141016 0.767841
0.0470564 -0.0151091 0.768234
0.0480147 -0.0161162 0.768567
0.0489708 -0.0171231 0.768858
0.0499579 -0.0181395 0.769627
0.050959 -0.0191619 0.770578
0.0519572 -0.0201843 0.771465
0.0529788 -0.021216 0.77267
0.0539695 -0.0222386 0.773393
0.0549427 -0.0232559 0.773843
0.0559305 -0.0242797 0.774476
0.056932 -0.0253087 0.775301
0.0579314 -0.0263388 0.776059
0.058986 -0.0273917 0.777548
0.0600809 -0.0284635 0.779524
0.0611902 -0.0295441 0.781635
-0.0383846 0.0796316 0.795653
-0.0372684 0.0782782 0.792557
-0.0362141 0.0770625 0.790837
-0.0351559 0.0758314 0.788903
-0.0341144 0.0746348 0.78729
-0.0330862 0.0734658 0.785934
-0.0320596 0.0722958 0.784526
-0.03104 0.0711389 0.783225
-0.0300364 0.0700191 0.78231
-0.0290385 0.068911 0.781504
-0.0280519 0.0678302 0.780994
-0.0270747 0.0667745 0.780767
-0.0261122 0.0657596 0.781031
-0.0251496 0.0647458 0.781312
-0.0241913 0.0637456 0.781771
-0.023236 0.0627573 0.782391
-0.0222797 0.0617681 0.783018
-0.0213114 0.0607405 0.783155
-0.020347 0.0597272 0.783486
-0.0193787 0.0587012 0.78365
-0.0184094 0.0576716 0.783765
-0.0174434 0.0566555 0.784073
-0.0164878 0.0556846 0.78504
-0.0155241 0.0546849 0.785616
-0.0145616 0.0536944 0.786346
-0.0135927 0.0526778 0.786702
-0.0126183 0.0516325 0.786625
-0.0116323 0.0505173 0.785436
-0.0106464 0.0493854 0.783925
-0.00965687 0.0482041 0.781537
-0.00867012 0.0470044 0.778735
-0.00768917 0.0458021 0.775766
-0.00671589 0.0446134 0.772903
-0.00575 0.0434427 0.770232
-0.00479152 0.0422988 0.767926
-0.00383912 0.0411845 0.766061
-0.00289142 0.0400815 0.764323
-0.00194773 0.0389918 0.762755
-0.00100854 0.0378898 0.760857
-7.31681e-05 0.0368055 0.759224
0.00085776 0.0357202 0.757478
0.00178513 0.0346452 0.755859
0.00271021 0.0335857 0.754489
0.00363547 0.0325495 0.753573
0.00455658 0.0315071 0.752452
0.00547662 0.0304749 0.751503
0.0063959 0.0294506 0.750694
0.00731222 0.0284262 0.74982
0.00822634 0.0274042 0.748947
0.00913696 0.0263817 0.747994
0.0100451 0.0253613 0.747028
0.0109466 0.0243356 0.745828
0.0118479 0.0233176 0.744766
0.0127496 0.0223076 0.743869
0.0136532 0.0213061 0.743176
0.0145621 0.020316 0.742811
0.0154718 0.0193294 0.742529
0.0163837 0.0183469 0.742372
0.017293 0.017363 0.742133
0.0182076 0.0163854 0.742127
0.019121 0.0154072 0.742085
0.0200387 0.0144328 0.742201
0.0209557 0.0134579 0.742295
0.021872 0.0124826 0.742367
0.0227862 0.0115062 0.742373
0.0237004 0.0105301 0.742389
0.0246199 0.00955666 0.742561
0.0255372 0.00858202 0.742666
0.0264573 0.00760842 0.74285
0.0273773 0.00663439 0.743021
0.0282979 0.00566032 0.743206
0.0292155 0.00468535 0.74331
0.030142 0.00371195 0.74363
0.0310663 0.00273765 0.743885
0.0319943 0.00176344 0.744218
0.0329294 0.000789136 0.744697
0.0338655 -0.000185931 0.745179
0.0348032 -0.00116217 0.745672
0.0357564 -0.00213916 0.746472
0.0367204 -0.00311793 0.747459
0.0376767 -0.0040985 0.74825
0.0386995 -0.00508471 0.750302
0.0397725 -0.00607959 0.753222
0.0408982 -0.00708616 0.757003
0.0420417 -0.00810291 0.760951
0.0431892 -0.00912843 0.764809
0.0442617 -0.0101495 0.767213
0.0452817 -0.0111656 0.768635
0.0462358 -0.0121718 0.768887
0.0471802 -0.0131762 0.768977
0.0481339 -0.0141828 0.769217
0.0490942 -0.0151911 0.769558
0.0500569 -0.0162004 0.769931
0.0510518 -0.017219 0.770785
0.0520592 -0.0182423 0.771809
0.0530669 -0.0192675 0.772797
0.0540979 -0.0203017 0.774094
0.055099 -0.0213284 0.774921
0.0560749 -0.0223473 0.775381
0.0570594 -0.0233704 0.775936
0.0580581 -0.0243989 0.776677
0.0590526 -0.0254268 0.777346
0.0600986 -0.0264753 0.778676
0.0612039 -0.0275492 0.78074
0.0623376 -0.0286371 0.783115
-0.03631 0.0794868 0.794825
-0.0351841 0.0780889 0.791249
-0.0341384 0.0768815 0.789599
-0.0331041 0.0756973 0.788151
-0.0320827 0.0745418 0.786973
-0.0310572 0.0733699 0.78558
-0.0300403 0.0722159 0.784346
-0.0290363 0.0710929 0.783426
-0.028036 0.0699762 0.78255
-0.0270463 0.0688864 0.781959
-0.0260682 0.0678285 0.781726
-0.0250999 0.0667988 0.781825
-0.0241318 0.0657705 0.781939
-0.0231696 0.0647615 0.782293
-0.022211 0.0637659 0.782826
-0.0212516 0.0627706 0.783375
-0.0202846 0.0617496 0.783604
-0.0193227 0.0607487 0.784104
-0.0183567 0.0597346 0.784439
-0.0173894 0.0587168 0.784732
-0.016426 0.0577175 0.785288
-0.0154691 0.0567522 0.786343
-0.0145037 0.0557532 0.786945
-0.0135387 0.0547619 0.787679
-0.0125681 0.0537446 0.788047
-0.0115912 0.0526918 0.787886
-0.0106061 0.0515787 0.786778
-0.00962161 0.0504521 0.785409
-0.0086346 0.0492763 0.783188
-0.00765037 0.0480809 0.780547
-0.00667138 0.0468775 0.777661
-0.00569905 0.0456776 0.774705
-0.00473387 0.0444862 0.771769
-0.00377609 0.0433219 0.769183
-0.00282458 0.0421897 0.767063
-0.00187796 0.0410791 0.765245
-0.000935105 0.0399865 0.763683
2.89131e-06 0.0388818 0.761804
0.000937302 0.0377945 0.760176
0.001867 0.0367045 0.758402
0.00279282 0.0356219 0.756691
0.00371706 0.0345591 0.75531
0.00464206 0.0335203 0.754389
0.00556275 0.0324755 0.753271
0.00648149 0.031437 0.75223
0.0073994 0.0304072 0.751333
0.008314 0.0293768 0.750359
0.00922654 0.0283498 0.74941
0.0101366 0.0273257 0.748461
0.0110442 0.0263038 0.747508
0.0119449 0.0252761 0.746311
0.0128439 0.0242535 0.745175
0.0137448 0.0232415 0.744272
0.0146461 0.0222358 0.743488
0.0155563 0.0212466 0.743189
0.0164664 0.0202591 0.742913
0.0173788 0.0192761 0.74277
0.0182885 0.0182916 0.742543
0.0192037 0.0173134 0.74254
0.0201154 0.0163328 0.742425
0.0210333 0.0153577 0.742532
0.0219508 0.0143822 0.742626
0.0228679 0.0134066 0.742708
0.0237825 0.0124296 0.742718
0.0246972 0.0114529 0.742736
0.0256172 0.010479 0.742907
0.026535 0.00950376 0.743008
0.0274554 0.00852958 0.743184
0.0283761 0.00755516 0.743357
0.0292968 0.00658056 0.743532
0.0302149 0.00560508 0.743635
0.031145 0.00463215 0.744023
0.0320765 0.00365855 0.744426
0.0330094 0.00268438 0.744844
0.0339497 0.00171007 0.745409
0.0348912 0.000734706 0.745973
0.0358342 -0.000241833 0.746549
0.0367864 -0.00121916 0.74729
0.0377563 -0.00219801 0.748349
0.0387493 -0.00317949 0.749813
0.0398181 -0.00416717 0.752655
0.0409308 -0.00516373 0.756194
0.0420849 -0.00617144 0.760341
0.043231 -0.00718713 0.764185
0.0443465 -0.00820759 0.767343
0.0453834 -0.0092237 0.769032
0.0463731 -0.0102353 0.769878
0.0473188 -0.0112413 0.769966
0.0482639 -0.0122467 0.770052
0.0492143 -0.0132533 0.770218
0.0501724 -0.014262 0.770499
0.0511415 -0.0152735 0.770943
0.0521333 -0.0162913 0.771718
0.0531437 -0.017315 0.772748
0.0541595 -0.0183423 0.773819
0.0551994 -0.0193781 0.775209
0.0562026 -0.020405 0.77604
0.0571862 -0.0214272 0.776574
0.0581726 -0.0224511 0.777129
0.0591733 -0.0234804 0.777868
0.0601645 -0.0245073 0.778462
0.0612073 -0.0255538 0.779712
0.0623148 -0.026626 0.781759
0.0634719 -0.02772 0.78438
-0.0342025 0.0792456 0.792998
-0.0331018 0.077888 0.789818
-0.0320737 0.0767144 0.788507
-0.0310648 0.075588 0.787665
-0.0300436 0.0744232 0.786379
-0.0290329 0.0732827 0.785322
-0.0280316 0.0721648 0.784489
-0.0270308 0.0710446 0.783602
-0.0260384 0.0699454 0.782927
-0.0250589 0.0688841 0.782676
-0.0240868 0.0678448 0.782676
-0.0231153 0.0668076 0.782696
-0.0221499 0.065791 0.782966
-0.0211897 0.0647945 0.783493
-0.0202291 0.0637991 0.784047
-0.0192628 0.0627844 0.784366
-0.0183013 0.061791 0.784971
-0.0173369 0.0607892 0.785482
-0.0163696 0.059777 0.785865
-0.0154067 0.0587887 0.786588
-0.0144471 0.0578234 0.78765
-0.0134806 0.0568294 0.78834
-0.0125124 0.0558324 0.789007
-0.0115397 0.0548135 0.789375
-0.0105614 0.0537579 0.7892
-0.00957676 0.0526465 0.788167
-0.00859252 0.0515181 0.786824
-0.00760807 0.0503537 0.784856
-0.00662573 0.0491588 0.782313
-0.00564805 0.0479459 0.779361
-0.00467719 0.0467344 0.77631
-0.00371356 0.0455266 0.773186
-0.00275737 0.0443464 0.770409
-0.00180731 0.0431997 0.768104
-0.000861793 0.0420839 0.766259
8.02919e-05 0.0409883 0.764701
0.00101739 0.0398835 0.76289
0.00195065 0.0387892 0.761191
0.00287934 0.0376951 0.75941
0.00380392 0.0366083 0.757681
0.00472686 0.0355385 0.756216
0.00565102 0.0344941 0.755224
0.0065712 0.0334463 0.754096
0.00748847 0.0324017 0.75297
0.00840478 0.0313655 0.751974
0.00931755 0.0303292 0.750909
0.0102292 0.0292997 0.749943
0.0111387 0.0282734 0.748994
0.0120473 0.0272528 0.748125
0.0129477 0.0262234 0.74695
0.0138459 0.0251986 0.745814
0.0147447 0.0241819 0.744832
0.0156435 0.0231715 0.74396
0.0165523 0.022179 0.743589
0.0174621 0.0211901 0.743304
0.0183771 0.0202087 0.743245
0.0192871 0.0192231 0.743019
0.0202047 0.0182459 0.743084
0.0211187 0.0172656 0.743027
0.0220351 0.016288 0.74306
0.0229533 0.0153118 0.743155
0.0238734 0.014337 0.74331
0.0247892 0.0133593 0.74333
0.0257051 0.0123818 0.743359
0.0266285 0.0114082 0.743595
0.0275442 0.0104309 0.743625
0.028465 0.00945583 0.743786
0.0293863 0.00848052 0.743952
0.0303077 0.00750505 0.744121
0.0312266 0.00652883 0.744226
0.0321612 0.00555613 0.744689
0.0330947 0.00458216 0.74511
0.0340304 0.00360759 0.745559
0.0349768 0.00263353 0.746222
0.0359243 0.00165814 0.74688
0.0368734 0.000681298 0.747542
0.0378313 -0.000296538 0.748355
0.0388149 -0.00127531 0.749632
0.0398452 -0.0022567 0.751741
0.0409585 -0.00324418 0.7553
0.0421171 -0.00424164 0.759538
0.0432829 -0.00524909 0.763734
0.0444204 -0.00626338 0.767276
0.0454964 -0.00727977 0.769629
0.0464917 -0.00829088 0.770557
0.0474438 -0.00929858 0.770734
0.0483859 -0.0103047 0.770751
0.0493329 -0.0113119 0.770839
0.0502898 -0.0123206 0.771092
0.0512536 -0.0133307 0.771446
0.0522253 -0.0143433 0.771906
0.0532241 -0.0153627 0.772753
0.0542375 -0.0163873 0.773784
0.0552498 -0.0174132 0.774773
0.0562872 -0.0184474 0.776086
0.0572915 -0.0194745 0.776904
0.0582763 -0.0204969 0.777437
0.0592699 -0.0215229 0.77807
0.0602737 -0.0225532 0.778822
0.0612673 -0.0235814 0.779417
0.0623114 -0.0246275 0.780649
0.0634027 -0.0256915 0.782451
0.0645385 -0.0267749 0.784748
0.0651025 -0.0290031 0.792827
0.0660962 -0.0280175 0.792175
-0.0332162 0.0804064 0.794744
-0.0320584 0.078879 0.789869
-0.0310451 0.0777408 0.788948
-0.0300455 0.0766381 0.788377
-0.0290335 0.0754957 0.78736
-0.0280305 0.0743754 0.786554
-0.0270315 0.0732631 0.785812
-0.0260305 0.0721407 0.784933
-0.025037 0.0710374 0.784245
-0.0240556 0.0699715 0.783964
-0.0230778 0.0689158 0.783793
-0.0221029 0.0678692 0.78372
-0.0211341 0.0668444 0.783907
-0.0201722 0.065847 0.784432
-0.0192101 0.0648521 0.785001
-0.0182439 0.0638433 0.785409
-0.0172836 0.0628628 0.78619
-0.0163202 0.0618744 0.786889
-0.0153512 0.0608624 0.787296
-0.014387 0.0598797 0.788108
-0.0134243 0.0589134 0.789169
-0.0124541 0.0579119 0.789773
-0.0114816 0.0569009 0.79026
-0.0105068 0.0558791 0.790604
-0.00952597 0.05481 0.790262
-0.00854142 0.0536966 0.789238
-0.00755827 0.0525709 0.787987
-0.0065761 0.0514201 0.786291
-0.00559592 0.0502327 0.783943
-0.00462043 0.0490237 0.781148
-0.00365131 0.0478055 0.778084
-0.00268943 0.0465843 0.774837
-0.00173511 0.0453876 0.771869
-0.000786841 0.0442214 0.769306
0.000157231 0.0430922 0.767287
0.00109874 0.0419955 0.765771
0.00203525 0.0408912 0.764039
0.00296785 0.0397939 0.762351
0.00389614 0.0387003 0.76065
0.00482002 0.0376091 0.75891
0.00574154 0.0365313 0.757353
0.00666398 0.0354767 0.756202
0.00758381 0.0344262 0.755073
0.00849974 0.0333752 0.753867
0.00941572 0.0323362 0.752864
0.0103267 0.0312938 0.751711
0.0112366 0.0302584 0.75066
0.0121444 0.0292271 0.749637
0.0130525 0.0282041 0.748761
0.0139536 0.027175 0.747657
0.0148515 0.0261482 0.746533
0.0157515 0.0251319 0.745623
0.0166503 0.0241192 0.744752
0.0175589 0.0231245 0.744362
0.0184692 0.0221341 0.744074
0.019387 0.0211535 0.744088
0.0202998 0.0201684 0.743935
0.0212186 0.01919 0.744003
0.0221311 0.0182064 0.743867
0.0230456 0.0172253 0.743813
0.0239621 0.0162463 0.743828
0.0248811 0.0152691 0.743918
0.0257978 0.0142905 0.743945
0.026717 0.0133137 0.744048
0.027639 0.0123381 0.744219
0.0285551 0.0113596 0.744237
0.0294766 0.0103837 0.744395
0.0303987 0.00940763 0.744561
0.0313215 0.00843155 0.744739
0.0322445 0.0074554 0.744919
0.0331841 0.00648306 0.745464
0.0341231 0.00550934 0.745974
0.0350648 0.00453481 0.746518
0.0360211 0.00356146 0.747347
0.0369784 0.00258615 0.74816
0.0379338 0.00160875 0.748902
0.0388985 0.000630277 0.749797
0.0399138 -0.000347556 0.751611
0.0409781 -0.00132833 0.754258
0.0421325 -0.00231492 0.758427
0.0432982 -0.00331145 0.762636
0.0444574 -0.00431752 0.766567
0.0455622 -0.00532956 0.769414
0.0466059 -0.00634278 0.771145
0.0475689 -0.00735209 0.771489
0.0485266 -0.00836084 0.771745
0.0494758 -0.00936958 0.771849
0.0504289 -0.0103787 0.772017
0.0513878 -0.0113886 0.772275
0.0523537 -0.0124002 0.772632
0.0533272 -0.0134138 0.773092
0.0543232 -0.0144328 0.773865
0.055334 -0.0154568 0.774822
0.0563417 -0.0164814 0.775712
0.0573693 -0.0175122 0.776855
0.0583632 -0.0185363 0.777505
0.0593493 -0.0195594 0.77803
0.060339 -0.0205841 0.778596
0.0613453 -0.0216147 0.77936
0.0623401 -0.0226425 0.779962
0.06338 -0.023686 0.781116
0.0645919 -0.0247882 0.784376
0.0658599 -0.0259144 0.788244
0.0673755 -0.0271337 0.794999
-0.031173 0.0803313 0.794637
-0.0301141 0.0790633 0.792445
-0.0290692 0.0778272 0.79053
-0.0280364 0.0766194 0.788861
-0.0270332 0.0754978 0.788074
-0.0260311 0.0743754 0.787254
-0.0250254 0.0732356 0.786215
-0.0240288 0.0721212 0.785431
-0.0230423 0.0710383 0.78498
-0.0220614 0.069973 0.784717
-0.0210856 0.0689249 0.784646
-0.0201173 0.0679059 0.784915
-0.0191552 0.0669149 0.785527
-0.0181926 0.0659254 0.786174
-0.0172276 0.0649293 0.786755
-0.0162663 0.0639557 0.787636
-0.015302 0.0629742 0.78844
-0.0143319 0.0619678 0.788943
-0.0133649 0.0609844 0.789763
-0.0123981 0.0600104 0.790734
-0.0114242 0.059 0.791236
-0.0104477 0.0579741 0.791534
-0.00947024 0.0569435 0.791774
-0.00848771 0.055865 0.791325
-0.00750374 0.0547539 0.790376
-0.00652117 0.0536321 0.789229
-0.00554036 0.0524896 0.787717
-0.004562 0.051313 0.785612
-0.00358813 0.0501093 0.78299
-0.00262073 0.0488839 0.779906
-0.0016609 0.0476545 0.776627
-0.000708353 0.0464455 0.773552
0.000237705 0.0452593 0.770733
0.00117978 0.0441119 0.768473
0.00211962 0.0430014 0.766771
0.00305454 0.0418891 0.764952
0.00398605 0.0407887 0.76327
0.00491294 0.0396893 0.761523
0.00583704 0.0386019 0.75992
0.00675769 0.0375203 0.758352
0.00767961 0.0364622 0.757188
0.00859808 0.0354052 0.75598
0.00951359 0.0343516 0.754777
0.0104282 0.0333068 0.753699
0.0113399 0.032265 0.752621
0.0122484 0.0312242 0.751501
0.0131554 0.0301898 0.750461
0.0140647 0.0291669 0.749647
0.0149652 0.028135 0.748534
0.0158629 0.0271059 0.747419
0.0167647 0.0260898 0.746584
0.0176652 0.0250772 0.745783
0.0185746 0.0240805 0.745393
0.0194879 0.0230907 0.745183
0.0204069 0.0221087 0.745195
0.0213211 0.0211224 0.745057
0.0222414 0.0201425 0.745128
0.0231548 0.0191569 0.744987
0.024068 0.0181722 0.744858
0.0249828 0.0171895 0.744786
0.0258995 0.0162089 0.744784
0.0268145 0.0152275 0.744736
0.0277322 0.014248 0.744769
0.0286553 0.0132717 0.744943
0.0295721 0.012292 0.744958
0.0304948 0.0113152 0.745119
0.0314179 0.0103382 0.745287
0.0323456 0.00936264 0.745555
0.0332737 0.00838657 0.745822
0.0342192 0.00741464 0.746454
0.0351634 0.00644088 0.747039
0.0361136 0.00546703 0.747723
0.0370723 0.00449281 0.748549
0.0380359 0.00351728 0.749438
0.0390059 0.00254053 0.750418
0.0399867 0.00156224 0.751561
0.0410222 0.000585288 0.75367
0.0421208 -0.000393777 0.756835
0.0432785 -0.00137911 0.760921
0.0444327 -0.00237419 0.764788
0.045577 -0.00337814 0.768342
0.0466585 -0.00438794 0.770714
0.0476771 -0.00539947 0.771974
0.048647 -0.00641005 0.772407
0.0496127 -0.00742088 0.77276
0.0505735 -0.00843179 0.77303
0.0515339 -0.00944317 0.773286
0.0524944 -0.0104543 0.773543
0.0534625 -0.0114677 0.7739
0.0544382 -0.0124826 0.774362
0.0554257 -0.0135003 0.774984
0.0564262 -0.014522 0.775764
0.0574296 -0.0155458 0.776559
0.0584459 -0.0165736 0.777516
0.0594283 -0.0175945 0.777997
0.060415 -0.0186175 0.778518
0.0614127 -0.0196444 0.779166
0.0624225 -0.0206758 0.779952
0.0634252 -0.0217057 0.78064
0.0645848 -0.0227841 0.783253
0.0659428 -0.0239287 0.788229
0.0673575 -0.0250997 0.793755
0.0690249 -0.0263637 0.802146
0.0737785 -0.0315577 0.835786
0.0731269 -0.0292019 0.82718
0.0749182 -0.0305573 0.836236
-0.0291774 0.0804043 0.796047
-0.0280947 0.0790453 0.792928
-0.0270616 0.0778337 0.791274
-0.0260412 0.0766557 0.78993
-0.0250208 0.0754693 0.788457
-0.0240168 0.0743333 0.787493
-0.0230212 0.0732219 0.786773
-0.0220318 0.0721291 0.786238
-0.021048 0.0710544 0.785892
-0.0200711 0.0700051 0.785827
-0.0191027 0.068992 0.786182
-0.0181403 0.0680084 0.786895
-0.0171783 0.0670325 0.787719
-0.0162136 0.0660491 0.788475
-0.0152517 0.0650879 0.789527
-0.0142856 0.0641124 0.790427
-0.0133138 0.0631108 0.791019
-0.0123433 0.0621252 0.791835
-0.011371 0.0611367 0.792635
-0.0103928 0.0601103 0.792949
-0.0094124 0.0590686 0.793058
-0.00843214 0.0580288 0.793194
-0.00744823 0.0569424 0.792669
-0.00646377 0.0558279 0.791716
-0.00548131 0.0547069 0.790627
-0.004501 0.0535657 0.789191
-0.00352351 0.0523909 0.787182
-0.00255119 0.0511882 0.784657
-0.00158553 0.0499618 0.781651
-0.000627978 0.0487208 0.778284
0.000322203 0.0474996 0.775104
0.00126538 0.0462929 0.772029
0.0022049 0.0451298 0.769576
0.00314271 0.0440061 0.767702
