ply
format ascii 1.0
element vertex 1551
property float x
property float y
property float z
end_header
-0.0206374 -0.0772765 0.532718
-0.0196357 -0.0766755 0.530962
-0.0186462 -0.0761172 0.529514
-0.017378 -0.076984 0.531656
-0.0176654 -0.0755843 0.528254
-0.016405 -0.0765045 0.530835
-0.016699 -0.0751234 0.527547
-0.0154374 -0.076051 0.530198
-0.0157391 -0.0746936 0.527079
-0.0144714 -0.0755876 0.529482
-0.0147814 -0.074268 0.526635
-0.0135083 -0.0751281 0.528786
-0.0138263 -0.0738514 0.526258
-0.0125496 -0.0746895 0.528249
-0.0128746 -0.073457 0.526049
-0.0115916 -0.0742318 0.527554
-0.0119227 -0.0730408 0.525669
-0.010972 -0.0726248 0.52528
-0.0100251 -0.072241 0.525151
-0.00907892 -0.0718612 0.525051
-0.00813346 -0.0714857 0.524979
-0.00718938 -0.0711366 0.525128
-0.00624549 -0.0707927 0.525323
-0.005301 -0.0704506 0.525525
-0.00435605 -0.0701295 0.525907
-0.00340991 -0.0698239 0.526424
-0.00246212 -0.0695248 0.526995
-0.00151287 -0.0692298 0.527611
-0.000559694 -0.068967 0.528505
0.000396243 -0.0687075 0.529433
0.0013578 -0.0684779 0.530627
0.00233171 -0.0683259 0.532507
0.00332178 -0.0682564 0.535126
-0.0630501 -0.0998633 0.593554
-0.061981 -0.0994594 0.593649
-0.0608902 -0.0990151 0.593474
-0.0597671 -0.0985083 0.59288
-0.0586485 -0.098007 0.592315
-0.0575003 -0.0974441 0.591331
-0.0563618 -0.096895 0.59043
-0.05525 -0.096394 0.589847
-0.0541673 -0.0959485 0.589635
-0.053083 -0.0954975 0.589382
-0.0520176 -0.0950851 0.589389
-0.0509382 -0.09464 0.589176
-0.04985 -0.0941744 0.588812
-0.0487675 -0.0937189 0.588514
-0.0476867 -0.0932639 0.588217
-0.0466093 -0.0928139 0.587952
-0.0455447 -0.0923926 0.587883
-0.0444977 -0.0920117 0.588103
-0.0434437 -0.0916152 0.588207
-0.0424054 -0.0912571 0.588591
-0.0413765 -0.0909273 0.589173
-0.0403477 -0.0905994 0.589778
-0.0393252 -0.0902931 0.590541
-0.0383045 -0.0899952 0.591375
-0.0372718 -0.0896685 0.592001
-0.03623 -0.0893184 0.592458
-0.0350211 -0.088449 0.589085
-0.0336257 -0.0869444 0.580977
-0.0293463 -0.0815977 0.549935
-0.0281145 -0.080323 0.54322
-0.0270376 -0.0795729 0.540426
-0.0259716 -0.0788333 0.537683
-0.0249781 -0.0783665 0.537003
-0.0239728 -0.0778381 0.535837
-0.0229616 -0.0772622 0.534296
-0.0219412 -0.0766187 0.532211
-0.0209292 -0.0759835 0.530174
-0.0199259 -0.0753622 0.528222
-0.0189378 -0.0747967 0.526686
-0.0179617 -0.0742736 0.525475
-0.0170026 -0.0738415 0.52497
-0.0160485 -0.0734324 0.524644
-0.0150979 -0.0730388 0.524441
-0.0141489 -0.0726535 0.524297
-0.0132029 -0.0722883 0.524315
-0.012255 -0.0718964 0.524114
-0.0113082 -0.0715032 0.523901
-0.0103633 -0.0711295 0.523841
-0.00941953 -0.0707587 0.523806
-0.00847628 -0.0703919 0.523801
-0.00753417 -0.0700574 0.524064
-0.00659163 -0.0697159 0.524269
-0.00564905 -0.0693737 0.524472
-0.00470586 -0.0690446 0.524784
-0.00376197 -0.0687228 0.525159
-0.00281759 -0.0684016 0.525548
-0.0018722 -0.0680802 0.525933
-0.000923782 -0.0677891 0.526581
2.51949e-05 -0.0674867 0.527135
0.000977262 -0.0672036 0.527868
0.00193954 -0.0669939 0.52925
0.0029179 -0.0668786 0.531481
-0.0644789 -0.0991331 0.593038
-0.0634082 -0.0987253 0.593109
-0.0623323 -0.0983084 0.593114
-0.0612348 -0.0978517 0.592851
-0.0601072 -0.0973386 0.592199
-0.0589846 -0.0968291 0.591572
-0.0578424 -0.0962797 0.590662
-0.0567106 -0.0957447 0.589844
-0.055599 -0.0952448 0.589258
-0.054512 -0.0947904 0.588978
-0.0534275 -0.0943392 0.588715
-0.0523581 -0.0939162 0.588648
-0.0512753 -0.0934639 0.588374
-0.0501886 -0.0930006 0.588018
-0.0491067 -0.0925456 0.587715
-0.0480276 -0.0920936 0.587431
-0.0469508 -0.0916447 0.587163
-0.0458878 -0.0912251 0.587102
-0.0448416 -0.0908433 0.587314
-0.0437888 -0.0904466 0.587416
-0.0427473 -0.0900784 0.587722
-0.0417164 -0.0897385 0.588235
-0.0406887 -0.0894092 0.588831
-0.0396683 -0.0891027 0.589597
-0.0386496 -0.0888065 0.590442
-0.0376219 -0.0884895 0.591139
-0.0365844 -0.0881476 0.591659
-0.0353779 -0.0872923 0.588352
-0.0295287 -0.0799634 0.545076
-0.0283072 -0.078725 0.538538
-0.0273116 -0.0782684 0.537938
-0.0263102 -0.0777824 0.537102
-0.0253075 -0.0772771 0.536112
-0.02429 -0.0766951 0.534511
-0.0232685 -0.0760736 0.532581
-0.0222388 -0.0753822 0.530088
-0.0212251 -0.074735 0.527915
-0.0202243 -0.0741189 0.525969
-0.0192438 -0.0735849 0.524657
-0.0182762 -0.073105 0.52376
-0.0173257 -0.0727171 0.523596
-0.0163766 -0.0723306 0.523443
-0.0154299 -0.0719579 0.523397
-0.0144831 -0.0715787 0.523296
-0.0135378 -0.0712058 0.523247
-0.0125912 -0.0708146 0.523041
-0.0116462 -0.0704292 0.522882
-0.0107028 -0.0700578 0.522833
-0.00976045 -0.069688 0.522802
-0.00881863 -0.0693213 0.522791
-0.00787805 -0.0689868 0.52305
-0.00693706 -0.0686394 0.523202
-0.00599576 -0.0682915 0.523346
-0.00505456 -0.0679556 0.523598
-0.00411301 -0.0676264 0.523911
-0.00317094 -0.0672929 0.524186
-0.0022274 -0.0669779 0.524622
-0.00128252 -0.0666698 0.525124
-0.000338316 -0.0663372 0.525409
0.000606553 -0.0660084 0.525734
0.00155913 -0.0657455 0.52665
0.00252357 -0.0655546 0.528213
-0.0648228 -0.0979734 0.592441
-0.0637487 -0.0975592 0.592463
-0.0626719 -0.0971399 0.592448
-0.0615728 -0.096681 0.592159
-0.0604457 -0.0961682 0.591504
-0.0593199 -0.0956545 0.590832
-0.0581846 -0.0951187 0.590004
-0.0570592 -0.0945978 0.589266
-0.0559485 -0.0940994 0.588683
-0.0548568 -0.0936357 0.588331
-0.0537675 -0.0931738 0.587989
-0.0526888 -0.0927312 0.587777
-0.0516014 -0.0922692 0.587422
-0.0505206 -0.0918166 0.587138
-0.049441 -0.0913653 0.586852
-0.0483716 -0.0909341 0.586706
-0.0473036 -0.0905032 0.586564
-0.0462456 -0.0900941 0.586574
-0.045196 -0.0897045 0.586721
-0.0441439 -0.0893074 0.586819
-0.0430993 -0.0889296 0.587053
-0.0420623 -0.0885702 0.587428
-0.0410292 -0.0882235 0.587894
-0.0400098 -0.0879151 0.588648
-0.0389929 -0.0876181 0.589491
-0.0379676 -0.0873015 0.590198
-0.0369323 -0.0869613 0.59073
-0.0358217 -0.0864005 0.589599
-0.0287271 -0.0779634 0.540207
-0.0276579 -0.0772483 0.537599
-0.0266505 -0.0767399 0.536577
-0.0256396 -0.0762044 0.535331
-0.0246136 -0.0755913 0.533457
-0.0235843 -0.0749351 0.531228
-0.0225588 -0.0742674 0.52888
-0.0215527 -0.0736578 0.526976
-0.0205598 -0.0730881 0.525366
-0.0195855 -0.0725898 0.524322
-0.0186223 -0.0721379 0.523639
-0.0176684 -0.0717288 0.523298
-0.0167165 -0.0713214 0.522971
-0.0157684 -0.0709356 0.522811
-0.0148213 -0.0705502 0.522652
-0.0138761 -0.0701716 0.522551
-0.0129297 -0.0697743 0.522287
-0.0119849 -0.069383 0.522066
-0.0110423 -0.0690038 0.521949
-0.0101005 -0.0686283 0.521859
-0.00916 -0.0682609 0.521839
-0.008221 -0.0679258 0.522091
-0.00728125 -0.0675785 0.522235
-0.00634145 -0.0672248 0.522326
-0.0054019 -0.0668821 0.522516
-0.00446201 -0.0665471 0.522774
-0.00352163 -0.0662148 0.523053
-0.00258001 -0.0659013 0.523503
-0.00163604 -0.0656061 0.524115
-0.00069177 -0.0652984 0.524627
0.000254324 -0.0649971 0.525195
0.00120038 -0.0646815 0.525641
0.00215588 -0.0644367 0.526731
-0.0651459 -0.096782 0.591616
-0.0640733 -0.0963696 0.591643
-0.0629924 -0.0959421 0.591567
-0.061889 -0.0954743 0.591211
-0.0607696 -0.094976 0.59064
-0.0596501 -0.0944733 0.590035
-0.0585225 -0.093953 0.589299
-0.0574036 -0.0934443 0.588637
-0.056294 -0.0929496 0.588065
-0.055197 -0.0924758 0.587634
-0.0541018 -0.0920027 0.587201
-0.0530186 -0.0915489 0.586908
-0.0519322 -0.091088 0.586553
-0.0508569 -0.0906475 0.586339
-0.0497828 -0.0902068 0.586122
-0.0487152 -0.0897772 0.585987
-0.0476486 -0.0893493 0.585856
-0.0465954 -0.0889499 0.58593
-0.0455435 -0.0885519 0.586019
-0.0444961 -0.0881652 0.586185
-0.0434564 -0.0877958 0.586484
-0.0424197 -0.0874361 0.586851
-0.0413833 -0.087078 0.587235
-0.0403643 -0.0867668 0.587971
-0.0393454 -0.0864591 0.588744
-0.0383182 -0.0861343 0.589388
-0.0372847 -0.0857951 0.589929
-0.0362579 -0.0854777 0.590641
-0.029089 -0.0769897 0.540261
-0.0280108 -0.0762534 0.537451
-0.0270044 -0.0757529 0.536475
-0.0259851 -0.0751904 0.534997
-0.0249494 -0.0745427 0.532823
-0.0239135 -0.0738668 0.530397
-0.022888 -0.0732022 0.528045
-0.0218825 -0.0725998 0.526166
-0.0208948 -0.0720575 0.524755
-0.019926 -0.0715903 0.523946
-0.0189652 -0.0711515 0.523363
-0.018011 -0.0707423 0.52301
-0.0170577 -0.0703279 0.522613
-0.01611 -0.0699424 0.522452
-0.0151635 -0.0695583 0.522302
-0.014218 -0.0691751 0.522154
-0.0132719 -0.0687775 0.521882
-0.0123266 -0.0683789 0.521592
-0.0113835 -0.0679865 0.521359
-0.010441 -0.0675921 0.521096
-0.00950078 -0.0672114 0.520953
-0.00856249 -0.0668564 0.521034
-0.00762391 -0.0664959 0.521058
-0.00668593 -0.0661365 0.521094
-0.00574818 -0.0658002 0.521333
-0.00481002 -0.0654722 0.521648
-0.00387123 -0.0651466 0.521985
-0.00293062 -0.0648461 0.522545
-0.00198777 -0.0645629 0.523272
-0.00104333 -0.0642756 0.523964
-9.66312e-05 -0.0639937 0.524714
0.00085042 -0.0636979 0.525346
0.0017991 -0.0634007 0.525965
-0.0654759 -0.095606 0.590879
-0.0644045 -0.0951948 0.590909
-0.0633259 -0.0947703 0.590849
-0.0622292 -0.0943135 0.590562
-0.0611159 -0.0938268 0.59006
-0.0599974 -0.093327 0.589464
-0.0588762 -0.0928196 0.588804
-0.0577629 -0.0923222 0.588212
-0.0566489 -0.0918199 0.587578
-0.0555466 -0.0913367 0.587071
-0.0544461 -0.0908535 0.586559
-0.0533576 -0.0903899 0.586184
-0.0522716 -0.0899294 0.585822
-0.0512023 -0.0894995 0.585682
-0.0501349 -0.0890725 0.585556
-0.0490686 -0.0886458 0.585433
-0.0480027 -0.0882181 0.585302
-0.0469501 -0.0878185 0.585372
-0.0458992 -0.087422 0.585466
-0.0448533 -0.0870368 0.585643
-0.0438183 -0.0866776 0.586015
-0.0427824 -0.0863169 0.586379
-0.0417423 -0.085948 0.58668
-0.0407166 -0.0856161 0.587266
-0.0396944 -0.085296 0.587946
-0.0386684 -0.0849698 0.588583
-0.0376398 -0.0846394 0.589194
-0.0366235 -0.0843481 0.59011
-0.029458 -0.0760401 0.540504
-0.0283759 -0.0753018 0.537644
-0.0273708 -0.0748118 0.536739
-0.0263444 -0.0742298 0.535086
-0.0253014 -0.0735635 0.532731
-0.0242584 -0.0728674 0.530112
-0.0232314 -0.0722059 0.527749
-0.0222222 -0.0715945 0.525766
-0.0212374 -0.0710696 0.52448
-0.0202713 -0.0706173 0.523783
-0.0193101 -0.0701806 0.523202
-0.0183546 -0.0697648 0.522789
-0.0174013 -0.0693501 0.522384
-0.0164536 -0.0689647 0.522219
-0.0155072 -0.0685825 0.522076
-0.014562 -0.0682006 0.521936
-0.0136151 -0.0677978 0.521612
-0.0126693 -0.0673912 0.521251
-0.0117245 -0.0669793 0.520836
-0.0107813 -0.0665649 0.520394
-0.00984113 -0.0661713 0.520132
-0.00890338 -0.0658095 0.520142
-0.00796595 -0.0654372 0.520061
-0.00702922 -0.0650774 0.520084
-0.00609305 -0.0647422 0.520329
-0.0051565 -0.0644147 0.520645
-0.00421933 -0.0640839 0.520931
-0.00328045 -0.0637883 0.521541
-0.002339 -0.0635117 0.52233
-0.00139553 -0.0632368 0.523144
-0.000448666 -0.0629754 0.524086
0.000500013 -0.0627061 0.524963
0.00145061 -0.0624328 0.525813
-0.0658518 -0.0945081 0.590667
-0.06477 -0.0940802 0.590577
-0.0636835 -0.0936425 0.590421
-0.0625865 -0.093186 0.590128
-0.0614678 -0.0926895 0.589554
-0.0603505 -0.0921933 0.58897
-0.0592346 -0.091696 0.588374
-0.0581218 -0.0912015 0.587789
-0.0570023 -0.0906909 0.587083
-0.0558947 -0.0901976 0.586497
-0.0547942 -0.0897148 0.585978
-0.0537058 -0.0892521 0.585599
-0.052622 -0.0887951 0.585259
-0.0515588 -0.088377 0.585198
-0.0505014 -0.0879699 0.585215
-0.0494358 -0.0875447 0.585097
-0.0483699 -0.0871173 0.584962
-0.0473207 -0.0867246 0.585082
-0.046274 -0.0863371 0.585241
-0.0452297 -0.0859544 0.585438
-0.044196 -0.0855972 0.585826
-0.0431605 -0.0852365 0.586192
-0.0421166 -0.0848572 0.586416
-0.0410872 -0.0845139 0.586918
-0.0400616 -0.0841835 0.587521
-0.0390362 -0.083855 0.588148
-0.0380079 -0.0835243 0.588755
-0.0369902 -0.0832247 0.589615
-0.029819 -0.0750617 0.540526
-0.0287375 -0.0743367 0.537736
-0.0277361 -0.0738637 0.536955
-0.0267042 -0.0732709 0.535189
-0.0256594 -0.0726079 0.532831
-0.0246102 -0.0718974 0.530061
-0.0235811 -0.0712381 0.527681
-0.0225661 -0.0706079 0.525519
-0.0215823 -0.0700937 0.524298
-0.0206146 -0.0696378 0.523556
-0.0196537 -0.0692023 0.522982
-0.0186971 -0.0687812 0.522516
-0.0177447 -0.068374 0.522164
-0.0167972 -0.06799 0.522003
-0.0158511 -0.067609 0.521867
-0.0149058 -0.0672278 0.521727
-0.0139589 -0.0668247 0.521396
-0.0130122 -0.0664125 0.520973
-0.0120665 -0.0659885 0.520447
-0.0111229 -0.0655663 0.519929
-0.0101825 -0.0651663 0.519597
-0.00924502 -0.0647904 0.519482
-0.00830774 -0.0644066 0.519287
-0.00737194 -0.0640409 0.519252
-0.00643699 -0.0636999 0.519442
-0.00550181 -0.0633671 0.519706
-0.00456633 -0.0630367 0.519997
-0.00362871 -0.0627466 0.520657
-0.00268888 -0.0624748 0.521498
-0.0017459 -0.0622134 0.522438
-0.000799077 -0.0619702 0.523562
0.000150261 -0.0617194 0.524623
0.00110216 -0.0614645 0.525657
0.00240006 -0.0621343 0.526437
0.00205396 -0.0611842 0.526459
-0.0672903 -0.0938086 0.590332
-0.0662237 -0.0934048 0.590413
-0.06514 -0.0929736 0.590298
-0.0640488 -0.0925281 0.590085
-0.0629563 -0.0920796 0.589843
-0.0618371 -0.0915847 0.589265
-0.0607202 -0.0910906 0.588688
-0.0596045 -0.0905953 0.588096
-0.0584916 -0.090101 0.587507
-0.0573656 -0.0895802 0.586717
-0.0562579 -0.0890883 0.58613
-0.0551474 -0.088589 0.585476
-0.0540556 -0.0881201 0.585044
-0.0529727 -0.0876648 0.584709
-0.0519108 -0.0872489 0.584659
-0.0508548 -0.086844 0.584687
-0.0497941 -0.0864279 0.584635
-0.0487325 -0.0860089 0.584558
-0.0476835 -0.0856159 0.584673
-0.0466412 -0.0852372 0.584896
-0.0456018 -0.0848647 0.585168
-0.0445735 -0.0845168 0.585635
-0.0435422 -0.084166 0.586075
-0.0424987 -0.0837861 0.586299
-0.041462 -0.0834251 0.586663
-0.0404331 -0.0830833 0.587186
-0.0394042 -0.0827446 0.587733
-0.0383741 -0.0824062 0.588283
-0.0373548 -0.0820984 0.589086
-0.0301728 -0.0740604 0.540363
-0.029093 -0.0733506 0.537658
-0.0280849 -0.072858 0.536705
-0.0270479 -0.0722525 0.53481
-0.0260005 -0.0715862 0.532392
-0.0249512 -0.0708874 0.529673
-0.0239213 -0.0702323 0.527294
-0.0229083 -0.0696174 0.52523
-0.0219257 -0.069111 0.52406
-0.0209563 -0.0686504 0.523262
-0.0199966 -0.0682243 0.522752
-0.0190414 -0.0678105 0.522344
-0.0180901 -0.0674112 0.522054
-0.0171416 -0.0670224 0.521847
-0.0161955 -0.0666416 0.521707
-0.0152501 -0.06626 0.521559
-0.0143023 -0.0658517 0.521172
-0.013355 -0.0654343 0.520698
-0.0124085 -0.0650048 0.52011
-0.0114645 -0.0645772 0.519533
-0.0105239 -0.06417 0.519131
-0.00958635 -0.0637898 0.518965
-0.0086495 -0.0634 0.51871
-0.00771439 -0.0630342 0.518669
-0.00678044 -0.0626855 0.518792
-0.00584607 -0.0623418 0.518948
-0.0049118 -0.0620102 0.519226
-0.00397593 -0.0617143 0.519836
-0.0030375 -0.0614422 0.520677
-0.00209529 -0.0611965 0.521778
-0.00114853 -0.060971 0.523077
-0.000199098 -0.0607331 0.524272
0.000754372 -0.0605013 0.525543
0.00170763 -0.0602383 0.526517
-0.0676921 -0.0927525 0.590408
-0.0666219 -0.0923432 0.590452
-0.0655308 -0.0919013 0.590258
-0.0644262 -0.091435 0.589892
-0.063327 -0.0909767 0.589573
-0.0622018 -0.0904732 0.588925
-0.06108 -0.0899713 0.588285
-0.0599645 -0.0894776 0.587694
-0.0588461 -0.0889763 0.587037
-0.0577194 -0.0884558 0.586237
-0.0566117 -0.0879648 0.585648
-0.0555015 -0.0874664 0.584993
-0.0544104 -0.0869998 0.584566
-0.0533319 -0.0865536 0.584289
-0.0522705 -0.0861373 0.584236
-0.0512148 -0.085732 0.58426
-0.0501549 -0.0853174 0.584213
-0.0490939 -0.0849006 0.584143
-0.0480458 -0.0845084 0.584262
-0.0470086 -0.0841386 0.584556
-0.0459742 -0.083775 0.584901
-0.0449504 -0.083437 0.585442
-0.0439238 -0.0830949 0.585954
-0.0428841 -0.0827243 0.586248
-0.0418476 -0.082362 0.586609
-0.0407479 -0.0818485 0.585773
-0.0396479 -0.0813265 0.584863
-0.0385426 -0.0807853 0.583785
-0.0374494 -0.0802652 0.58287
-0.0304663 -0.0728751 0.538682
-0.029454 -0.0723831 0.537731
-0.0284432 -0.0718848 0.536721
-0.0274004 -0.0712676 0.534699
-0.0263516 -0.0706065 0.532288
-0.0253026 -0.0699175 0.529617
-0.0242716 -0.0692663 0.527241
-0.0232539 -0.0686424 0.525066
-0.0222688 -0.0681296 0.523824
-0.0212951 -0.0676514 0.522862
-0.0203381 -0.067239 0.522459
-0.0193841 -0.0668327 0.522108
-0.0184332 -0.0664365 0.521835
-0.0174851 -0.0660477 0.521628
-0.0165387 -0.0656666 0.52148
-0.0155933 -0.0652846 0.521323
-0.0146455 -0.0648766 0.52093
-0.0136991 -0.0644675 0.520523
-0.0127523 -0.0640399 0.51994
-0.011808 -0.0636142 0.519366
-0.0108669 -0.0632014 0.518906
-0.00992886 -0.0628104 0.518637
-0.00899146 -0.06241 0.518272
-0.00805675 -0.0620376 0.518169
-0.00712304 -0.0616827 0.518222
-0.00618988 -0.0613308 0.518309
-0.0052564 -0.060994 0.51853
-0.00432192 -0.0606967 0.519133
-0.0033851 -0.0604181 0.519918
-0.00244446 -0.0601716 0.521017
-0.00149918 -0.0599504 0.522379
-0.000549871 -0.0597288 0.523746
0.000404365 -0.0595154 0.525203
-0.0681484 -0.0917782 0.591073
-0.0670616 -0.0913449 0.590947
-0.0659389 -0.0908557 0.590411
-0.0648211 -0.0903706 0.589902
-0.0637093 -0.0898936 0.589441
-0.062578 -0.0893816 0.588724
-0.0614501 -0.0888719 0.588014
-0.0603344 -0.088379 0.587421
-0.0592102 -0.0878693 0.586693
-0.0580835 -0.0873503 0.585893
-0.0569708 -0.0868524 0.585239
-0.0558607 -0.0863555 0.584585
-0.0547694 -0.0858884 0.584149
-0.0536899 -0.0854419 0.583858
-0.0526283 -0.0850245 0.583794
-0.0515726 -0.0846189 0.583811
-0.0505178 -0.0842146 0.583835
-0.0494629 -0.083808 0.583846
-0.0484165 -0.0834184 0.583986
-0.0473841 -0.0830582 0.584351
-0.0463535 -0.0827027 0.584757
-0.0453308 -0.0823653 0.585308
-0.0443051 -0.0820239 0.58583
-0.0431975 -0.0814991 0.584904
-0.0420842 -0.080955 0.583812
-0.0409066 -0.0802518 0.581426
-0.0397295 -0.0795328 0.578893
-0.0308413 -0.071943 0.539072
-0.0298197 -0.0714283 0.537917
-0.0287972 -0.0708978 0.536621
-0.0277527 -0.0702816 0.534581
-0.0267025 -0.0696239 0.532165
-0.0256538 -0.0689464 0.529553
-0.0246204 -0.0682964 0.527151
-0.0236028 -0.0676821 0.525025
-0.0226132 -0.0671562 0.523648
-0.0216359 -0.0666654 0.522565
-0.0206791 -0.0662544 0.522166
-0.0197254 -0.0658507 0.521825
-0.0187748 -0.0654552 0.521555
-0.0178265 -0.0650673 0.521344
-0.0168805 -0.0646852 0.521187
-0.0159341 -0.0642976 0.52097
-0.0149858 -0.0638855 0.520532
-0.0140399 -0.0634779 0.520131
-0.0130931 -0.0630529 0.519555
-0.0121491 -0.0626285 0.518987
-0.0112081 -0.0622178 0.518532
-0.0102707 -0.0618328 0.518312
-0.00933368 -0.0614327 0.517945
-0.00839922 -0.0610606 0.517837
-0.00746566 -0.0606996 0.51783
-0.0065329 -0.0603414 0.517852
-0.00560025 -0.0599976 0.518007
-0.00466685 -0.0596933 0.518546
-0.00373183 -0.0593976 0.519172
-0.00279314 -0.0591432 0.520203
-0.00184982 -0.0589194 0.521554
-0.000901287 -0.0587088 0.523041
5.27039e-05 -0.0585123 0.524691
-0.068607 -0.0908033 0.591752
-0.0675027 -0.090346 0.59145
-0.0663552 -0.0898216 0.590651
-0.0652174 -0.0893082 0.589928
-0.0640919 -0.0888106 0.589312
-0.062948 -0.0882807 0.588452
-0.0618126 -0.0877613 0.587656
-0.0606972 -0.0872705 0.587066
-0.0595728 -0.086761 0.586333
-0.0584522 -0.0862545 0.585613
-0.0573439 -0.0857659 0.585017
-0.0562343 -0.0852723 0.584374
-0.0551378 -0.0847971 0.58387
-0.0540581 -0.0843501 0.583571
-0.0529912 -0.0839239 0.583432
-0.0519316 -0.0835102 0.583384
-0.050882 -0.083115 0.583478
-0.0498326 -0.0827186 0.583566
-0.0487872 -0.0823311 0.583718
-0.0477598 -0.081979 0.584153
-0.0466581 -0.0814761 0.583392
-0.0455589 -0.0809724 0.58262
-0.0444552 -0.0804544 0.581722
-0.0432731 -0.0797575 0.579376
-0.0420879 -0.0790391 0.57683
-0.0347325 -0.0756749 0.560426
-0.0361149 -0.0750454 0.560372
-0.0348647 -0.0740271 0.555144
-0.0333935 -0.0743691 0.55287
-0.0336203 -0.0729839 0.549657
-0.0321056 -0.0731502 0.545956
-0.0324123 -0.0719992 0.544608
-0.0312108 -0.0709927 0.539317
-0.0301729 -0.0704346 0.537779
-0.0291379 -0.0698698 0.536169
-0.0280901 -0.0692492 0.534057
-0.0270405 -0.0685997 0.531678
-0.0260004 -0.0679594 0.52935
-0.0249696 -0.0673288 0.527076
-0.0239552 -0.0667341 0.525096
-0.0229626 -0.0662029 0.523651
-0.0219813 -0.0657002 0.522445
-0.0210229 -0.0652826 0.521983
-0.020068 -0.0648747 0.521596
-0.0191162 -0.0644739 0.521271
-0.0181679 -0.0640863 0.521055
-0.0172209 -0.0636979 0.520834
-0.0162739 -0.0633052 0.520564
-0.0153257 -0.0628946 0.520128
-0.01438 -0.0624884 0.519729
-0.0134344 -0.0620707 0.519213
-0.0124909 -0.0616536 0.5187
-0.0115501 -0.0612442 0.518248
-0.0106122 -0.0608544 0.517971
-0.00967526 -0.0604546 0.517598
-0.0087407 -0.0600713 0.51738
-0.0078077 -0.059706 0.517328
-0.00687539 -0.059343 0.517297
-0.00594344 -0.058999 0.517445
-0.00501117 -0.0586884 0.517924
-0.0040775 -0.0583848 0.518477
-0.00314047 -0.0581278 0.519495
-0.00219964 -0.05789 0.520721
-0.00125356 -0.057672 0.522149
-0.00029918 -0.0575013 0.524081
-0.0701495 -0.0902493 0.592481
-0.0690406 -0.0897885 0.592156
-0.0679158 -0.0893027 0.591641
-0.0667558 -0.0887626 0.590716
-0.0656084 -0.0882365 0.58989
-0.0644629 -0.0877109 0.589054
-0.0633107 -0.0871699 0.588098
-0.0621685 -0.0866414 0.587223
-0.0610536 -0.0861522 0.586635
-0.0599303 -0.0856462 0.585915
-0.0588207 -0.0851601 0.585335
-0.0577181 -0.084682 0.584812
-0.0566139 -0.0841989 0.584242
-0.0555123 -0.0837166 0.583673
-0.0544331 -0.083271 0.583381
-0.0533613 -0.0828367 0.583172
-0.052297 -0.0824149 0.583057
-0.051248 -0.0820198 0.583151
-0.0502035 -0.081633 0.583309
-0.0491589 -0.0812462 0.583468
-0.0480578 -0.0807481 0.582735
-0.0468739 -0.0800777 0.580615
-0.0456876 -0.0793903 0.578334
-0.044498 -0.078683 0.575868
-0.037383 -0.074136 0.557981
-0.0361821 -0.0732673 0.553957
-0.0350283 -0.0724915 0.550672
-0.0338739 -0.0716884 0.547124
-0.032744 -0.0709253 0.543879
-0.0315928 -0.0700766 0.539862
-0.0305325 -0.0694607 0.537806
-0.0294767 -0.068838 0.535674
-0.0284209 -0.0681986 0.533364
-0.0273672 -0.0675409 0.530877
-0.0263384 -0.0669459 0.528903
-0.0253131 -0.0663402 0.52682
-0.0243049 -0.0657753 0.525074
-0.0233111 -0.0652456 0.523621
-0.0223285 -0.0647438 0.5224
-0.0213679 -0.0643205 0.521873
-0.0204115 -0.0639066 0.521428
-0.0194585 -0.0635 0.521044
-0.018509 -0.063106 0.520765
-0.017561 -0.0627119 0.520485
-0.0166123 -0.0623082 0.520106
-0.0156645 -0.061898 0.519665
-0.0147187 -0.0614929 0.519258
-0.0137741 -0.0610819 0.518795
-0.012831 -0.0606669 0.518289
-0.0118909 -0.0602646 0.517896
-0.0109529 -0.0598694 0.517559
-0.0100161 -0.05947 0.517179
-0.00908187 -0.0590876 0.516962
-0.0081493 -0.0587179 0.516865
-0.00721736 -0.0583505 0.516786
-0.00628626 -0.0580057 0.516927
-0.00535483 -0.0576892 0.517347
-0.00442252 -0.0573744 0.517787
-0.00348741 -0.0571093 0.518739
-0.00254885 -0.0568573 0.519828
-0.0016056 -0.0566297 0.521182
-0.000650992 -0.0564845 0.52339
-0.0705858 -0.0892342 0.592897
-0.0694701 -0.0887657 0.59251
-0.0683298 -0.08826 0.59184
-0.0671601 -0.0877084 0.590819
-0.0659985 -0.0871641 0.589845
-0.0648333 -0.0866106 0.588789
-0.063672 -0.0860584 0.587732
-0.0625239 -0.0855222 0.586787
-0.0614091 -0.0850345 0.586199
-0.060288 -0.0845347 0.585509
-0.0591903 -0.0840677 0.585071
-0.0580934 -0.0836014 0.584625
-0.0569997 -0.083137 0.584194
-0.0559039 -0.082667 0.583709
-0.0548295 -0.0822303 0.583485
-0.0537569 -0.0817959 0.583272
-0.0526912 -0.0813734 0.583145
-0.0516368 -0.0809688 0.583164
-0.0505879 -0.0805738 0.583258
-0.0494631 -0.0800347 0.582191
-0.0482689 -0.0793553 0.579979
-0.0469873 -0.0784919 0.576246
-0.045706 -0.0776084 0.572312
-0.0373732 -0.0722198 0.550318
-0.0362668 -0.0715688 0.548054
-0.0352044 -0.0710132 0.546575
-0.0341377 -0.0704348 0.544885
-0.0330619 -0.0698189 0.542852
-0.0319611 -0.0691184 0.54006
-0.030877 -0.0684427 0.537453
-0.0298079 -0.0677874 0.535001
-0.0287443 -0.0671283 0.532484
-0.0277043 -0.0665211 0.530399
-0.0266842 -0.0659585 0.528687
-0.0256659 -0.065385 0.526857
-0.0246578 -0.0648284 0.525156
-0.0236617 -0.0642962 0.52366
-0.0226778 -0.0637953 0.522427
-0.0217136 -0.0633587 0.521775
-0.0207526 -0.0629276 0.521158
-0.0197969 -0.0625098 0.520661
-0.0188474 -0.0621151 0.520367
-0.0178975 -0.0617099 0.519976
-0.0169481 -0.0613007 0.519535
-0.0160014 -0.0608964 0.519136
-0.0150571 -0.0604974 0.518782
-0.0141129 -0.0600885 0.518328
-0.0131705 -0.0596819 0.517882
-0.0122315 -0.0592862 0.517548
-0.0112932 -0.0588861 0.517157
-0.0103563 -0.0584819 0.516719
-0.00942214 -0.0580938 0.516435
-0.00848987 -0.0577245 0.516331
-0.00755867 -0.0573581 0.516255
-0.00662826 -0.057009 0.51635
-0.00569781 -0.0566916 0.516765
-0.00476669 -0.0563753 0.517198
-0.00383337 -0.056094 0.517988
-0.00289722 -0.0558249 0.518909
-0.00195622 -0.0555923 0.520227
-0.00100299 -0.055459 0.522586
-0.0721105 -0.0886435 0.593384
-0.0709888 -0.0881702 0.59296
-0.0698738 -0.0877042 0.592586
-0.0687312 -0.0871978 0.5919
-0.0675555 -0.0866401 0.590822
-0.066387 -0.0860891 0.589781
-0.0652083 -0.0855189 0.588581
-0.0640398 -0.0849582 0.587446
-0.0628902 -0.0844221 0.586486
-0.0617764 -0.0839379 0.585913
-0.0606624 -0.0834499 0.585307
-0.0595708 -0.0829947 0.584949
-0.0584796 -0.0825388 0.584578
-0.0573914 -0.0820849 0.584221
-0.0563013 -0.0816257 0.583818
-0.0552321 -0.0812004 0.583675
-0.0541043 -0.0806718 0.582708
-0.0529855 -0.0801547 0.581818
-0.0518411 -0.0795872 0.580511
-0.0507064 -0.0790294 0.579276
-0.0494923 -0.0783193 0.576777
-0.0482517 -0.0775464 0.573738
-0.0408022 -0.0743296 0.55828
-0.0419054 -0.0731168 0.553319
-0.0408188 -0.0725526 0.551821
-0.039631 -0.0735788 0.555259
-0.0397346 -0.0719842 0.550272
-0.0384686 -0.0728299 0.552217
-0.0386635 -0.0714364 0.548876
-0.0376488 -0.0710085 0.548498
-0.0366256 -0.0705583 0.547918
-0.035579 -0.0700454 0.546788
-0.0345269 -0.0695105 0.545452
-0.0334325 -0.068855 0.543046
-0.0323184 -0.0681289 0.53999
-0.031212 -0.0674002 0.536874
-0.0301234 -0.0666957 0.533946
-0.029049 -0.0660104 0.531148
-0.0280216 -0.0654431 0.529384
-0.0270132 -0.064921 0.528005
-0.0260058 -0.0643871 0.526504
-0.0250054 -0.0638619 0.525064
-0.0240119 -0.0633457 0.523689
-0.02303 -0.0628572 0.522555
-0.0220605 -0.0624032 0.521729
-0.0210946 -0.0619547 0.52094
-0.0201372 -0.0615306 0.520372
-0.0191852 -0.0611243 0.51996
-0.018233 -0.0607083 0.519452
-0.0172832 -0.060293 0.518947
-0.0163377 -0.0598961 0.518604
-0.0153941 -0.0594986 0.518258
-0.0144512 -0.0590986 0.517874
-0.0135101 -0.0586992 0.517493
-0.0125718 -0.0583102 0.51721
-0.0116337 -0.0579114 0.516823
-0.0106964 -0.0575025 0.516327
-0.00976203 -0.0571091 0.51598
-0.00883048 -0.0567385 0.515862
-0.00789947 -0.0563674 0.515729
-0.00696975 -0.0560136 0.515774
-0.00604037 -0.0556959 0.516187
-0.00511005 -0.0553799 0.516619
-0.00417819 -0.0550873 0.5173
-0.00324396 -0.0548106 0.518159
-0.00230528 -0.0545655 0.519351
-0.00135393 -0.0544384 0.521812
-0.0725106 -0.0875735 0.593412
-0.0713891 -0.0871021 0.592995
-0.0702518 -0.086607 0.592393
-0.0691001 -0.0860898 0.591613
-0.0679302 -0.0855435 0.590603
-0.066763 -0.0849966 0.589579
-0.065584 -0.0844278 0.58838
-0.064415 -0.0838706 0.587248
-0.0632646 -0.0833359 0.586283
-0.0621511 -0.0828531 0.585715
-0.0610481 -0.0823835 0.585245
-0.0599574 -0.0819309 0.584902
-0.0588765 -0.0814925 0.584664
-0.0577301 -0.0809463 0.583565
-0.0565795 -0.0803888 0.582361
-0.0554507 -0.0798622 0.581392
-0.0542632 -0.0792314 0.579569
-0.0530883 -0.0786137 0.577834
-0.0519141 -0.0779881 0.576021
-0.050745 -0.0773642 0.574194
-0.0494873 -0.0765699 0.570944
-0.0482016 -0.0757082 0.567097
-0.046921 -0.0765832 0.569103
-0.0430769 -0.0738456 0.556179
-0.0442384 -0.0727933 0.55254
-0.0430646 -0.072067 0.549658
-0.0419834 -0.0715137 0.548222
-0.0409798 -0.0711153 0.548093
-0.0399721 -0.070707 0.547875
-0.0389753 -0.0703188 0.547834
-0.0379685 -0.0699089 0.547593
-0.036959 -0.0694894 0.547269
-0.0359313 -0.069024 0.546533
-0.0348975 -0.0685369 0.545601
-0.0337867 -0.0678486 0.542868
-0.0326547 -0.067085 0.539433
-0.0315266 -0.0663065 0.535822
-0.0304259 -0.0655748 0.532595
-0.0293422 -0.0648663 0.529541
-0.0283311 -0.0643479 0.528187
-0.0273405 -0.0638809 0.527286
-0.0263455 -0.0633899 0.526152
-0.0253509 -0.062888 0.524905
-0.0243604 -0.0623872 0.523652
-0.0233806 -0.0619118 0.52262
-0.022407 -0.061447 0.521677
-0.0214378 -0.0609873 0.520769
-0.0204781 -0.0605571 0.520127
-0.0195236 -0.0601385 0.519594
-0.0185692 -0.0597116 0.51897
-0.0176183 -0.0592931 0.518414
-0.0166746 -0.0589019 0.518123
-0.0157315 -0.0585086 0.517801
-0.0147902 -0.0581163 0.517487
-0.0138509 -0.0577292 0.517219
-0.0129138 -0.057352 0.517043
-0.0119753 -0.0569493 0.516611
-0.0110374 -0.056536 0.51606
-0.0101027 -0.0561367 0.515647
-0.00917066 -0.0557548 0.515404
-0.00823973 -0.0553734 0.51516
-0.00731064 -0.0550154 0.515156
-0.00638221 -0.0546975 0.515566
-0.00545292 -0.0543857 0.516043
-0.00452231 -0.0540916 0.516717
-0.00358927 -0.0538108 0.517531
-0.00265299 -0.0535528 0.518607
-0.00170565 -0.0534014 0.520841
-0.000396373 -0.0543001 0.52418
-0.000750118 -0.0532637 0.523243
-0.0729313 -0.0865308 0.593647
-0.0718065 -0.0860571 0.593205
-0.070646 -0.0855327 0.59237
-0.0694773 -0.0849939 0.591416
-0.0683061 -0.0844484 0.590397
-0.0671387 -0.0839035 0.589375
-0.0659604 -0.0833395 0.58819
-0.0647979 -0.0827942 0.587138
-0.0636529 -0.0822694 0.586241
-0.0625387 -0.0817879 0.585671
-0.0614408 -0.0813281 0.585268
-0.0603552 -0.0808846 0.584992
-0.0592047 -0.0803394 0.58389
-0.0579849 -0.079679 0.58185
-0.0567595 -0.0790013 0.579647
-0.0555599 -0.0783563 0.577687
-0.05431 -0.0776199 0.574953
-0.0531398 -0.0770062 0.573201
-0.0519349 -0.0763237 0.570865
-0.0507338 -0.0756378 0.568473
-0.0494348 -0.0747667 0.564505
-0.0468215 -0.0746493 0.561567
-0.0481119 -0.0738335 0.559973
-0.0467912 -0.0728823 0.555243
-0.045523 -0.0737192 0.557061
-0.0455755 -0.0721062 0.551948
-0.0443766 -0.0713463 0.54875
-0.0432837 -0.0707769 0.547158
-0.0422806 -0.0703782 0.547023
-0.0412824 -0.069989 0.546961
-0.0402799 -0.0695885 0.546806
-0.0392878 -0.0692093 0.54683
-0.0382895 -0.0688154 0.546725
-0.037291 -0.0684207 0.546604
-0.0362787 -0.0679916 0.546178
-0.0352624 -0.0675492 0.545627
-0.0341351 -0.0668289 0.542567
-0.0329949 -0.0660545 0.538982
-0.0318562 -0.0652575 0.535149
-0.0307425 -0.0645006 0.531634
-0.0296508 -0.0637751 0.528377
-0.0286567 -0.0633076 0.527461
-0.0276733 -0.062862 0.526743
-0.0266848 -0.0623939 0.525802
-0.0256957 -0.0619138 0.524735
-0.0247069 -0.0614216 0.523548
-0.0237281 -0.0609542 0.522573
-0.0227509 -0.0604799 0.521522
-0.0217793 -0.0600151 0.520546
-0.0208166 -0.0595739 0.519785
-0.0198594 -0.0591444 0.519132
-0.0189026 -0.0587078 0.518397
-0.0179522 -0.0582892 0.517832
-0.0170091 -0.0579006 0.517551
-0.0160676 -0.057514 0.517289
-0.0151269 -0.0571243 0.516989
-0.0141889 -0.0567439 0.516779
-0.013253 -0.0563726 0.516659
-0.0123146 -0.0559719 0.516232
-0.0113766 -0.0555549 0.515634
-0.0104423 -0.0551612 0.515263
-0.00951052 -0.0547791 0.515011
-0.00857992 -0.0543981 0.514761
-0.0076513 -0.0540404 0.514755
-0.00672366 -0.0537265 0.515211
-0.00579527 -0.0534141 0.515692
-0.00486519 -0.0531153 0.516312
-0.00393329 -0.0528323 0.517118
-0.00299834 -0.0525683 0.518142
-0.00205543 -0.0523769 0.51997
-0.0011034 -0.0522223 0.522222
0.000210438 -0.0531103 0.525514
-0.000145025 -0.0520744 0.52458
-0.074528 -0.0860237 0.5948
-0.073375 -0.0855168 0.594109
-0.0722391 -0.0850312 0.593568
-0.071047 -0.0844672 0.592418
-0.0698691 -0.0839182 0.591373
-0.0686888 -0.0833632 0.590264
-0.067514 -0.0828111 0.589169
-0.0663424 -0.0822597 0.588066
-0.0651869 -0.0817264 0.587097
-0.0640482 -0.0812142 0.586282
-0.0629381 -0.0807405 0.585767
-0.0618453 -0.0802898 0.585431
-0.0607599 -0.0798481 0.585165
-0.0595338 -0.0791908 0.583137
-0.0582287 -0.0784022 0.580018
-0.0569145 -0.0775878 0.57665
-0.0556288 -0.0768056 0.573511
-0.0543133 -0.0759619 0.569827
-0.0531328 -0.0753248 0.567834
-0.0519199 -0.0746255 0.565291
-0.0506952 -0.0738936 0.562451
-0.0493687 -0.0729728 0.557974
-0.0480949 -0.0721244 0.554069
-0.0468491 -0.0713089 0.550402
-0.0457078 -0.0706672 0.548194
-0.0445835 -0.0700466 0.546142
-0.0435602 -0.0696101 0.545663
-0.0425602 -0.0692147 0.545545
-0.0415683 -0.068834 0.545554
-0.0405742 -0.0684495 0.54552
-0.0395906 -0.0680853 0.545668
-0.0386009 -0.0677074 0.545698
-0.0376139 -0.067335 0.545773
-0.036615 -0.0669358 0.545603
-0.0355849 -0.0664606 0.544746
-0.0344381 -0.0657014 0.541276
-0.0332933 -0.0649228 0.537591
-0.0321488 -0.06412 0.533633
-0.0310327 -0.0633612 0.530047
-0.0299581 -0.0626885 0.527218
-0.0289825 -0.0622709 0.526754
-0.028004 -0.0618399 0.526157
-0.0270198 -0.0613864 0.525334
-0.0260348 -0.0609212 0.524392
-0.0250492 -0.0604445 0.523324
-0.0240707 -0.0599803 0.522363
-0.0230914 -0.059502 0.521256
-0.0221178 -0.0590328 0.520217
-0.021152 -0.0585806 0.519335
-0.0201921 -0.0581414 0.51857
-0.0192346 -0.0577005 0.517777
-0.0182844 -0.0572836 0.51721
-0.0173421 -0.0568949 0.516924
-0.0164013 -0.0565087 0.516657
-0.015462 -0.0561257 0.516413
-0.0145253 -0.0557515 0.516256
-0.0135908 -0.0553873 0.516201
-0.0126535 -0.0549932 0.515832
-0.011716 -0.0545827 0.515288
-0.0107821 -0.0541904 0.514922
-0.00985056 -0.0538091 0.51467
-0.00892016 -0.0534289 0.514421
-0.00799185 -0.0530715 0.514412
-0.00706493 -0.0527581 0.514877
-0.00613697 -0.0524459 0.515358
-0.00520772 -0.0521464 0.515983
-0.00427678 -0.0518617 0.516784
-0.00334262 -0.0515963 0.517798
-0.00240367 -0.0513646 0.519206
-0.00145572 -0.0511876 0.52124
-0.000500861 -0.0510261 0.523473
0.000821869 -0.0519284 0.526992
0.000463042 -0.0508811 0.525932
-0.0749755 -0.0850095 0.595281
-0.0738154 -0.0844961 0.594532
-0.0726496 -0.0839734 0.593699
-0.0714353 -0.0833841 0.592332
-0.0702476 -0.0828257 0.591194
-0.0690588 -0.082262 0.59
-0.0678822 -0.0817093 0.588887
-0.0667232 -0.0811787 0.587929
-0.0655746 -0.080658 0.587045
-0.0644489 -0.0801655 0.586383
-0.0633501 -0.0797101 0.586006
-0.062268 -0.0792762 0.585805
-0.0610901 -0.0787004 0.584433
-0.0597639 -0.0778974 0.581173
-0.0583557 -0.0769581 0.576748
-0.0569367 -0.0759849 0.571995
-0.0555645 -0.0750667 0.567652
-0.0542484 -0.0742202 0.563865
-0.0530686 -0.0735791 0.561774
-0.0518541 -0.0728715 0.559096
-0.0506171 -0.0721147 0.555968
-0.0493584 -0.0713076 0.552372
-0.0481549 -0.0705798 0.549423
-0.0469803 -0.0698887 0.546763
-0.0459067 -0.0693682 0.545556
-0.0448575 -0.0688853 0.544668
-0.0438404 -0.0684569 0.544254
-0.0428505 -0.0680787 0.544275
-0.0418679 -0.0677144 0.544417
-0.0408823 -0.0673435 0.544502
-0.0399035 -0.066987 0.544713
-0.0389189 -0.0666174 0.544811
-0.0379342 -0.0662479 0.544907
-0.0369401 -0.065858 0.544813
-0.0358848 -0.0653282 0.543426
-0.0347382 -0.0645751 0.539957
-0.0335918 -0.0638003 0.536241
-0.0324511 -0.0630139 0.532375
-0.0313393 -0.0622738 0.5289
-0.0302889 -0.0616703 0.526676
-0.0293117 -0.061248 0.526157
-0.0283339 -0.0608198 0.52557
-0.0273518 -0.0603735 0.524799
-0.0263673 -0.0599116 0.523869
-0.0253856 -0.0594493 0.522921
-0.024409 -0.0589938 0.522026
-0.0234296 -0.0585183 0.520921
-0.0224557 -0.0580495 0.519873
-0.0214892 -0.0575972 0.518973
-0.0205269 -0.0571493 0.518105
-0.0195691 -0.0567101 0.517307
-0.0186195 -0.0562941 0.516742
-0.017676 -0.0559006 0.51639
-0.0167346 -0.0555102 0.516067
-0.0157969 -0.0551318 0.515865
-0.014861 -0.0547589 0.515717
-0.0139278 -0.0544013 0.51572
-0.0129916 -0.0540136 0.515411
-0.0120554 -0.0536155 0.514979
-0.0111223 -0.0532294 0.514676
-0.0101909 -0.0528505 0.514438
-0.00926086 -0.052477 0.514253
-0.00833314 -0.0521295 0.514351
-0.00740662 -0.0518159 0.514825
-0.00647878 -0.0515041 0.515313
-0.0055499 -0.0512088 0.515993
-0.00461919 -0.0509182 0.516734
-0.00368617 -0.0506406 0.517636
-0.00274969 -0.0503768 0.518691
-0.0018059 -0.0501679 0.520395
-0.000855331 -0.0499847 0.522414
0.000105565 -0.0498346 0.524846
-0.0754217 -0.0839912 0.595743
-0.0742537 -0.0834712 0.594931
-0.0730607 -0.0829163 0.593835
-0.0718255 -0.0823044 0.592268
-0.0706236 -0.0817297 0.590987
-0.0694334 -0.0811675 0.589785
-0.0682561 -0.0806175 0.588673
-0.0671098 -0.0801049 0.587854
-0.0659683 -0.0795961 0.587055
-0.0648551 -0.0791247 0.586546
-0.0637635 -0.0786797 0.586256
-0.062592 -0.078121 0.585014
-0.061308 -0.0773942 0.582364
-0.0598708 -0.0764334 0.577731
-0.0583609 -0.0753489 0.572004
-0.0568519 -0.0742429 0.566045
-0.0554742 -0.0733175 0.561545
-0.0542176 -0.0725617 0.55845
-0.0530872 -0.0719933 0.556926
-0.0519457 -0.0714011 0.555178
-0.0507791 -0.0707605 0.552989
-0.0495987 -0.0700865 0.550489
-0.0484129 -0.0693928 0.547786
-0.0472608 -0.0687448 0.545457
-0.0461853 -0.068221 0.544198
-0.0451415 -0.0677481 0.543375
-0.0441306 -0.0673302 0.543038
-0.0431469 -0.0669617 0.543135
-0.0421702 -0.0666059 0.543348
-0.0411932 -0.0662493 0.543557
-0.0402194 -0.0658998 0.543831
-0.0392423 -0.0655443 0.544051
-0.0382654 -0.0651887 0.544273
-0.0372531 -0.0647582 0.543797
-0.0361702 -0.0641689 0.541826
-0.0350227 -0.0634197 0.538331
-0.0338703 -0.0626381 0.534481
-0.032736 -0.0618735 0.530753
-0.0316465 -0.0611948 0.5278
-0.0306194 -0.0606534 0.526136
-0.0296382 -0.060222 0.525511
-0.0286603 -0.0597938 0.524909
-0.027677 -0.0593436 0.524087
-0.0266946 -0.058889 0.523205
-0.0257158 -0.0584356 0.522329
-0.0247415 -0.0579894 0.521505
-0.0237622 -0.0575167 0.520406
-0.0227879 -0.0570491 0.519345
-0.0218203 -0.0565931 0.518389
-0.0208577 -0.056147 0.517514
-0.0199021 -0.0557152 0.516782
-0.0189526 -0.0553019 0.516221
-0.01801 -0.0549087 0.51587
-0.017069 -0.0545176 0.515533
-0.0161315 -0.0541396 0.515324
-0.0151962 -0.0537687 0.515185
-0.0142648 -0.0534175 0.515257
-0.0133303 -0.053042 0.515063
-0.0123962 -0.0526598 0.514797
-0.011464 -0.0522861 0.514615
-0.0105329 -0.0519149 0.514452
-0.00960335 -0.0515513 0.514375
-0.00867562 -0.0512092 0.514532
-0.00774873 -0.0508911 0.514958
-0.00682103 -0.0505784 0.515451
-0.00589217 -0.0502818 0.516127
-0.0049615 -0.0499808 0.516757
-0.00402905 -0.0496967 0.517597
-0.00309459 -0.0494029 0.518327
-0.00215495 -0.0491608 0.519669
-0.0012088 -0.0489422 0.521307
-0.000252722 -0.0487756 0.523575
-0.0770355 -0.0834842 0.596964
-0.0758639 -0.0829655 0.59616
-0.0746694 -0.0824157 0.5951
-0.0734497 -0.0818312 0.593749
-0.0722056 -0.0812112 0.5921
-0.0709966 -0.0806317 0.590755
-0.0698016 -0.0800649 0.589504
-0.0686245 -0.0795183 0.5884
-0.0674839 -0.0790158 0.587647
-0.0663501 -0.0785191 0.586935
-0.0652564 -0.0780748 0.586646
-0.064184 -0.0776585 0.586586
-0.0629098 -0.0769598 0.584158
-0.0615148 -0.0760816 0.58019
-0.059959 -0.0749593 0.57411
-0.0583962 -0.0738056 0.567699
-0.0568673 -0.0726782 0.561449
-0.0555586 -0.0718594 0.557781
-0.0543582 -0.0711909 0.555375
-0.0532653 -0.0706792 0.554304
-0.0521253 -0.0700887 0.552534
-0.0509714 -0.0694685 0.550482
-0.0498109 -0.0688298 0.548237
-0.0486474 -0.068176 0.545836
-0.0475268 -0.0675835 0.543956
-0.0464581 -0.0670722 0.54278
-0.0454252 -0.0666166 0.5421
-0.0444238 -0.0662153 0.541893
-0.0434463 -0.0658546 0.542062
-0.0424748 -0.0655065 0.542338
-0.0415065 -0.0651636 0.542672
-0.0405409 -0.0648283 0.54307
-0.039569 -0.0644808 0.543361
-0.0385959 -0.0641314 0.543639
-0.0375596 -0.063652 0.542683
-0.0364448 -0.0629957 0.540046
-0.0352938 -0.0622449 0.536467
-0.0341431 -0.0614731 0.532641
-0.0330143 -0.0607264 0.52902
-0.0319494 -0.0601105 0.526621
-0.0309448 -0.0596283 0.525495
-0.0299615 -0.0591913 0.524801
-0.028984 -0.058763 0.524188
-0.0280007 -0.0583141 0.523354
-0.0270191 -0.0578618 0.522478
-0.0260428 -0.0574173 0.521668
-0.0250675 -0.0569679 0.520796
-0.0240886 -0.0564986 0.519705
-0.0231147 -0.0560328 0.518642
-0.0221474 -0.0555791 0.517686
-0.021187 -0.0551412 0.516874
-0.0202334 -0.0547179 0.516211
-0.0192858 -0.0543114 0.515711
-0.0183436 -0.0539202 0.515368
-0.0174039 -0.0535348 0.51508
-0.016467 -0.0531582 0.514876
-0.0155331 -0.0527927 0.514792
-0.0146023 -0.0524433 0.514876
-0.0136697 -0.0520787 0.514796
-0.0127369 -0.051709 0.514652
-0.0118061 -0.0513463 0.514593
-0.0108759 -0.0509861 0.51455
-0.00994691 -0.050638 0.514637
-0.00901944 -0.0503049 0.514903
-0.00809204 -0.0499863 0.515334
-0.00716365 -0.0496734 0.515826
-0.0062345 -0.0493695 0.516435
-0.00530376 -0.0490576 0.516951
-0.00437146 -0.0487627 0.517673
-0.00343776 -0.0484624 0.518345
-0.00249982 -0.0481905 0.519354
-0.00155792 -0.0479433 0.520675
-0.000606611 -0.0477459 0.52261
0.000713323 -0.0486248 0.52606
0.000353833 -0.0475706 0.524838
-0.0774959 -0.0824748 0.597535
-0.076315 -0.081948 0.596658
-0.0750981 -0.0813745 0.595393
-0.0738472 -0.0807564 0.593748
-0.072594 -0.0801295 0.592018
-0.0713779 -0.0795439 0.590607
-0.0701765 -0.078973 0.589299
-0.0689937 -0.0784212 0.588137
-0.0678593 -0.0779288 0.587454
-0.066731 -0.0774414 0.586807
-0.0656454 -0.0770083 0.586609
-0.0644831 -0.0764714 0.585526
-0.0631007 -0.0756297 0.58184
-0.061582 -0.0745866 0.576395
-0.0599712 -0.0733956 0.569624
-0.0583936 -0.0722287 0.56299
-0.056941 -0.07122 0.557653
-0.055701 -0.0705043 0.554812
-0.0545549 -0.0699181 0.553076
-0.0534459 -0.0693814 0.551754
-0.0523139 -0.068803 0.550052
-0.0511699 -0.0681995 0.548103
-0.0500279 -0.0675915 0.546089
-0.0488902 -0.0669811 0.544034
-0.0477924 -0.0664285 0.542474
-0.0467273 -0.0659231 0.541329
-0.0457008 -0.0654788 0.540725
-0.0447053 -0.0650855 0.540582
-0.0437329 -0.064731 0.5408
-0.0427672 -0.0643896 0.541138
-0.0418045 -0.0640551 0.54154
-0.0408482 -0.0637333 0.542067
-0.0398818 -0.0633946 0.542435
-0.0388873 -0.0629994 0.542277
-0.0378252 -0.0624669 0.540788
-0.0366828 -0.0617562 0.53757
-0.0355284 -0.0610018 0.533886
-0.0343873 -0.0602552 0.530231
-0.0332872 -0.0595778 0.527215
-0.0322498 -0.0590279 0.525419
-0.0312672 -0.0585984 0.524791
-0.0302836 -0.0581615 0.524079
-0.0293043 -0.0577294 0.523407
-0.0283216 -0.0572822 0.522573
-0.027341 -0.0568327 0.521708
-0.0263671 -0.0563955 0.520951
-0.0253908 -0.0559435 0.520033
-0.0244137 -0.0554809 0.518985
-0.0234401 -0.055018 0.517926
-0.0224751 -0.0545725 0.517036
-0.021517 -0.0541426 0.516293
-0.0205665 -0.0537326 0.515749
-0.0196211 -0.0533333 0.515319
-0.0186801 -0.0529493 0.515036
-0.017741 -0.0525652 0.514755
-0.0168053 -0.052194 0.514605
-0.0158725 -0.0518349 0.514581
-0.0149429 -0.0514906 0.514722
-0.0140119 -0.0511368 0.514756
-0.0130817 -0.0507866 0.514832
-0.0121517 -0.0504365 0.514906
-0.0112217 -0.0500875 0.514988
-0.0102933 -0.0497482 0.515189
-0.0093648 -0.0494199 0.515505
-0.00843618 -0.0490911 0.515828
-0.00750713 -0.0487718 0.516262
-0.00657731 -0.048457 0.516752
-0.00564639 -0.0481337 0.517144
-0.00471417 -0.0478318 0.517797
-0.00378056 -0.047526 0.518412
-0.00284422 -0.0472388 0.519256
-0.0019042 -0.0469661 0.520283
-0.000957352 -0.046739 0.521891
-2.84688e-06 -0.0465342 0.523786
-0.079116 -0.0819604 0.598738
-0.0779238 -0.0814253 0.597794
-0.076743 -0.080901 0.596927
-0.0755128 -0.0803156 0.595547
-0.0742423 -0.0796781 0.593721
-0.0729877 -0.0790538 0.591989
-0.0717697 -0.0784696 0.590568
-0.0705602 -0.0778919 0.589185
-0.0693687 -0.0773327 0.58794
-0.0682327 -0.0768391 0.58724
-0.0671164 -0.0763696 0.586729
-0.0660444 -0.0759557 0.586686
-0.0647772 -0.0752829 0.584423
-0.0632795 -0.0742937 0.579413
-0.0616368 -0.0730911 0.572502
-0.0599762 -0.0718431 0.565113
-0.0583715 -0.0706469 0.558107
-0.0570002 -0.0697591 0.553728
-0.055835 -0.0691514 0.551782
-0.0547506 -0.0686544 0.550797
-0.0536538 -0.0681355 0.549601
-0.0525296 -0.0675704 0.547978
-0.051394 -0.0669813 0.546117
-0.0502639 -0.0663926 0.544242
-0.0491445 -0.0658137 0.542431
-0.0480534 -0.0652733 0.540948
-0.0469991 -0.064786 0.539943
-0.0459861 -0.0643638 0.539524
-0.0449994 -0.0639833 0.539492
-0.0440318 -0.0636354 0.539763
-0.0430645 -0.0632885 0.540046
-0.0421007 -0.0629481 0.540394
-0.0411436 -0.0626215 0.540875
-0.0401791 -0.0622829 0.541242
-0.0391615 -0.0618411 0.54062
-0.0380738 -0.0612575 0.538604
-0.0369374 -0.0605638 0.535483
-0.0357903 -0.0598297 0.531927
-0.0346598 -0.0591107 0.528477
-0.0335878 -0.0585003 0.526064
-0.0325747 -0.0580086 0.52481
-0.0315902 -0.0575739 0.524122
-0.0306052 -0.0571336 0.52336
-0.0296242 -0.0566976 0.522631
-0.0286427 -0.0562538 0.521812
-0.0276628 -0.0558079 0.520957
-0.0266877 -0.0553675 0.520148
-0.0257131 -0.0549211 0.519265
-0.0247366 -0.0544598 0.518214
-0.0237652 -0.0540052 0.517216
-0.022804 -0.0535743 0.516453
-0.0218495 -0.0531576 0.515834
-0.0209011 -0.0527543 0.515354
-0.019957 -0.0523617 0.51498
-0.0190166 -0.051978 0.514697
-0.0180787 -0.051601 0.514479
-0.0171444 -0.0512355 0.514389
-0.0162131 -0.0508822 0.514428
-0.0152844 -0.0505431 0.514625
-0.0143557 -0.0502033 0.514818
-0.0134267 -0.0498641 0.515015
-0.0124977 -0.0495253 0.515218
-0.0115684 -0.049187 0.515425
-0.0106399 -0.0488573 0.515738
-0.00971084 -0.0485279 0.516055
-0.00878107 -0.0481944 0.516328
-0.00785115 -0.0478689 0.516698
-0.00692054 -0.0475432 0.517067
-0.0059891 -0.0472088 0.517331
-0.00505694 -0.0468962 0.517865
-0.00412369 -0.0465845 0.518418
-0.00318827 -0.0462877 0.519158
-0.00225003 -0.0459993 0.520013
-0.00130625 -0.0457504 0.521368
-0.000355318 -0.0455258 0.523049
0.000963104 -0.0463684 0.526196
0.000606237 -0.0453403 0.52525
-0.0795378 -0.0808988 0.598924
-0.0783455 -0.0803668 0.597991
-0.0771688 -0.0798506 0.597174
-0.0759315 -0.0792608 0.595739
-0.0746606 -0.0786272 0.593923
-0.073405 -0.0780067 0.592196
-0.0721839 -0.0774223 0.590757
-0.0709578 -0.0768282 0.589215
-0.0697501 -0.0762522 0.58781
-0.0686056 -0.0757506 0.587025
-0.0674892 -0.0752813 0.586511
-0.0663073 -0.0747271 0.585252
-0.0649178 -0.0738996 0.581605
-0.0632992 -0.0727602 0.575194
-0.0599566 -0.070278 0.56037
-0.0584461 -0.0692212 0.554469
-0.0571644 -0.0684615 0.551157
-0.0560759 -0.0679629 0.550143
-0.0549894 -0.0674632 0.549107
-0.0538957 -0.0669497 0.54793
-0.0527747 -0.0663901 0.546326
-0.0516451 -0.0658127 0.54453
-0.0505244 -0.0652406 0.54277
-0.0494105 -0.0646726 0.541022
-0.0483299 -0.0641497 0.539674
-0.0472855 -0.0636791 0.538799
-0.0462781 -0.0632655 0.538445
-0.045286 -0.0628735 0.538301
-0.0443127 -0.0625137 0.538452
-0.0433398 -0.0621544 0.538608
-0.042368 -0.0617957 0.538778
-0.0414058 -0.0614565 0.539128
-0.040425 -0.0610831 0.539149
-0.0393913 -0.0606089 0.53818
-0.0382896 -0.0599981 0.535848
-0.0371676 -0.0593336 0.532957
-0.0360391 -0.0586419 0.529747
-0.0349411 -0.0579949 0.526952
-0.0338943 -0.0574414 0.525068
-0.0328995 -0.0569911 0.524208
-0.0319128 -0.0565525 0.52346
-0.030928 -0.0561133 0.522693
-0.029948 -0.0556801 0.521975
-0.0289675 -0.0552397 0.521173
-0.0279918 -0.0548059 0.520423
-0.027017 -0.0543676 0.519618
-0.0260424 -0.053923 0.518731
-0.0250675 -0.0534687 0.517732
-0.0240982 -0.0530222 0.516798
-0.0231377 -0.0525938 0.516051
-0.0221866 -0.0521897 0.515553
-0.0212395 -0.0517925 0.515127
-0.0202956 -0.0514007 0.514753
-0.0193549 -0.0510177 0.514467
-0.0184182 -0.0506455 0.514298
-0.017484 -0.0502819 0.514217
-0.0165548 -0.0499388 0.514369
-0.0156274 -0.0496052 0.514631
-0.014701 -0.0492799 0.514993
-0.0137733 -0.048951 0.51531
-0.0128453 -0.0486217 0.515633
-0.0119159 -0.048289 0.51591
-0.0109869 -0.0479588 0.516228
-0.0100568 -0.0476242 0.516489
-0.009126 -0.0472846 0.516696
-0.008195 -0.0469493 0.516951
-0.00726366 -0.046614 0.517204
-0.00633206 -0.0462737 0.517403
-0.00540012 -0.0459552 0.517875
-0.00446685 -0.045643 0.518425
-0.00353128 -0.0453452 0.519168
-0.0025944 -0.0450473 0.51992
-0.00165225 -0.0447823 0.521096
-0.000704255 -0.0445399 0.522579
0.000252915 -0.0443365 0.52458
0.00157164 -0.0451391 0.527282
0.00121436 -0.0441228 0.526483
-0.0799492 -0.0798253 0.599014
-0.0787522 -0.0792911 0.598046
-0.0775798 -0.0787817 0.597276
-0.0763474 -0.0782013 0.595899
-0.0750771 -0.0775729 0.594103
-0.0738214 -0.0769563 0.592389
-0.0725988 -0.076375 0.59095
-0.0713492 -0.0757572 0.589182
-0.0701249 -0.0751644 0.587613
-0.0689657 -0.0746469 0.586676
-0.0678433 -0.0741711 0.586096
-0.0665403 -0.0734681 0.58351
-0.0650317 -0.0724961 0.578527
-0.0633901 -0.0713376 0.571842
-0.0600373 -0.0688683 0.556879
-0.0586241 -0.0679505 0.552125
-0.0574266 -0.0673106 0.549829
-0.0563292 -0.0668001 0.548685
-0.0552402 -0.0662974 0.547598
-0.0541455 -0.0657823 0.546384
-0.0530309 -0.0652344 0.544849
-0.0519068 -0.0646667 0.543112
-0.0507879 -0.0640999 0.541363
-0.0496802 -0.0635434 0.539688
-0.0486061 -0.0630318 0.538417
-0.047564 -0.0625657 0.537559
-0.0465589 -0.0621541 0.537213
-0.0455644 -0.0617574 0.537008
-0.0445855 -0.0613851 0.537034
-0.0436068 -0.0610124 0.537056
-0.0426214 -0.0606285 0.536964
-0.0416466 -0.0602621 0.53704
-0.0406504 -0.0598558 0.536726
-0.0395984 -0.059346 0.535369
-0.0385142 -0.0587679 0.53331
-0.0374181 -0.0581568 0.530887
-0.0363139 -0.0575166 0.528138
-0.0352436 -0.0569292 0.525898
-0.0342223 -0.0564315 0.52455
-0.0332246 -0.0559773 0.523626
-0.0322377 -0.0555392 0.522866
-0.0312554 -0.0551078 0.522156
-0.0302782 -0.0546823 0.521502
-0.0292999 -0.054249 0.520755
-0.028327 -0.0538221 0.52007
