ply
format ascii 1.0
element vertex 1731
property float x
property float y
property float z
end_header
0.199967 0.0579549 0.559734
0.200423 0.0569632 0.559033
0.200952 0.0560474 0.558682
0.2015 0.0551537 0.558429
0.202089 0.0543006 0.558369
0.202715 0.053484 0.558486
0.20335 0.0526763 0.558645
0.203976 0.05186 0.558763
0.204588 0.0510306 0.558817
0.205222 0.050222 0.558972
0.20582 0.0493795 0.558959
0.206428 0.0485474 0.558997
0.207052 0.0477287 0.559101
0.207713 0.0469439 0.559381
0.208343 0.0461305 0.559513
0.209019 0.0453567 0.559855
0.209669 0.0445593 0.560077
0.210317 0.04376 0.560287
0.210981 0.0429736 0.56057
0.2117 0.0422318 0.561097
0.212415 0.041484 0.561596
0.213194 0.040786 0.562375
0.213962 0.0400762 0.563098
0.214705 0.0393442 0.563707
0.21546 0.0386195 0.564366
0.216203 0.0378833 0.564968
0.216908 0.0371163 0.565405
0.217652 0.0363766 0.566002
0.218398 0.0356361 0.566602
0.219177 0.0349173 0.567336
0.22002 0.0342421 0.568338
0.220929 0.0336097 0.569608
0.221849 0.0329799 0.570913
0.222813 0.0323752 0.572392
0.223748 0.0317456 0.57374
0.22474 0.0311484 0.575308
0.225695 0.0305208 0.576716
0.226683 0.0299088 0.578243
0.227658 0.0292833 0.57971
0.228604 0.0286341 0.581049
0.229476 0.0279331 0.58208
0.230362 0.0272366 0.583158
0.231174 0.0264913 0.583933
0.231926 0.0257072 0.584465
0.173828 0.0802058 0.531311
0.173268 0.0810529 0.531439
0.173877 0.0813567 0.530224
0.174434 0.0805082 0.530087
0.17436 0.0793191 0.531029
0.174972 0.0796322 0.529843
0.174851 0.0783717 0.53051
0.175451 0.0786711 0.52927
0.175266 0.0773168 0.529566
0.175864 0.0776166 0.528328
0.17566 0.0762388 0.528522
0.17625 0.0765288 0.527245
0.17603 0.0751306 0.527345
0.176617 0.0754225 0.526078
0.17641 0.0740451 0.526244
0.176997 0.0743403 0.524989
0.176814 0.073 0.52529
0.177403 0.0733006 0.524056
0.177903 0.0723988 0.523657
0.178444 0.0715557 0.523488
0.178987 0.0707162 0.52333
0.17896 0.0695923 0.524482
0.179555 0.0699124 0.523313
0.179508 0.0687602 0.524352
0.180112 0.0690941 0.523235
0.180056 0.0679293 0.524224
0.180661 0.0682655 0.523114
0.180616 0.0671143 0.524159
0.181218 0.0674501 0.523043
0.181177 0.0663028 0.524108
0.181789 0.0666526 0.523046
0.181728 0.0654794 0.524003
0.18234 0.0658305 0.522943
0.182296 0.0646765 0.523983
0.182888 0.0650059 0.52283
0.182891 0.06391 0.524115
0.183461 0.0642129 0.522846
0.183492 0.0631493 0.524274
0.184048 0.0634377 0.522937
0.184661 0.0626942 0.523163
0.185316 0.0619998 0.5236
0.185959 0.0612905 0.523977
0.186579 0.0605515 0.524228
0.187184 0.059796 0.52441
0.187865 0.0591261 0.524968
0.199985 0.0591748 0.558545
0.200403 0.0581434 0.557662
0.20087 0.0571668 0.557023
0.20141 0.056267 0.556741
0.201969 0.0553869 0.556546
0.202555 0.0545346 0.556482
0.203177 0.0537182 0.556587
0.203799 0.052902 0.556695
0.204423 0.0520868 0.556807
0.205033 0.051259 0.556857
0.205652 0.0504399 0.556952
0.206232 0.0495855 0.556867
0.206824 0.0487421 0.556835
0.207428 0.0479108 0.556863
0.208075 0.0471166 0.557082
0.208715 0.0463167 0.557271
0.209393 0.0455487 0.557627
0.210056 0.0447669 0.557916
0.210718 0.0439832 0.558197
0.211396 0.0432114 0.558543
0.212129 0.0424847 0.559135
0.212859 0.0417522 0.559703
0.213627 0.0410489 0.560439
0.214393 0.0403407 0.561155
0.215132 0.0396091 0.561752
0.215872 0.0388759 0.562347
0.216614 0.038142 0.562947
0.217328 0.0373854 0.563427
0.218069 0.0366466 0.564016
0.218812 0.0359076 0.56461
0.219561 0.0351705 0.565222
0.220368 0.0344728 0.566073
0.221223 0.033806 0.567119
0.222103 0.0331529 0.568259
0.223032 0.032529 0.569596
0.223982 0.0319134 0.571003
0.22498 0.031326 0.572601
0.225983 0.030735 0.574206
0.227008 0.0301521 0.575883
0.228047 0.0295719 0.577607
0.229075 0.0289777 0.579274
0.230041 0.0283388 0.580682
0.231009 0.0276959 0.582084
0.231899 0.0269997 0.583171
0.232715 0.0262549 0.583953
0.174432 0.0815801 0.528714
0.174979 0.08072 0.528529
0.175514 0.0798435 0.528278
0.175975 0.0788584 0.527608
0.176386 0.077807 0.526676
0.176771 0.076722 0.525602
0.177157 0.0756469 0.524554
0.177556 0.0745962 0.523587
0.17799 0.0736002 0.522825
0.17851 0.0727289 0.522544
0.179069 0.0719125 0.522478
0.179612 0.071074 0.522321
0.180179 0.0702707 0.522302
0.180726 0.0694408 0.522176
0.181273 0.0686127 0.522053
0.181812 0.0677751 0.521891
0.182378 0.0669747 0.521876
0.182917 0.0661391 0.521715
0.183462 0.065313 0.521592
0.184014 0.0644971 0.521507
0.184599 0.0637216 0.521589
0.185208 0.0629761 0.5218
0.185864 0.0622847 0.522243
0.18651 0.0615808 0.522636
0.187163 0.0608838 0.523062
0.187792 0.0601565 0.523362
0.188496 0.0595143 0.524035
0.189235 0.0589092 0.52488
0.189403 0.0579747 0.52694
0.190063 0.0583978 0.526148
0.200913 0.0584085 0.555963
0.201392 0.0574477 0.555393
0.201933 0.056551 0.555119
0.20249 0.0556726 0.554925
0.203073 0.0548207 0.554855
0.20368 0.0539919 0.554894
0.204274 0.0531525 0.554879
0.20488 0.0523239 0.554917
0.205475 0.0514857 0.554908
0.206081 0.0506585 0.554949
0.20665 0.0497969 0.554819
0.207249 0.0489647 0.554833
0.207826 0.0481122 0.554743
0.208469 0.0473188 0.554951
0.209119 0.0465317 0.555194
0.20981 0.0457786 0.555614
0.210488 0.0450124 0.55597
0.211187 0.0442634 0.556423
0.211878 0.0435054 0.556829
0.212614 0.0427832 0.557434
0.213354 0.0420621 0.558051
0.214108 0.0413504 0.558727
0.214872 0.0406434 0.559438
0.215612 0.0399153 0.560041
0.216351 0.0391844 0.560636
0.217092 0.0384521 0.561233
0.217832 0.0377173 0.561822
0.218574 0.036982 0.562416
0.219317 0.0362461 0.563017
0.220049 0.0354993 0.563559
0.220822 0.0347798 0.56427
0.221612 0.0340699 0.565048
0.222437 0.0333814 0.565961
0.223311 0.0327237 0.567071
0.224223 0.0320869 0.568325
0.225188 0.0314822 0.569789
0.226191 0.0308959 0.571394
0.227234 0.0303299 0.573148
0.228283 0.0297614 0.574912
0.229375 0.0292128 0.576835
0.230455 0.0286501 0.578696
0.231524 0.0280722 0.580496
0.232503 0.0274329 0.581931
0.174443 0.0826675 0.527414
0.174989 0.0818079 0.52723
0.175512 0.0809141 0.526912
0.176025 0.0800094 0.526549
0.176491 0.0790369 0.525924
0.176908 0.0779985 0.525039
0.177301 0.0769309 0.52403
0.177706 0.0758876 0.523104
0.178125 0.0748685 0.522259
0.178568 0.0738895 0.521561
0.179097 0.073032 0.521331
0.179656 0.0722174 0.521269
0.180197 0.0713801 0.521113
0.180772 0.0705901 0.521144
0.18132 0.069764 0.521029
0.181867 0.0689371 0.520908
0.182394 0.0680865 0.520687
0.182946 0.0672693 0.5206
0.183461 0.0664073 0.520328
0.183994 0.0655696 0.520149
0.184537 0.0647445 0.520021
0.185119 0.063969 0.520099
0.185727 0.0632246 0.520307
0.186381 0.0625348 0.520748
0.187037 0.0618448 0.521192
0.187712 0.0611751 0.521729
0.188374 0.0604889 0.522199
0.189117 0.059893 0.523066
0.189895 0.0593313 0.524092
0.190734 0.0588337 0.525414
0.190923 0.0579169 0.527567
0.191588 0.0583457 0.526792
0.201935 0.0577498 0.553876
0.202489 0.0568698 0.553674
0.203047 0.0559942 0.553487
0.203639 0.0551536 0.553465
0.204217 0.0543005 0.553382
0.204783 0.0534361 0.55324
0.20536 0.0525831 0.553151
0.205939 0.0517337 0.553076
0.206521 0.0508873 0.553014
0.207076 0.0500177 0.552836
0.207676 0.0491889 0.552855
0.20825 0.0483384 0.552766
0.208906 0.0475593 0.553035
0.209569 0.0467865 0.553339
0.210284 0.0460573 0.553869
0.210986 0.0453145 0.554336
0.211711 0.0445896 0.554903
0.212402 0.043835 0.55532
0.213135 0.0431129 0.555913
0.213884 0.0424012 0.556568
0.214623 0.0416789 0.557176
0.215372 0.0409632 0.557828
0.21611 0.0402355 0.55842
0.21685 0.0395078 0.559022
0.217578 0.0387691 0.55957
0.218334 0.0380491 0.560232
0.219091 0.0373273 0.560889
0.21985 0.0366043 0.561549
0.220583 0.0358607 0.562102
0.22134 0.0351325 0.562749
0.22207 0.0343826 0.56328
0.22283 0.0336519 0.563929
0.223638 0.0329522 0.56477
0.224497 0.0322837 0.565813
0.225408 0.0316457 0.567056
0.226402 0.0310583 0.568621
0.227435 0.0304915 0.570338
0.228467 0.0299162 0.572032
0.229561 0.029374 0.573962
0.230666 0.0288316 0.575919
0.23182 0.0283129 0.578058
0.232889 0.0277336 0.57985
0.174569 0.0839304 0.526776
0.175091 0.0830341 0.526457
0.175614 0.0821418 0.526149
0.176109 0.0812096 0.525687
0.17659 0.0802594 0.52515
0.177054 0.0792872 0.524523
0.17746 0.0782374 0.523593
0.177851 0.0771706 0.522586
0.178257 0.0761316 0.521675
0.178683 0.075127 0.520885
0.179135 0.0741627 0.520241
0.179672 0.0733201 0.520067
0.18023 0.0725076 0.520008
0.18077 0.0716715 0.519853
0.181335 0.0708703 0.519835
0.18188 0.0700428 0.51971
0.182417 0.0692065 0.519547
0.182932 0.0683431 0.51927
0.183472 0.0675142 0.51913
0.183983 0.0666488 0.518838
0.184505 0.0658002 0.518611
0.185037 0.0649664 0.518442
0.18562 0.0641947 0.518527
0.186236 0.0634638 0.518785
0.186888 0.0627734 0.519215
0.187554 0.0620976 0.51971
0.188247 0.061452 0.520341
0.188952 0.0608168 0.521023
0.189703 0.0602315 0.521928
0.190484 0.0596748 0.522967
0.191334 0.0591903 0.524335
0.1922 0.0587179 0.525773
0.202475 0.0580504 0.55236
0.203028 0.057172 0.552161
0.203584 0.0562974 0.551972
0.204164 0.0554477 0.551901
0.20473 0.0545853 0.551767
0.205281 0.0537099 0.551564
0.205839 0.0528432 0.551401
0.206413 0.0519914 0.551306
0.206993 0.0511467 0.551245
0.207549 0.0502805 0.551076
0.208161 0.0494664 0.551159
0.208747 0.0486291 0.551128
0.209415 0.0478639 0.551457
0.210091 0.0471048 0.551821
0.210823 0.0463923 0.552428
0.211539 0.0456637 0.552957
0.212276 0.0449509 0.553578
0.212966 0.0441968 0.553988
0.213684 0.0434644 0.554516
0.214418 0.0427431 0.555111
0.215138 0.0420082 0.555642
0.215884 0.0412923 0.55628
0.216606 0.0405552 0.556812
0.217347 0.0398303 0.557415
0.218075 0.0390937 0.557964
0.218844 0.0383864 0.558683
0.21959 0.0376588 0.559296
0.220364 0.0369499 0.560024
0.221111 0.0362184 0.560633
0.221883 0.0355025 0.56134
0.222601 0.0347466 0.561824
0.223359 0.0340168 0.562469
0.224122 0.0332874 0.563126
0.224919 0.0325797 0.563914
0.225762 0.0319 0.564887
0.226699 0.0312785 0.566226
0.227677 0.0306797 0.56772
0.228682 0.0300914 0.569307
0.229767 0.0295486 0.571201
0.230865 0.0290065 0.573128
0.232012 0.0284876 0.575234
0.233076 0.0279101 0.577004
0.174786 0.0853361 0.526663
0.175281 0.0843962 0.526189
0.175776 0.0834591 0.52572
0.176267 0.082519 0.525235
0.176737 0.0815506 0.524637
0.177175 0.0805397 0.523872
0.177635 0.0795667 0.52324
0.178039 0.0785159 0.522305
0.178437 0.0774639 0.521355
0.178841 0.0764257 0.520447
0.179276 0.0754357 0.519712
0.179724 0.0744698 0.519061
0.18026 0.0736275 0.518884
0.180808 0.072804 0.518778
0.181347 0.0719689 0.518624
0.18191 0.0711674 0.518601
0.182443 0.0703276 0.518423
0.182978 0.0694908 0.518254
0.183482 0.0686169 0.517932
0.184012 0.0677775 0.517745
0.184521 0.0669131 0.517453
0.185051 0.0660773 0.517274
0.185584 0.0652466 0.517111
0.186176 0.0644891 0.517251
0.186803 0.0637721 0.517561
0.187444 0.0630713 0.517942
0.188107 0.0623954 0.51843
0.1888 0.0617507 0.519055
0.189516 0.0611302 0.519793
0.19027 0.0605502 0.520712
0.191064 0.06001 0.521812
0.191925 0.0595388 0.523229
0.192791 0.0590671 0.524659
0.193029 0.0581973 0.527012
0.193618 0.0585456 0.525885
0.203575 0.0574833 0.550701
0.20413 0.0566101 0.550514
0.204707 0.0557608 0.550439
0.205261 0.0548887 0.55025
0.205797 0.0540027 0.549994
0.206343 0.0531266 0.549779
0.206914 0.0522757 0.549681
0.207491 0.0514304 0.549608
0.208057 0.0505765 0.549491
0.208681 0.0497755 0.549633
0.20928 0.0489526 0.549665
0.209962 0.048202 0.550059
0.210653 0.0474578 0.55049
0.211386 0.0467482 0.551101
0.212115 0.0460326 0.551691
0.212854 0.0453231 0.552318
0.213544 0.0445711 0.552731
0.214247 0.0438283 0.553199
0.214977 0.0431055 0.553775
0.215669 0.0423508 0.554191
0.216403 0.041627 0.554775
0.21711 0.0408806 0.555245
0.217845 0.0401539 0.555831
0.21857 0.0394175 0.556367
0.219338 0.0387121 0.557084
0.220083 0.0379858 0.557692
0.22087 0.0372888 0.558474
0.221644 0.0365794 0.559197
0.222422 0.0358701 0.559927
0.223154 0.0351262 0.560473
0.223942 0.0344187 0.561233
0.224704 0.0336917 0.561891
0.225473 0.0329663 0.562569
0.226272 0.0322583 0.563359
0.227143 0.0315958 0.564436
0.228039 0.030945 0.5656
0.228974 0.0303161 0.566912
0.230006 0.029743 0.568593
0.23106 0.0291781 0.570348
0.232175 0.0286441 0.572325
0.233237 0.0280707 0.574088
0.174996 0.0867315 0.526504
0.175501 0.0858038 0.526083
0.175984 0.0848467 0.525548
0.176462 0.0838849 0.524989
0.176926 0.0829058 0.524361
0.17736 0.0818875 0.523576
0.177793 0.0808721 0.522796
0.178243 0.0798865 0.522115
0.178636 0.0788231 0.521134
0.179033 0.0777725 0.520189
0.179434 0.0767335 0.519277
0.179866 0.0757438 0.518543
0.180322 0.0747909 0.517942
0.180858 0.0739504 0.517769
0.181404 0.0731269 0.51766
0.181941 0.0722912 0.517501
0.182493 0.0714768 0.517422
0.183005 0.070612 0.517142
0.183537 0.0697735 0.516962
0.18404 0.0689017 0.516646
0.184571 0.0680655 0.516468
0.185081 0.067206 0.516192
0.185629 0.0663945 0.516108
0.18617 0.0655763 0.515996
0.186764 0.0648224 0.516144
0.1874 0.0641188 0.516505
0.188042 0.0634203 0.516889
0.188694 0.0627325 0.517321
0.189375 0.0620763 0.517894
0.190101 0.0614689 0.518679
0.190858 0.0608925 0.519603
0.191654 0.0603571 0.520718
0.192517 0.0598882 0.522131
0.19337 0.0594032 0.523492
0.194183 0.0588684 0.52465
0.20465 0.0568988 0.548954
0.205238 0.0560617 0.548928
0.205801 0.0552024 0.548795
0.206339 0.0543202 0.54855
0.206885 0.0534468 0.548343
0.207443 0.0525854 0.54819
0.208005 0.0517297 0.548061
0.20857 0.050878 0.547947
0.209194 0.0500797 0.548092
0.209795 0.0492606 0.548137
0.210487 0.0485211 0.548578
0.21119 0.0477895 0.549063
0.211924 0.0470829 0.549679
0.212666 0.0463807 0.550328
0.213417 0.0456835 0.551006
0.214118 0.0449424 0.551468
0.214821 0.0442015 0.551937
0.215552 0.0434814 0.552519
0.216244 0.0427277 0.552932
0.216961 0.041993 0.55345
0.217653 0.0412369 0.553861
0.218374 0.0405015 0.554386
0.219082 0.0397546 0.554856
0.219833 0.0390377 0.555496
0.220572 0.0383105 0.556089
0.221358 0.0376151 0.556866
0.222146 0.0369186 0.557648
0.222939 0.0362226 0.558442
0.223702 0.0355019 0.559109
0.22452 0.0348179 0.559995
0.225314 0.0341135 0.560774
0.2261 0.0334013 0.56152
0.226898 0.032695 0.56231
0.227738 0.032013 0.563258
0.228601 0.031343 0.56429
0.229461 0.0306662 0.565301
0.230414 0.0300455 0.566671
0.231382 0.0294299 0.568087
0.232402 0.0288406 0.569698
0.233386 0.0282237 0.571155
0.17451 0.0876928 0.527042
0.175262 0.0882168 0.526663
0.175733 0.0872343 0.526052
0.176227 0.0862898 0.525571
0.176694 0.0853085 0.52495
0.177148 0.0843119 0.524266
0.177579 0.0832858 0.523464
0.177991 0.0822371 0.52257
0.178402 0.0811924 0.52168
0.178842 0.080194 0.520952
0.179223 0.0791183 0.519925
0.179628 0.0780813 0.519031
0.180028 0.0770445 0.518127
0.18046 0.0760567 0.517399
0.180915 0.075106 0.516805
0.181449 0.0742659 0.516632
0.181985 0.0734304 0.516473
0.18253 0.0726073 0.516359
0.183071 0.0717816 0.516233
0.183582 0.0709165 0.515948
0.18411 0.0700772 0.515763
0.184621 0.0692169 0.515488
0.185144 0.0683731 0.515277
0.185663 0.0675274 0.515055
0.186212 0.0667198 0.514982
0.186763 0.0659146 0.514919
0.187356 0.0651624 0.515073
0.187994 0.0644615 0.515437
0.188634 0.0637637 0.515821
0.189294 0.0630866 0.516293
0.189965 0.0624195 0.51681
0.190689 0.0618118 0.517587
0.191456 0.0612481 0.518559
0.192252 0.0607131 0.519665
0.193093 0.060222 0.520975
0.193924 0.0597131 0.52222
0.194701 0.0591413 0.523205
0.194961 0.0582902 0.525629
0.195454 0.0585395 0.524071
0.205209 0.0572262 0.547585
0.205807 0.0564015 0.54761
0.206369 0.0555428 0.547475
0.206918 0.0546728 0.547285
0.207465 0.0538022 0.547086
0.208023 0.052944 0.546943
0.208584 0.0520894 0.546814
0.20916 0.0512489 0.54675
0.209772 0.050442 0.546849
0.210385 0.0496354 0.54695
0.211064 0.0488863 0.547336
0.211751 0.0481433 0.547755
0.212456 0.0474131 0.548244
0.213195 0.046711 0.548881
0.213934 0.0460058 0.549511
0.214651 0.0452799 0.550041
0.215368 0.0445528 0.550572
0.216123 0.0438539 0.551256
0.216815 0.0431024 0.551672
0.217532 0.0423697 0.552191
0.218223 0.0416144 0.552597
0.218927 0.0408675 0.553053
0.21962 0.0401114 0.553463
0.220355 0.0393847 0.554039
0.22108 0.0386491 0.554575
0.221861 0.0379526 0.555335
0.22265 0.0372587 0.556117
0.223429 0.0365553 0.556858
0.224208 0.0358485 0.557589
0.225039 0.0351757 0.558526
0.22585 0.0344851 0.559376
0.226682 0.0338066 0.560303
0.227513 0.033124 0.561223
0.228355 0.0324443 0.562174
0.229214 0.031773 0.563189
0.230071 0.0310958 0.564186
0.23095 0.03043 0.565264
0.231813 0.0297494 0.56627
0.232741 0.0291064 0.567522
0.233647 0.0284451 0.568682
0.175562 0.0897598 0.527013
0.176013 0.0887405 0.526282
0.176462 0.0877227 0.525547
0.176922 0.0867284 0.524888
0.177359 0.0857025 0.524108
0.177781 0.0846603 0.523258
0.178192 0.0836065 0.522356
0.178593 0.0825447 0.521413
0.179002 0.0814999 0.520522
0.179437 0.0804986 0.519784
0.179818 0.0794247 0.518762
0.18023 0.0784013 0.517921
0.18064 0.0773807 0.517079
0.18108 0.0764078 0.516408
0.181546 0.0754735 0.515876
0.182079 0.0746345 0.515705
0.182605 0.073787 0.515498
0.183147 0.0729629 0.515378
0.183679 0.0721259 0.515205
0.18418 0.0712508 0.514878
0.184698 0.0704004 0.514645
0.185216 0.0695511 0.514414
0.185737 0.068707 0.514199
0.186267 0.0678768 0.514035
0.186826 0.0670826 0.514015
0.187386 0.066291 0.514005
0.187979 0.0655397 0.514159
0.188616 0.0648394 0.514522
0.189255 0.0641414 0.514899
0.189916 0.063466 0.515373
0.190585 0.0627987 0.515886
0.191299 0.0621798 0.516608
0.192053 0.0616027 0.517517
0.192838 0.0610558 0.518562
0.193665 0.0605514 0.519805
0.194472 0.060018 0.520934
0.195235 0.0594331 0.521853
0.195977 0.0588204 0.522659
0.206379 0.056744 0.546315
0.206954 0.0558997 0.546242
0.207514 0.0550426 0.546108
0.208072 0.0541845 0.545965
0.208629 0.0533265 0.54582
0.209188 0.0524717 0.545687
0.209762 0.0516317 0.54562
0.210362 0.0508146 0.545666
0.210962 0.0499991 0.545716
0.211626 0.0492389 0.546039
0.212295 0.0484822 0.546385
0.212982 0.047739 0.546798
0.213706 0.0470263 0.547372
0.214432 0.0463124 0.547946
0.215162 0.0455998 0.548535
0.215893 0.0448867 0.549127
0.216653 0.0441936 0.549829
0.217358 0.0434549 0.550302
0.218086 0.0427325 0.550867
0.218788 0.0419875 0.551321
0.219491 0.0412427 0.551779
0.220186 0.0404897 0.552197
0.220907 0.039754 0.552717
0.221628 0.0390178 0.55324
0.222382 0.0383028 0.553886
0.22317 0.0376109 0.554666
0.223947 0.036908 0.555399
0.224737 0.0362114 0.556176
0.225568 0.0355409 0.557113
0.226424 0.0348831 0.558137
0.227275 0.034219 0.55914
0.228141 0.0335609 0.560191
0.229014 0.0329033 0.561263
0.229887 0.032243 0.56233
0.230743 0.0315662 0.563319
0.231619 0.0308991 0.564381
0.232464 0.0302083 0.565316
0.233304 0.0295112 0.566224
0.234144 0.0288116 0.56713
0.175095 0.090758 0.527661
0.175448 0.0923934 0.528309
0.175879 0.091333 0.527456
0.176331 0.0903099 0.526723
0.17676 0.0892568 0.525875
0.177168 0.0881779 0.524926
0.177578 0.0871078 0.523997
0.177973 0.086021 0.522995
0.17838 0.0849585 0.522073
0.178763 0.0838659 0.521029
0.179162 0.0828045 0.520088
0.179587 0.0817879 0.519299
0.18003 0.0808008 0.518612
0.180409 0.0797286 0.517598
0.18084 0.0787339 0.516863
0.181269 0.0777429 0.516134
0.18172 0.0767865 0.515525
0.182193 0.0758655 0.515045
0.182726 0.0750267 0.514873
0.18325 0.074178 0.514659
0.183792 0.0733547 0.514542
0.184314 0.0725071 0.514325
0.184814 0.071633 0.514004
0.18533 0.0707811 0.513763
0.185848 0.0699332 0.513535
0.186367 0.0690892 0.513319
0.186907 0.068272 0.513206
0.187475 0.0674898 0.513233
0.188045 0.0667118 0.513275
0.188638 0.0659607 0.513427
0.189275 0.0652614 0.513791
0.189914 0.064563 0.514164
0.190564 0.0638764 0.514589
0.191233 0.0632102 0.515102
0.191938 0.0625815 0.515778
0.19267 0.0619806 0.516578
0.19343 0.0614072 0.517505
0.194234 0.0608782 0.518632
0.195008 0.0603106 0.519604
0.195769 0.0597249 0.52051
0.196519 0.0591236 0.521357
0.196918 0.0584143 0.524387
0.197306 0.0585574 0.522368
0.207 0.0571341 0.545247
0.207587 0.0563031 0.545233
0.20816 0.055459 0.545156
0.208729 0.0546131 0.545069
0.209287 0.0537569 0.544931
0.209844 0.0529018 0.544794
0.210415 0.0520597 0.544716
0.210999 0.0512308 0.5447
0.211586 0.0504044 0.544694
0.212224 0.0496223 0.544905
0.212864 0.0488421 0.545126
0.213518 0.0480741 0.54541
0.214226 0.0473496 0.545914
0.214938 0.0466267 0.546434
0.215682 0.0459281 0.547082
0.216427 0.0452282 0.547732
0.2172 0.044548 0.54849
0.217906 0.0438119 0.548971
0.218637 0.0430934 0.549545
0.219338 0.0423501 0.549997
0.220044 0.0416086 0.550464
0.220737 0.0408559 0.550879
0.221457 0.0401224 0.551399
0.222179 0.0393887 0.551925
0.222931 0.0386745 0.552565
0.223716 0.0379819 0.553333
0.224478 0.0372699 0.554003
0.225265 0.0365733 0.55477
0.226094 0.0359034 0.555697
0.226964 0.0352582 0.556779
0.227848 0.0346179 0.557905
0.228748 0.0339845 0.559087
0.229656 0.0333521 0.560292
0.230547 0.0327035 0.561421
0.2314 0.0320267 0.562399
0.23226 0.0313498 0.563396
0.233103 0.0306597 0.564322
0.233941 0.0299626 0.56522
0.234812 0.0292822 0.566238
0.175705 0.0938764 0.528408
0.176202 0.0929187 0.527924
0.176642 0.0918727 0.527123
0.177083 0.0908344 0.526341
0.17746 0.0897007 0.525211
0.177819 0.0885468 0.523998
0.178165 0.0873811 0.522728
0.178514 0.0862286 0.521491
0.178888 0.0851222 0.520407
0.179276 0.0840429 0.519409
0.179678 0.0829899 0.518496
0.180122 0.0820044 0.51782
0.180583 0.0810477 0.517242
0.18098 0.0800035 0.516333
0.18143 0.0790411 0.515717
0.181879 0.0780803 0.515099
0.18234 0.0771399 0.514551
0.182822 0.0762319 0.51412
0.183353 0.0753934 0.513947
0.183875 0.0745443 0.513731
0.184417 0.0737218 0.513613
0.184936 0.0728722 0.513389
0.185445 0.072011 0.513115
0.185952 0.0711489 0.512834
0.186477 0.0703124 0.512649
0.187006 0.0694811 0.512482
0.187556 0.0686783 0.512425
0.188126 0.0679003 0.512466
0.188716 0.0671465 0.512605
0.189298 0.0663839 0.512708
0.189933 0.0656825 0.513062
0.190571 0.0649846 0.513432
0.191223 0.0643001 0.513862
0.191894 0.063637 0.514384
0.192598 0.0630076 0.515052
0.193308 0.0623831 0.515748
0.194044 0.0617831 0.516556
0.194825 0.0612293 0.517569
0.195577 0.0606397 0.518439
0.196328 0.0600449 0.519296
0.197088 0.0594562 0.52019
0.197887 0.0589034 0.52125
0.198192 0.0580899 0.523827
0.198617 0.0582749 0.52199
0.207656 0.057558 0.544341
0.208255 0.0567402 0.544387
0.20883 0.0558995 0.544322
0.209402 0.0550562 0.544246
0.209946 0.0541893 0.544056
0.21049 0.0533226 0.543862
0.211044 0.0524675 0.543719
0.211626 0.0516374 0.543693
0.21221 0.0508102 0.543681
0.212834 0.0500179 0.543836
0.213459 0.0492261 0.543995
0.214098 0.0484461 0.544213
0.214778 0.0476997 0.544603
0.215476 0.0469676 0.545066
0.216218 0.0462693 0.545705
0.216962 0.0455708 0.546354
0.217735 0.0448928 0.547112
0.218454 0.044169 0.547645
0.219185 0.0434523 0.548223
0.219888 0.0427122 0.548684
0.220593 0.0419723 0.549149
0.221273 0.0412119 0.549513
0.221978 0.040469 0.549975
0.222697 0.0397344 0.550486
0.223434 0.0390121 0.551071
0.22422 0.0383224 0.551841
0.224993 0.0376211 0.55256
0.225794 0.0369362 0.55338
0.226624 0.0362688 0.554306
0.227505 0.0356334 0.555431
0.228403 0.0350051 0.556611
0.229336 0.0343947 0.557916
0.230276 0.033786 0.559244
0.231188 0.0331522 0.56045
0.232059 0.0324876 0.561492
0.232931 0.0318201 0.562531
0.233774 0.0311302 0.563454
0.234614 0.0304361 0.564359
0.235488 0.0297589 0.565385
0.235776 0.0286551 0.567601
0.236453 0.0291325 0.566744
0.175929 0.0953073 0.528315
0.176453 0.0943909 0.527982
0.176944 0.0934228 0.527462
0.177377 0.0923679 0.526635
0.177756 0.0912326 0.525515
0.178062 0.0899929 0.524015
0.178366 0.0887571 0.522512
0.178674 0.0875394 0.521057
0.178979 0.0863257 0.5196
0.17936 0.0852342 0.518566
0.179756 0.0841722 0.517628
0.180185 0.0831646 0.516877
0.180649 0.0822116 0.516317
0.181141 0.0813031 0.515913
0.181568 0.080306 0.515176
0.182038 0.0793734 0.51467
0.182496 0.0784282 0.514111
0.182966 0.0775028 0.513619
0.183449 0.0765972 0.513195
0.183979 0.0757592 0.513022
0.184499 0.0749093 0.512801
0.185039 0.0740865 0.512681
0.185558 0.0732384 0.51246
0.186076 0.07239 0.512235
0.186581 0.0715279 0.511953
0.187107 0.0706934 0.511774
0.187646 0.0698761 0.511661
0.188207 0.0690876 0.511659
0.188779 0.0683138 0.511715
0.18938 0.0675743 0.511909
0.189971 0.0668231 0.512057
0.190605 0.0661216 0.512407
0.191244 0.0654241 0.512777
0.191895 0.0647402 0.513206
0.192568 0.0640787 0.513731
0.193251 0.0634267 0.514301
0.193939 0.0627769 0.514886
0.19465 0.062151 0.515578
0.195408 0.0615729 0.51648
0.196147 0.0609708 0.51729
0.19691 0.0603902 0.5182
0.197684 0.0598174 0.519155
0.198485 0.0592682 0.520222
0.199213 0.0586395 0.520954
0.20889 0.0571457 0.543397
0.209476 0.0563168 0.543387
0.21006 0.0554869 0.543369
0.210605 0.0546213 0.543184
0.211148 0.0537547 0.542988
0.211699 0.052898 0.542837
0.212279 0.0520678 0.542807
0.212864 0.0512422 0.542799
0.213488 0.0504513 0.542959
0.214112 0.0496598 0.543117
0.214749 0.048879 0.543327
0.215402 0.0481108 0.543601
0.216071 0.0473562 0.543947
0.216799 0.0466476 0.544527
0.217529 0.0459389 0.545114
0.218287 0.0452509 0.545812
0.219005 0.044528 0.546342
0.219746 0.0438214 0.546963
0.220449 0.0430836 0.547426
0.221154 0.0423456 0.547894
0.221831 0.0415841 0.548243
0.222532 0.0408399 0.54869
0.223222 0.0400863 0.54909
0.223945 0.0393554 0.549618
0.224729 0.0386665 0.550382
0.225505 0.0379697 0.551113
0.226308 0.0372882 0.551939
0.227152 0.0366331 0.552923
0.228048 0.0360099 0.554104
0.228959 0.0353918 0.555329
0.229905 0.0347928 0.556683
0.230865 0.0341982 0.55808
0.231793 0.0335768 0.559347
0.232695 0.0329342 0.560503
0.233572 0.032271 0.561557
0.23443 0.0315925 0.562536
0.235304 0.0309195 0.563564
0.236197 0.0302548 0.564658
0.237149 0.0296225 0.565965
0.237421 0.0285038 0.568107
0.238128 0.0290008 0.567362
0.176659 0.0957915 0.527784
0.177185 0.0948798 0.527467
0.177631 0.0938408 0.526705
0.178007 0.0926969 0.525569
0.1783 0.0914309 0.523994
0.17854 0.090093 0.522149
0.178778 0.088763 0.520312
0.179076 0.0875364 0.518822
0.179389 0.0863425 0.517432
0.179799 0.0853005 0.516572
0.180224 0.0842875 0.515807
0.180699 0.0833518 0.515312
0.181203 0.0824604 0.514973
0.181727 0.0816002 0.514743
0.182175 0.0806363 0.514128
0.182656 0.0797206 0.513684
0.183122 0.0787882 0.513172
0.183591 0.0778634 0.512682
0.184072 0.0769585 0.51226
0.184602 0.076122 0.512091
0.185132 0.0752865 0.511923
0.185652 0.0744396 0.511709
0.18617 0.0735916 0.511487
0.186686 0.0727436 0.511261
0.187193 0.0718847 0.510989
0.187719 0.0710522 0.510817
0.188275 0.070259 0.510796
0.188858 0.0694979 0.510901
0.189452 0.0687513 0.511063
0.190066 0.068028 0.51132
0.190667 0.0672897 0.511518
0.1913 0.0665873 0.511863
0.191939 0.0658895 0.512229
0.192581 0.0651956 0.512614
0.193254 0.0645339 0.513136
0.193925 0.0638695 0.513651
0.194599 0.0632051 0.514172
0.195287 0.0625537 0.514752
0.196031 0.0619613 0.515587
0.196771 0.0613608 0.516397
0.197557 0.0608057 0.51741
0.198357 0.0602612 0.518479
0.199162 0.0597165 0.51956
0.199891 0.0590887 0.520291
0.200093 0.0581628 0.522363
0.200623 0.0584611 0.521032
0.209521 0.0575484 0.542401
0.210107 0.0567211 0.542394
0.210703 0.0559034 0.542431
0.211259 0.0550488 0.542293
0.2118 0.0541822 0.542096
0.21234 0.0533161 0.541898
0.212919 0.0524868 0.541872
0.213493 0.0516526 0.54182
0.214119 0.0508643 0.541987
0.214756 0.0500858 0.542203
0.215394 0.0493064 0.542417
0.216032 0.0485272 0.542633
0.216698 0.0477706 0.542963
0.217407 0.0470484 0.543469
0.21811 0.0463196 0.543947
0.218852 0.04562 0.54458
0.219581 0.0449074 0.545152
0.22031 0.0441934 0.545724
0.221012 0.0434563 0.546184
0.221726 0.042727 0.546691
0.222401 0.0419659 0.547035
0.223087 0.0412121 0.547423
0.223773 0.0404578 0.547811
0.224479 0.0397158 0.548271
0.225249 0.039019 0.548979
0.226038 0.0383333 0.549761
0.22686 0.0376678 0.550664
0.22771 0.0370181 0.551666
0.22862 0.036406 0.552894
0.229528 0.0357883 0.55411
0.230459 0.0351806 0.5554
0.231419 0.0345879 0.556793
0.232363 0.0339793 0.55812
0.233283 0.0333493 0.55934
0.23419 0.0327069 0.560504
0.235083 0.0320522 0.561612
0.235977 0.031393 0.562711
0.236888 0.0307403 0.563868
0.237839 0.0301077 0.565167
0.2388 0.0294769 0.566493
0.239158 0.0284045 0.568941
0.239827 0.0288798 0.568051
0.240156 0.0277841 0.570391
0.240808 0.0282504 0.569435
0.241153 0.0271575 0.571825
0.241809 0.0276267 0.570878
0.177291 0.0961167 0.526711
0.177766 0.0951249 0.526117
0.178169 0.0940221 0.525134
0.178469 0.0927626 0.523597
0.178703 0.0914123 0.521726
0.178931 0.090063 0.51984
0.179158 0.088724 0.517969
0.179477 0.087538 0.516619
0.179823 0.0863992 0.515422
0.180267 0.0854134 0.514758
0.180723 0.0844504 0.514168
0.181227 0.0835606 0.513835
0.181752 0.0827035 0.513617
0.182297 0.0818772 0.513507
0.182776 0.0809581 0.513055
0.183264 0.0800565 0.512661
0.183736 0.0791344 0.512186
0.184202 0.0782083 0.51169
0.184675 0.0772937 0.511231
0.185195 0.0764461 0.511018
0.185733 0.0756235 0.510896
0.186251 0.0747751 0.510674
0.186769 0.0739296 0.51046
0.187305 0.0731088 0.510337
0.187832 0.0722768 0.510168
0.188368 0.0714586 0.51005
0.188944 0.0706912 0.510128
0.189546 0.0699549 0.510329
0.190153 0.0692243 0.510554
0.19078 0.0685161 0.510869
0.191393 0.0677913 0.511121
0.192016 0.0670775 0.511418
0.192653 0.0663785 0.511778
0.193296 0.0656841 0.51216
0.193958 0.065011 0.512632
0.194619 0.0643341 0.513094
0.19529 0.0636665 0.513599
0.195955 0.0629906 0.514073
0.196677 0.0623753 0.514807
0.197416 0.0617746 0.51561
0.198205 0.0612227 0.51663
0.19901 0.0606835 0.517715
0.199817 0.060142 0.518803
0.200568 0.0595373 0.519629
0.201313 0.0589223 0.520419
0.201464 0.0579401 0.52225
0.20201 0.0582564 0.520995
0.210146 0.0579453 0.541386
0.210731 0.0571189 0.541379
0.211328 0.0563027 0.541419
0.211896 0.0554618 0.541343
0.21245 0.0546078 0.541203
0.213001 0.0537535 0.541059
0.213595 0.0529371 0.541091
0.214181 0.0521146 0.541092
0.214808 0.0513286 0.541268
0.215447 0.0505519 0.541491
0.216073 0.0497633 0.541656
0.216696 0.0489726 0.541814
0.217347 0.0482044 0.542081
0.21804 0.0474699 0.54252
0.218726 0.0467288 0.542931
0.219456 0.0460205 0.543512
0.220183 0.0453083 0.544081
0.22091 0.0445938 0.544644
0.221599 0.043848 0.545052
0.222302 0.0431116 0.545513
0.222989 0.0423612 0.545905
0.223674 0.0416089 0.546294
0.224348 0.0408463 0.546631
0.22505 0.0401039 0.54708
0.225814 0.0394042 0.547765
0.226589 0.0387097 0.548488
0.227412 0.0380465 0.549392
0.228278 0.03741 0.550456
0.229178 0.0367928 0.551643
0.230085 0.0361761 0.552851
0.230997 0.0355584 0.554068
0.231925 0.0349455 0.555335
0.232853 0.0343285 0.556594
0.233787 0.0337104 0.557868
0.234712 0.0330823 0.559101
0.23564 0.0324504 0.560333
0.23658 0.0318223 0.561603
0.237525 0.0311924 0.562883
0.238492 0.0305711 0.564238
0.239453 0.0299405 0.565554
0.240478 0.0293436 0.567102
0.241462 0.0287166 0.568487
0.242465 0.0280967 0.569936
0.2428 0.0269927 0.572277
0.243475 0.0274743 0.571397
0.177826 0.0962856 0.525111
0.178222 0.0951721 0.524098
0.178569 0.0939856 0.522824
0.178819 0.0926571 0.521045
0.179035 0.0912857 0.519098
0.17927 0.0899576 0.517282
0.179538 0.0886902 0.515659
0.179901 0.0875762 0.514559
0.1803 0.0865235 0.513663
0.180777 0.0855918 0.513188
0.181281 0.0847031 0.51286
0.181805 0.0838454 0.51264
0.18235 0.0830184 0.512527
0.182916 0.0822237 0.51253
0.183404 0.0813206 0.512135
0.18388 0.0804038 0.511685
0.184341 0.0794684 0.51116
0.184794 0.0785269 0.510606
0.185256 0.0776005 0.510101
0.185784 0.0767651 0.509932
0.186331 0.0759564 0.50986
0.186849 0.0751107 0.509645
0.187385 0.0742901 0.509524
0.18793 0.0734828 0.50945
0.188459 0.0726549 0.509296
0.189006 0.0718518 0.509235
0.189604 0.0711117 0.509417
0.190207 0.0703776 0.509624
0.190825 0.0696607 0.509901
0.191473 0.0689791 0.51032
0.192098 0.068269 0.510628
0.192721 0.0675553 0.510924
0.193368 0.0668668 0.511325
0.194008 0.0661707 0.511699
0.194662 0.0654875 0.512128
0.195312 0.0647991 0.51254
0.195972 0.0641198 0.512993
0.196625 0.0634303 0.513408
0.197326 0.0627927 0.514044
0.198066 0.0621929 0.514846
0.198855 0.0616424 0.515865
0.199672 0.0611156 0.516996
0.200469 0.0605645 0.518036
0.201242 0.0599823 0.518954
0.201988 0.0593694 0.519748
0.20271 0.0587294 0.520433
0.210767 0.0583393 0.540362
0.211353 0.0575152 0.540363
0.21195 0.0567013 0.540409
0.212531 0.0558731 0.540389
0.2131 0.0550341 0.540316
0.213666 0.0541937 0.540235
0.214272 0.0533896 0.540323
0.214869 0.0525778 0.540374
0.215495 0.0517903 0.540541
0.216133 0.0510141 0.540762
0.216758 0.0502258 0.540927
0.21737 0.0494262 0.541037
0.218005 0.0486454 0.541241
0.21867 0.0478892 0.541567
0.219329 0.0471273 0.541868
0.220043 0.0464074 0.542384
0.22077 0.0456969 0.542953
0.221487 0.0449761 0.543476
0.222189 0.0442419 0.543936
0.222903 0.0435156 0.544443
0.223591 0.0427679 0.544844
0.224268 0.0420101 0.545196
0.224955 0.0412589 0.545588
0.225643 0.0405073 0.545981
0.226389 0.0397963 0.546598
0.227158 0.0390995 0.547298
0.227993 0.038446 0.548245
0.228848 0.0378035 0.549265
0.229747 0.0371876 0.550447
0.230651 0.0365699 0.551637
0.231545 0.0359411 0.552782
0.232454 0.0353187 0.553977
0.23338 0.034702 0.555223
0.234328 0.0340949 0.556547
0.235256 0.0334705 0.557787
0.236201 0.0328513 0.559079
0.237174 0.0322464 0.560471
0.238152 0.031638 0.561867
0.239141 0.031031 0.563295
0.240121 0.030414 0.564681
0.241148 0.0298192 0.566228
0.242131 0.0291931 0.567604
0.243119 0.0285642 0.56899
0.244111 0.0279334 0.570384
0.178911 0.0938625 0.520232
0.179126 0.092488 0.518292
0.17936 0.0911547 0.516473
0.179635 0.0898951 0.514891
0.179957 0.0887193 0.513584
0.180374 0.0876925 0.512786
0.180825 0.0867215 0.512175
0.181348 0.0858613 0.51195
0.181871 0.0850021 0.511725
0.182422 0.0841866 0.511653
0.182987 0.0833908 0.511651
0.183562 0.08261 0.511701
0.18404 0.0816939 0.51126
0.184504 0.0807627 0.510756
0.184951 0.0798113 0.510172
0.185393 0.078856 0.509567
0.185852 0.0779288 0.509058
0.18639 0.0771091 0.508945
0.186937 0.0763011 0.508873
0.187453 0.0754559 0.508659
0.187989 0.074637 0.508541
0.188536 0.0738334 0.508479
0.189075 0.0730206 0.50838
0.189644 0.072245 0.508423
0.190253 0.0715206 0.508664
0.190877 0.0708125 0.50897
0.191517 0.0701227 0.509351
0.192176 0.0694543 0.509819
0.192813 0.0687576 0.51018
0.193446 0.0680559 0.510523
0.194093 0.067368 0.510925
0.194734 0.066672 0.511297
0.195378 0.0659779 0.511681
0.196018 0.0652778 0.512043
0.196667 0.0645863 0.512443
0.197297 0.0638733 0.512759
0.197976 0.0632112 0.513289
0.198714 0.0626105 0.514082
0.199503 0.0620597 0.515093
0.20032 0.0615341 0.516222
0.201127 0.0609933 0.5173
0.201923 0.0604352 0.518314
0.202692 0.0598464 0.519209
0.203442 0.0592342 0.520011
0.211965 0.0579017 0.539307
0.212587 0.057113 0.539465
0.213196 0.0563111 0.539563
0.213778 0.0554856 0.539551
0.214359 0.0546597 0.539536
0.214966 0.0538568 0.539628
0.215563 0.0530452 0.539678
0.216186 0.0522567 0.539837
0.216822 0.0514791 0.54005
0.217433 0.0506797 0.540159
0.218042 0.0498787 0.54026
0.218664 0.0490881 0.540412
0.219315 0.048321 0.540681
0.219958 0.047547 0.540918
0.220657 0.0468168 0.541376
0.221371 0.0460966 0.541889
0.222086 0.0453757 0.542405
0.222803 0.0446548 0.542926
0.223533 0.0439419 0.543495
0.22425 0.0432167 0.544007
0.22494 0.0424697 0.544412
0.22563 0.0417219 0.544816
0.226304 0.0409609 0.545156
0.227022 0.04023 0.545659
0.22776 0.0395121 0.546239
0.228577 0.0388478 0.547118
0.229428 0.0382042 0.548122
0.230328 0.0375901 0.549301
0.231233 0.0369747 0.550491
0.232122 0.0363444 0.551616
0.232999 0.0357019 0.552687
0.233907 0.0350759 0.553866
0.234841 0.0344611 0.55513
0.235769 0.0338387 0.556367
0.236729 0.0332314 0.557713
0.237735 0.0326487 0.559221
0.238734 0.0320549 0.560688
0.239745 0.0314637 0.562194
0.240759 0.0308683 0.563699
0.241803 0.0302858 0.565306
0.242785 0.0296599 0.566673
0.243771 0.0290309 0.568044
0.244762 0.0284003 0.569425
0.245142 0.0273189 0.571904
0.245774 0.0277767 0.570874
0.246094 0.0266548 0.573132
0.246707 0.0271039 0.572034
0.179131 0.0935526 0.517021
0.179388 0.0922538 0.515333
0.179733 0.0911018 0.514134
0.180086 0.0899707 0.512993
0.180483 0.0889121 0.512092
0.180949 0.0879634 0.511564
0.181435 0.0870489 0.511151
0.181947 0.0861746 0.510874
0.182469 0.0853158 0.510648
0.183019 0.0845011 0.510576
0.183585 0.0837081 0.510581
0.18417 0.0829438 0.510688
0.184655 0.0820406 0.510291
0.185127 0.081121 0.50983
0.185569 0.080165 0.509229
0.186009 0.0792104 0.508626
0.186468 0.0782844 0.508121
0.187017 0.0774803 0.508063
0.187574 0.0766879 0.508048
0.188101 0.0758578 0.50789
0.188647 0.0750522 0.507821
0.189193 0.0742482 0.507757
0.189731 0.073436 0.507659
0.1903 0.0726625 0.507708
0.19091 0.071939 0.507951
0.191546 0.0712468 0.508316
0.192207 0.0705825 0.508794
0.192878 0.0699291 0.509319
0.193528 0.069247 0.509735
0.194163 0.0685472 0.510085
0.1948 0.0678479 0.510439
0.19544 0.0671514 0.510807
0.196084 0.0664572 0.511189
0.196725 0.0657584 0.511554
0.197373 0.065066 0.51195
0.198001 0.0643504 0.512253
0.198666 0.0636732 0.512718
0.199382 0.0630488 0.513407
0.200147 0.0624735 0.514309
0.200953 0.061937 0.515386
0.201762 0.061398 0.516464
0.202571 0.0608548 0.517535
0.203367 0.0602932 0.51854
0.204154 0.0597191 0.519502
0.204287 0.0587126 0.521218
0.204886 0.0590854 0.520215
0.21263 0.0583391 0.538488
0.213267 0.0575643 0.538707
0.213901 0.0567867 0.538913
0.214485 0.0559632 0.53891
0.215068 0.0551392 0.538903
0.215674 0.0543367 0.538995
0.216271 0.0535252 0.539045
0.216881 0.0527262 0.539153
0.217516 0.0519483 0.539361
0.218113 0.0511372 0.539412
0.218707 0.0503245 0.539454
0.219326 0.0495324 0.539596
0.219963 0.0487547 0.539809
0.220591 0.0479701 0.53999
0.221287 0.0472382 0.540433
0.221997 0.0465164 0.540933
0.222699 0.0457866 0.541397
0.223417 0.0450673 0.541921
0.224161 0.0443668 0.542546
0.224895 0.0436556 0.543124
0.225599 0.0429201 0.543584
0.226302 0.0421824 0.544037
0.226975 0.0414215 0.544372
0.227679 0.0406816 0.544823
0.228401 0.0399532 0.545341
0.229201 0.0392778 0.546151
0.230025 0.0386163 0.547047
0.230909 0.037993 0.548166
0.231797 0.0373679 0.54929
0.232674 0.0367305 0.550362
0.233536 0.0360798 0.551376
0.234443 0.0354549 0.552548
0.235374 0.0348408 0.553802
0.236316 0.0342292 0.555085
0.237276 0.0336237 0.556429
0.238298 0.0330526 0.55799
0.239331 0.0324822 0.559579
0.240377 0.0319133 0.561206
0.241412 0.0313319 0.56278
0.242489 0.0307698 0.564497
0.243472 0.0301452 0.565861
0.24444 0.029508 0.567167
0.245413 0.0288677 0.568478
0.246406 0.0282347 0.569855
0.24734 0.0275632 0.571013
0.179717 0.0921307 0.512774
0.180219 0.0912288 0.512426
0.180671 0.090252 0.511816
0.181125 0.0892835 0.511226
0.181589 0.0883342 0.510697
0.182063 0.0874025 0.510223
0.182553 0.0864982 0.509839
0.183061 0.0856229 0.509553
0.183612 0.0848111 0.509489
0.184178 0.0840199 0.509497
0.184774 0.0832731 0.509662
0.185267 0.0823834 0.509313
0.185747 0.0814773 0.5089
0.18619 0.0805244 0.508311
0.186649 0.079597 0.507807
0.187118 0.0786862 0.507359
0.187678 0.077898 0.507359
0.188236 0.0771084 0.507353
0.188783 0.0763043 0.507291
0.189338 0.0755115 0.50727
0.189894 0.0747206 0.507256
0.190431 0.0739068 0.507152
0.191008 0.0731432 0.507239
0.191618 0.07242 0.507481
0.192245 0.0717175 0.507805
0.192898 0.0710437 0.508244
0.193582 0.0704045 0.508821
0.194231 0.0697231 0.509239
0.194869 0.0690259 0.509597
0.195506 0.0683268 0.50995
0.196156 0.0676421 0.510364
0.196799 0.0669466 0.510738
0.19744 0.0662483 0.511105
0.198079 0.0655449 0.511453
0.198705 0.0648279 0.511749
0.199346 0.0641251 0.512106
0.200036 0.0634733 0.512678
0.20079 0.0628864 0.513526
0.201597 0.062351 0.5146
0.202409 0.0618161 0.515689
0.203243 0.0612992 0.516865
0.204055 0.0607543 0.517936
0.204847 0.0601844 0.51891
0.205582 0.0595548 0.519637
0.213296 0.0587773 0.537677
0.213936 0.0580061 0.537908
0.214572 0.0572311 0.538124
0.215167 0.0564184 0.538169
0.21576 0.0556043 0.538206
0.216353 0.0547912 0.538246
0.216962 0.0539913 0.538348
0.217573 0.0531933 0.538459
0.218197 0.0524064 0.538622
0.218791 0.0515944 0.538667
0.219383 0.0507802 0.5387
0.219987 0.0499765 0.538783
0.220624 0.0491997 0.538997
0.221264 0.0484258 0.539227
0.221946 0.0476838 0.539617
0.222642 0.0469512 0.540057
0.223352 0.0462292 0.540555
0.224071 0.0455115 0.541081
0.224819 0.0448143 0.541718
0.225569 0.044116 0.542357
0.226288 0.0433926 0.542874
0.22699 0.0426549 0.543323
0.227662 0.0418934 0.543652
0.228363 0.0411522 0.544092
0.229071 0.0404144 0.544555
0.229843 0.0397203 0.545258
0.230648 0.0390466 0.546081
0.231517 0.038414 0.547138
0.232393 0.0377816 0.548212
0.233271 0.037147 0.549289
0.234147 0.0365067 0.55035
0.235056 0.0358841 0.551525
0.235985 0.0352705 0.552768
0.236912 0.0346502 0.553993
0.237872 0.034047 0.555332
0.238896 0.0334784 0.556894
0.23993 0.0329098 0.558481
0.240976 0.032343 0.560101
0.242027 0.0317724 0.561728
0.243107 0.0312135 0.563449
0.244108 0.0306021 0.564877
0.245079 0.0299666 0.566185
0.24605 0.029327 0.567487
0.247061 0.0287049 0.568919
0.248029 0.0280549 0.570197
0.180299 0.0924035 0.511577
0.180835 0.0915553 0.51141
0.181325 0.0906397 0.511009
0.181797 0.0897004 0.510522
0.182268 0.088762 0.510031
0.182736 0.0878242 0.509536
0.183204 0.0868889 0.509045
0.183709 0.0860098 0.508745
0.184268 0.0852111 0.508725
0.184835 0.0844234 0.508744
0.185422 0.0836657 0.508868
0.185916 0.0827774 0.508524
0.186396 0.0818741 0.508121
0.186832 0.080913 0.507503
0.187303 0.0800034 0.507065
0.187792 0.079121 0.506721
0.188372 0.0783593 0.506818
0.188941 0.0775841 0.506865
0.189499 0.0767952 0.50686
0.190066 0.0760172 0.506895
0.190622 0.0752271 0.506884
0.191159 0.0744122 0.506777
0.191733 0.0736456 0.506852
0.192331 0.0729082 0.50704
0.192947 0.0721915 0.507308
0.193589 0.0715053 0.507696
0.194272 0.0708657 0.508269
0.194923 0.0701855 0.508689
0.195572 0.069502 0.509099
0.196209 0.068803 0.509451
0.196869 0.0681284 0.509903
0.197511 0.0674323 0.510274
0.198155 0.0667368 0.51065
0.198784 0.0660241 0.510959
0.199411 0.0653069 0.511253
0.200028 0.0645787 0.511504
0.200693 0.063901 0.511965
0.201434 0.0633014 0.512755
0.202241 0.0627659 0.513822
0.203067 0.0622459 0.514966
0.203927 0.0617563 0.516251
0.204766 0.0612389 0.517433
0.20556 0.0606709 0.518411
0.206295 0.0600407 0.519132
0.213986 0.0592382 0.536971
0.214626 0.0584679 0.537204
0.215262 0.0576936 0.537421
0.215856 0.0568807 0.537463
0.216447 0.0560658 0.537494
0.217038 0.0552508 0.537524
0.217647 0.0544513 0.537626
0.218259 0.0536551 0.537743
0.218883 0.0528694 0.53791
0.219478 0.052058 0.537956
0.220068 0.0512439 0.537987
0.220672 0.0504404 0.538069
0.221308 0.0496637 0.538281
0.221951 0.0488925 0.538522
0.222635 0.0481524 0.538917
0.223316 0.0474096 0.539303
0.224013 0.046677 0.539744
0.224727 0.045957 0.540253
0.225477 0.0452619 0.540895
0.226228 0.0445658 0.541539
0.226965 0.0438565 0.542123
0.227681 0.0431294 0.542623
0.228352 0.0423685 0.542951
0.229052 0.0416272 0.543387
0.229759 0.0408892 0.543845
0.230516 0.0401849 0.544488
0.231305 0.0395008 0.545248
0.232171 0.0388671 0.546291
0.233045 0.0382341 0.547352
0.233926 0.0376018 0.548434
0.23482 0.0369749 0.549559
0.235743 0.0363629 0.550783
0.236661 0.0357419 0.551977
0.237573 0.0351133 0.553144
0.238532 0.0345101 0.554474
0.23954 0.0339328 0.555973
0.240542 0.0333452 0.557437
0.241586 0.0327787 0.559044
0.242651 0.0322187 0.560717
0.243735 0.0316636 0.562445
0.244758 0.0310656 0.563944
0.245747 0.0304423 0.565314
0.246735 0.0298135 0.566669
0.247763 0.0292029 0.568158
0.248771 0.0285745 0.569567
0.248882 0.0273347 0.571055
0.249666 0.0278788 0.57057
0.180985 0.0928378 0.510933
0.181529 0.0920044 0.510816
0.182048 0.0911333 0.510569
0.182528 0.0902054 0.510122
0.182986 0.08925 0.509575
0.183432 0.0882803 0.508972
0.183887 0.0873265 0.508417
0.184374 0.0864231 0.508032
0.184942 0.0856381 0.50806
0.185499 0.0848383 0.508035
0.186076 0.0840659 0.508105
0.186577 0.0831891 0.507802
0.187075 0.0823121 0.507493
0.187514 0.0813568 0.506898
0.188008 0.0804778 0.506572
0.188517 0.0796223 0.506328
0.189096 0.0788606 0.506425
0.189666 0.0780863 0.506475
0.190235 0.0773111 0.506522
0.190804 0.0765357 0.506568
0.191362 0.0757477 0.506565
0.191909 0.0749459 0.506509
0.192474 0.0741676 0.50654
0.19305 0.0734031 0.506624
0.193663 0.0726825 0.506877
0.19429 0.0719783 0.507194
0.194951 0.071312 0.507661
0.195611 0.0706436 0.508124
0.196272 0.0699739 0.508586
0.1969 0.0692656 0.508899
0.19756 0.0685918 0.509353
0.198212 0.0679067 0.509765
0.198857 0.0672123 0.510144
0.199489 0.0665026 0.510463
0.200117 0.0657876 0.510764
0.200733 0.0650574 0.511005
0.201385 0.0643658 0.511407
0.202102 0.0637406 0.512088
0.202898 0.0631946 0.513105
0.203737 0.0626889 0.514302
0.204613 0.0622148 0.515646
0.205465 0.0617107 0.516877
0.20627 0.0611536 0.517897
0.207001 0.0605195 0.518597
0.214661 0.0596855 0.536208
0.215312 0.0589257 0.536485
0.215948 0.058152 0.536702
0.21654 0.0573385 0.536739
0.217132 0.0565242 0.536772
0.217723 0.0557108 0.536807
0.218331 0.0549117 0.536909
0.218942 0.0541145 0.53702
0.219565 0.0533286 0.537183
0.22016 0.0525185 0.537233
0.220752 0.0517058 0.537269
0.221357 0.0509044 0.53736
0.221994 0.0501291 0.537575
0.222637 0.0493585 0.537816
0.223309 0.0486103 0.538168
0.223991 0.0478683 0.538554
0.224687 0.047136 0.538993
0.225386 0.046405 0.539443
0.226135 0.0457097 0.540077
0.226899 0.0450244 0.54077
0.227639 0.0443176 0.541362
0.228357 0.0435936 0.541873
0.229044 0.0428442 0.542258
0.229745 0.0421045 0.542697
0.230438 0.0413573 0.543102
0.231178 0.040642 0.543681
0.23195 0.0399465 0.544374
0.232798 0.0393011 0.545345
0.233658 0.0386604 0.546355
0.234553 0.0380395 0.547488
0.235466 0.0374256 0.548675
0.236392 0.036816 0.549905
0.237311 0.0361972 0.551099
0.238235 0.0355774 0.552305
0.239193 0.0349744 0.553626
0.24017 0.034378 0.555006
0.241154 0.033781 0.556401
0.242192 0.0332122 0.557982
0.243256 0.0326532 0.559644
0.244344 0.0321017 0.561379
0.245404 0.0315271 0.563003
0.246428 0.0309262 0.564494
0.247436 0.0303094 0.565914
0.248466 0.0297002 0.567402
0.249495 0.029085 0.568878
0.250428 0.0284109 0.57001
0.250576 0.0271884 0.571622
0.251362 0.0277346 0.571143
0.181782 0.0934439 0.510871
0.182347 0.0926408 0.510859
0.182869 0.0917738 0.510628
0.18336 0.090862 0.510241
0.183798 0.0898756 0.509593
0.184233 0.0888887 0.508935
0.184649 0.0878788 0.50819
0.185115 0.0869464 0.507707
0.185673 0.0861471 0.507685
0.186212 0.0853207 0.507566
0.186766 0.084518 0.507529
0.187272 0.0836481 0.507251
0.187769 0.08277 0.50694
0.188218 0.0818291 0.506398
0.188733 0.0809794 0.506179
0.189252 0.0801376 0.505986
0.189831 0.0793754 0.506082
0.19041 0.0786125 0.506175
0.19099 0.0778507 0.506272
0.19157 0.07709 0.506372
0.19214 0.0763162 0.506424
0.192698 0.0755274 0.50642
0.193244 0.0747245 0.50636
0.193789 0.0739216 0.506299
0.194377 0.0731708 0.506436
0.194979 0.0724374 0.506639
0.195617 0.0717448 0.507002
0.196277 0.0710771 0.507465
0.19694 0.0704094 0.507931
0.19757 0.0697033 0.508251
0.19823 0.0690306 0.508706
0.198893 0.0683582 0.509166
0.199549 0.0676765 0.509593
0.200194 0.0669806 0.509966
0.200834 0.0662786 0.510318
0.201449 0.0655488 0.51056
0.20209 0.0648446 0.510908
0.202782 0.0641942 0.511482
0.203554 0.0636237 0.512392
0.204381 0.0631054 0.51353
0.205259 0.0626339 0.514876
0.206126 0.0621449 0.516165
0.206944 0.0616014 0.517235
0.207685 0.0609769 0.517972
0.208269 0.0604065 0.521557
0.208801 0.0607153 0.520278
0.215363 0.0601577 0.535558
0.216012 0.0593966 0.535827
0.216633 0.0586098 0.535983
0.217227 0.0577989 0.53603
0.21782 0.0569866 0.53607
0.218413 0.0561745 0.536111
0.21902 0.0553759 0.536213
0.219629 0.0545785 0.53632
0.220251 0.0537915 0.536477
0.220859 0.0529928 0.536578
0.221452 0.0521825 0.536625
0.222059 0.0513825 0.53672
0.222695 0.0506074 0.536934
0.223337 0.0498356 0.537167
0.223994 0.0490762 0.537462
0.224676 0.0483348 0.537847
0.225372 0.0476032 0.538285
0.226058 0.0468625 0.538683
0.226803 0.0461655 0.539304
0.227568 0.0454812 0.539996
0.228306 0.0447741 0.540581
0.229042 0.0440638 0.541157
0.229759 0.0433375 0.541658
0.230464 0.0426003 0.542107
0.231157 0.0418536 0.542512
0.231895 0.0411372 0.543081
0.232636 0.0404208 0.543657
0.233454 0.0397554 0.544514
0.234313 0.039115 0.545517
0.23521 0.0384957 0.546651
0.236141 0.0378954 0.547902
0.237086 0.0372994 0.549196
0.23802 0.0366909 0.550439
0.238943 0.0360703 0.551636
0.239899 0.0354671 0.552944
0.240846 0.0348531 0.554212
0.241813 0.0342462 0.555541
0.242849 0.0336772 0.557108
0.243913 0.0331179 0.558759
0.245005 0.0325702 0.560503
0.246086 0.0320098 0.562195
0.24713 0.0314209 0.563747
0.248139 0.0308064 0.565168
