ply
format ascii 1.0
element vertex 1648
property float x
property float y
property float z
end_header
0.105044 -0.018899 0.487483
0.105578 -0.0191966 0.486225
0.106114 -0.0194938 0.484995
0.106657 -0.0197917 0.483813
0.107235 -0.0200963 0.482815
0.107801 -0.020398 0.481778
0.108359 -0.020697 0.480713
0.108933 -0.0209988 0.479735
0.109532 -0.0213059 0.478892
0.110134 -0.0216129 0.47807
0.110746 -0.0219219 0.477306
0.111397 -0.0222393 0.476727
0.112025 -0.0225513 0.476056
0.112643 -0.0228603 0.475341
0.113227 -0.023161 0.474484
0.113836 -0.0234674 0.473752
0.114416 -0.0237663 0.472898
0.115027 -0.0240721 0.47219
0.115678 -0.024387 0.471662
0.116362 -0.0247098 0.471284
0.117027 -0.0250279 0.47083
0.117711 -0.0253502 0.470456
0.11841 -0.0256762 0.470154
0.119071 -0.0259925 0.469689
0.119751 -0.0263135 0.469313
0.120506 -0.0266529 0.469247
0.121248 -0.0269893 0.469129
0.122005 -0.0273295 0.469074
0.122736 -0.0276629 0.468908
0.123468 -0.0279968 0.46875
0.124145 -0.0283164 0.468368
0.124878 -0.0286504 0.468215
0.125596 -0.0289805 0.468003
0.126369 -0.0293247 0.468007
0.127142 -0.0296692 0.46801
0.127904 -0.0300107 0.467968
0.128656 -0.0303498 0.467887
0.129429 -0.0306942 0.467883
0.130205 -0.0310397 0.46789
0.130981 -0.0313854 0.467899
0.131769 -0.0317343 0.467949
0.132545 -0.0320798 0.467948
0.133355 -0.0324349 0.468077
0.134183 -0.0327949 0.468266
0.135031 -0.0331606 0.468527
0.135869 -0.0335236 0.468743
0.136726 -0.0338923 0.469028
0.137605 -0.034267 0.469383
0.138569 -0.0346656 0.470041
0.139575 -0.0350762 0.470836
0.140704 -0.0355217 0.472058
0.141915 -0.0359908 0.473553
0.143125 -0.0364603 0.475024
0.14424 -0.0369039 0.476144
0.145266 -0.0373235 0.476946
0.146199 -0.037717 0.477414
0.14706 -0.0380906 0.477632
0.147865 -0.0384483 0.477652
0.148741 -0.0388263 0.47791
0.149661 -0.0392174 0.478316
0.150559 -0.0396021 0.478638
0.151441 -0.0399827 0.478905
0.152291 -0.0403541 0.479059
0.153109 -0.0407164 0.479106
0.153972 -0.041092 0.479296
0.154885 -0.0414825 0.479649
0.155839 -0.0418851 0.480127
0.156884 -0.0423144 0.480889
0.157917 -0.0427409 0.481607
0.158924 -0.0431601 0.482231
0.159913 -0.0435745 0.482792
0.161459 -0.0441542 0.485099
0.164389 -0.0451467 0.491719
0.0794044 -0.00527509 0.513433
0.0801177 -0.00562711 0.512735
0.0808208 -0.00597742 0.511978
0.0814909 -0.00632351 0.511008
0.0821367 -0.00666605 0.509891
0.0827543 -0.00700425 0.508605
0.0833593 -0.00733984 0.50726
0.0839748 -0.00767543 0.506009
0.084584 -0.00800913 0.504739
0.0852392 -0.00834769 0.503788
0.0859023 -0.00868646 0.502903
0.0865876 -0.00902754 0.502173
0.0872955 -0.00937115 0.501595
0.0880441 -0.00972016 0.501279
0.0887971 -0.0100695 0.500991
0.0896235 -0.0104297 0.501152
0.0904709 -0.0107932 0.501433
0.0913306 -0.0111591 0.501779
0.0922097 -0.0115284 0.50223
0.0930886 -0.0118982 0.502669
0.0938843 -0.0122552 0.502616
0.09468 -0.0126122 0.502561
0.0954549 -0.0129659 0.502387
0.0962061 -0.0133155 0.50208
0.0969605 -0.0136655 0.501794
0.0977664 -0.0140244 0.501794
0.0985282 -0.0143756 0.501551
0.0992966 -0.0147279 0.501345
0.100026 -0.0150732 0.500932
0.100718 -0.0154112 0.500319
0.101329 -0.0157342 0.499291
0.101913 -0.0160511 0.49813
0.102408 -0.0163504 0.496526
0.102869 -0.016642 0.494769
0.103352 -0.0169366 0.493156
0.103855 -0.0172339 0.491662
0.104371 -0.0175327 0.49026
0.104903 -0.0178337 0.488956
0.105467 -0.0181402 0.487829
0.105999 -0.0184396 0.486562
0.106533 -0.0187383 0.485319
0.107064 -0.0190357 0.484082
0.10764 -0.0193415 0.483076
0.108197 -0.0196429 0.481995
0.108755 -0.0199436 0.480932
0.109329 -0.0202471 0.479955
0.109928 -0.0205555 0.479112
0.110521 -0.0208619 0.478249
0.111135 -0.0211723 0.477492
0.111785 -0.0214904 0.47691
0.112415 -0.0218038 0.476245
0.113032 -0.0221138 0.475528
0.113615 -0.0224157 0.474667
0.114221 -0.0227224 0.473922
0.1148 -0.0230224 0.473063
0.115411 -0.0233292 0.472353
0.116064 -0.0236454 0.471835
0.116738 -0.0239663 0.471413
0.117394 -0.0242829 0.47092
0.118076 -0.0246053 0.470539
0.118778 -0.0249322 0.470246
0.11944 -0.0252495 0.469789
0.120132 -0.025574 0.469463
0.120886 -0.0259131 0.469392
0.121625 -0.0262487 0.469258
0.122378 -0.0265878 0.469184
0.123107 -0.0269208 0.469008
0.12384 -0.0272549 0.468852
0.124529 -0.0275782 0.46852
0.125265 -0.0279129 0.468377
0.125984 -0.0282436 0.468169
0.12676 -0.0285883 0.468181
0.127534 -0.028933 0.468188
0.128298 -0.0292748 0.468151
0.12905 -0.0296138 0.468066
0.129823 -0.0299582 0.468063
0.130586 -0.0303001 0.468018
0.131361 -0.0306452 0.468019
0.132149 -0.0309938 0.468067
0.132926 -0.0313396 0.468071
0.133726 -0.0316917 0.468162
0.134566 -0.0320543 0.468394
0.135414 -0.0324192 0.46865
0.136253 -0.0327821 0.46887
0.137098 -0.0331467 0.469108
0.138001 -0.0335272 0.46955
0.139002 -0.0339345 0.470336
0.140063 -0.0343584 0.471323
0.141238 -0.034814 0.472698
0.142492 -0.0352918 0.474335
0.143719 -0.0357635 0.475857
0.144811 -0.036199 0.476892
0.145802 -0.0366071 0.477562
0.146723 -0.0369967 0.477986
0.147574 -0.0373668 0.478161
0.148366 -0.0377208 0.478133
0.149242 -0.0380985 0.478392
0.150163 -0.0384887 0.478793
0.151048 -0.0388692 0.479067
0.151942 -0.0392527 0.479372
0.152793 -0.0396241 0.479526
0.153599 -0.0399827 0.47953
0.154462 -0.0403577 0.479715
0.155375 -0.0407474 0.480064
0.156318 -0.0411457 0.480502
0.157366 -0.0415746 0.481272
0.158417 -0.0420048 0.482042
0.15944 -0.0424274 0.482712
0.161017 -0.043011 0.485126
0.163231 -0.0437813 0.489517
0.0805523 -0.00482746 0.513228
0.081262 -0.00517972 0.512514
0.0819403 -0.00552829 0.511597
0.0825934 -0.00587344 0.510527
0.0832201 -0.00621489 0.5093
0.0838323 -0.00655358 0.508
0.0844487 -0.00689154 0.506751
0.0850579 -0.00722755 0.505478
0.0857128 -0.00756779 0.50452
0.0863768 -0.00790831 0.503636
0.087063 -0.00825087 0.502907
0.087771 -0.00859565 0.502324
0.0885124 -0.00894433 0.501956
0.0892572 -0.00929331 0.501612
0.0900683 -0.00965112 0.501673
0.0908993 -0.010012 0.501848
0.0917434 -0.010375 0.502095
0.0926139 -0.0107423 0.50249
0.0934856 -0.0111102 0.502881
0.0942811 -0.0114671 0.502824
0.0950766 -0.011824 0.502765
0.0958502 -0.0121777 0.502582
0.0966004 -0.0125275 0.502267
0.0973542 -0.0128778 0.501976
0.0981693 -0.0132381 0.502024
0.0989426 -0.0135915 0.501841
0.0997325 -0.0139477 0.501749
0.100486 -0.0142976 0.501458
0.101198 -0.0146404 0.500954
0.101821 -0.014967 0.499981
0.102414 -0.0152877 0.498868
0.102906 -0.0155894 0.49725
0.103365 -0.0158837 0.495482
0.103837 -0.0161791 0.49381
0.10432 -0.0164752 0.492214
0.104824 -0.0167742 0.49075
0.105346 -0.0170754 0.489394
0.105901 -0.0173821 0.488222
0.106425 -0.017682 0.486917
0.106956 -0.0179822 0.485662
0.107476 -0.0182794 0.484369
0.10804 -0.0185846 0.48331
0.108589 -0.018886 0.482188
0.109146 -0.0191882 0.481121
0.109727 -0.0194948 0.480184
0.110337 -0.0198067 0.479389
0.110929 -0.0201144 0.478523
0.111552 -0.020428 0.477809
0.112202 -0.020747 0.477224
0.112833 -0.0210615 0.47656
0.113441 -0.0213706 0.475802
0.114023 -0.0216738 0.474938
0.114619 -0.0219794 0.474147
0.115197 -0.0222806 0.473285
0.115798 -0.0225863 0.472532
0.116451 -0.0229033 0.472013
0.117124 -0.0232246 0.471587
0.11779 -0.0235441 0.471134
0.118473 -0.0238672 0.470755
0.119176 -0.0241947 0.470465
0.119839 -0.024513 0.470012
0.120534 -0.0248384 0.469693
0.121269 -0.0251731 0.469544
0.121996 -0.0255059 0.469361
0.122734 -0.0258415 0.469226
0.123471 -0.0261765 0.469081
0.124206 -0.0265112 0.468932
0.124908 -0.0268379 0.46865
0.125656 -0.0271757 0.468554
0.126385 -0.027509 0.468384
0.12715 -0.0278511 0.468353
0.127924 -0.0281952 0.468354
0.128688 -0.0285373 0.468318
0.12944 -0.028876 0.46823
0.130213 -0.0292203 0.468225
0.130975 -0.0295619 0.468176
0.131751 -0.0299072 0.46818
0.132541 -0.0302559 0.468233
0.133322 -0.0306026 0.46825
0.134124 -0.0309547 0.468344
0.134965 -0.0313169 0.468576
0.13581 -0.0316806 0.468821
0.136637 -0.0320398 0.468996
0.137481 -0.0324036 0.469227
0.138375 -0.0327806 0.469633
0.139453 -0.0332066 0.470691
0.140605 -0.0336525 0.471992
0.141858 -0.0341264 0.473635
0.143162 -0.0346149 0.475438
0.144426 -0.0350937 0.477075
0.145462 -0.0355125 0.477909
0.146398 -0.0359048 0.478381
0.147292 -0.0362862 0.478705
0.148117 -0.036649 0.47879
0.14891 -0.0370032 0.478762
0.149774 -0.037377 0.478974
0.150695 -0.0377666 0.479369
0.15158 -0.0381464 0.47964
0.15249 -0.0385337 0.47999
0.153343 -0.0389051 0.480146
0.154151 -0.0392645 0.480154
0.155 -0.0396352 0.480289
0.155914 -0.0400244 0.480637
0.156845 -0.0404183 0.48103
0.15788 -0.0408422 0.481754
0.158961 -0.0412794 0.482613
0.160016 -0.0417097 0.483381
0.162203 -0.0424621 0.487707
0.0817228 -0.00438164 0.513178
0.0824012 -0.00473187 0.512258
0.08306 -0.0050795 0.511223
0.0836934 -0.00542375 0.510037
0.084307 -0.00576492 0.508743
0.0849318 -0.00610596 0.507546
0.0855554 -0.00644579 0.506362
0.086204 -0.00678716 0.505358
0.0868527 -0.0071277 0.504373
0.0875385 -0.00747158 0.503635
0.0882385 -0.00781651 0.502997
0.0889651 -0.0081642 0.502531
0.0897026 -0.00851289 0.502138
0.0905136 -0.00887066 0.502191
0.0913364 -0.00923023 0.502311
0.0921805 -0.00959285 0.502551
0.0930428 -0.00995831 0.502891
0.0939063 -0.0103245 0.503228
0.0947 -0.0106812 0.503157
0.0954878 -0.0110371 0.50305
0.096254 -0.0113899 0.502822
0.0970141 -0.0117416 0.50256
0.0977779 -0.0120939 0.502322
0.098605 -0.0124558 0.502432
0.0993994 -0.0128129 0.50236
0.10022 -0.0131742 0.502429
0.100995 -0.0135283 0.502249
0.101738 -0.013877 0.501897
0.102372 -0.0142073 0.50098
0.102973 -0.0145316 0.499906
0.103464 -0.0148359 0.498274
0.103911 -0.0151315 0.496445
0.104353 -0.0154245 0.494613
0.104814 -0.0157196 0.492906
0.105295 -0.016017 0.491327
0.105798 -0.0163171 0.489875
0.106344 -0.0166242 0.488661
0.106869 -0.0169265 0.48736
0.107391 -0.0172272 0.486062
0.1079 -0.0175244 0.484717
0.108453 -0.0178292 0.483603
0.10899 -0.0181301 0.482427
0.109547 -0.018434 0.481362
0.110129 -0.0187422 0.480425
0.110747 -0.0190569 0.479668
0.111339 -0.019366 0.478802
0.111971 -0.0196827 0.478128
0.112622 -0.0200027 0.477547
0.113261 -0.02032 0.476919
0.11387 -0.0206305 0.476162
0.114462 -0.0209372 0.475342
0.115051 -0.0212426 0.474517
0.115618 -0.021543 0.473609
0.116208 -0.0218474 0.472807
0.116848 -0.0221624 0.472231
0.117512 -0.0224823 0.471763
0.118186 -0.0228043 0.471347
0.11887 -0.0231281 0.47097
0.119572 -0.0234559 0.470677
0.120245 -0.023777 0.470264
0.120961 -0.0241075 0.470029
0.121688 -0.0244407 0.469845
0.122407 -0.0247718 0.469625
0.123134 -0.0251049 0.469443
0.12386 -0.0254375 0.469252
0.124574 -0.0257675 0.46902
0.125279 -0.0260953 0.468751
0.126049 -0.0264381 0.468738
0.126789 -0.0267742 0.46861
0.127563 -0.0271181 0.46861
0.128337 -0.0274623 0.468609
0.12911 -0.0278063 0.468604
0.129851 -0.0281427 0.468476
0.130625 -0.028487 0.46847
0.131377 -0.0288262 0.468383
0.132155 -0.0291716 0.46839
0.132935 -0.0295178 0.468406
0.133718 -0.0298646 0.468426
0.134521 -0.0302166 0.46852
0.135372 -0.030581 0.468791
0.136219 -0.0309445 0.469039
0.137058 -0.0313061 0.469252
0.137903 -0.0316696 0.469486
0.138894 -0.0320707 0.470235
0.140051 -0.0325149 0.471565
0.141287 -0.0329806 0.473158
0.142603 -0.0334676 0.475009
0.14394 -0.0339618 0.476912
0.145112 -0.0344139 0.478219
0.146071 -0.0348111 0.478775
0.146958 -0.0351897 0.479074
0.14781 -0.0355593 0.479248
0.148637 -0.0359224 0.479332
0.149444 -0.0362804 0.47935
0.150322 -0.0366575 0.479605
0.151233 -0.0370436 0.479961
0.152132 -0.0374266 0.480274
0.153059 -0.0378179 0.480677
0.153917 -0.0381905 0.480843
0.154729 -0.0385507 0.480859
0.155591 -0.0389247 0.481034
0.156491 -0.0393093 0.481327
0.157406 -0.0396982 0.481666
0.158443 -0.0401214 0.48239
0.159542 -0.0405619 0.483301
0.160633 -0.0410006 0.484175
0.0828785 -0.00393437 0.513023
0.0835365 -0.00428384 0.511977
0.0841693 -0.00463017 0.510784
0.0847762 -0.0049731 0.509444
0.0854021 -0.00531637 0.50825
0.0860338 -0.00565909 0.507115
0.0866745 -0.00600157 0.506057
0.0873222 -0.00634373 0.50506
0.0880069 -0.00668894 0.504311
0.0887069 -0.00703508 0.503668
0.0894342 -0.00738374 0.503201
0.0901804 -0.00773423 0.502854
0.0909846 -0.00809132 0.502859
0.0917918 -0.00844893 0.502878
0.0926184 -0.00880908 0.503008
0.093463 -0.00917181 0.503237
0.0943094 -0.00953514 0.503471
0.0950948 -0.00989072 0.503349
0.0958916 -0.010248 0.503291
0.0966685 -0.0106025 0.50312
0.0974417 -0.0109564 0.502928
0.0982262 -0.011312 0.5028
0.0990747 -0.0116769 0.503021
0.0998896 -0.0120372 0.503055
0.100724 -0.0124006 0.503187
0.101517 -0.0127579 0.5031
0.102271 -0.0131092 0.502802
0.102906 -0.0134414 0.501881
0.1035 -0.0137664 0.500762
0.103989 -0.0140735 0.499123
0.104425 -0.0143705 0.497235
0.104846 -0.0146632 0.495297
0.105285 -0.0149576 0.493479
0.105743 -0.0152537 0.491784
0.10624 -0.0155553 0.490306
0.106777 -0.0158628 0.489045
0.107313 -0.0161691 0.487796
0.107855 -0.0164755 0.486594
0.108372 -0.0167766 0.48529
0.108915 -0.0170814 0.484124
0.109449 -0.0173838 0.482935
0.109995 -0.0176876 0.481818
0.110568 -0.0179956 0.480838
0.111178 -0.0183101 0.480043
0.111771 -0.0186207 0.479177
0.112393 -0.0189365 0.478459
0.113033 -0.0192554 0.477827
0.113663 -0.0195719 0.477158
0.11428 -0.0198852 0.476438
0.114875 -0.0201937 0.475628
0.115464 -0.0205004 0.474804
0.11603 -0.020802 0.473891
0.116617 -0.0211073 0.473077
0.117235 -0.0214184 0.472403
0.117887 -0.0217366 0.471887
0.118562 -0.0220592 0.471472
0.119248 -0.0223839 0.471104
0.11995 -0.0227122 0.47081
0.120642 -0.0230378 0.470473
0.121367 -0.0233708 0.470278
0.122097 -0.0237045 0.470099
0.122827 -0.0240387 0.469927
0.123566 -0.0243744 0.469787
0.124293 -0.0247076 0.469599
0.125008 -0.0250381 0.469368
0.125725 -0.0253689 0.469143
0.126485 -0.0257095 0.46909
0.127215 -0.0260434 0.468919
0.127978 -0.0263846 0.468873
0.12874 -0.0267261 0.468827
0.129503 -0.0270676 0.468781
0.130245 -0.027404 0.468652
0.131019 -0.0277484 0.468648
0.131773 -0.0280878 0.468563
0.132552 -0.0284334 0.468573
0.133343 -0.0287819 0.468625
0.134135 -0.0291308 0.468678
0.134939 -0.0294828 0.468775
0.135792 -0.029847 0.469047
0.136653 -0.0302135 0.469345
0.137494 -0.030575 0.469562
0.13844 -0.0309632 0.470154
0.139543 -0.0313908 0.471297
0.140809 -0.0318601 0.473003
0.142137 -0.0323461 0.474905
0.143515 -0.0328463 0.476962
0.14478 -0.0333188 0.478595
0.145867 -0.0337474 0.479595
0.146739 -0.0341212 0.479837
0.147553 -0.0344807 0.47988
0.148365 -0.0348397 0.479913
0.149167 -0.0351963 0.47991
0.149962 -0.0355512 0.479884
0.150842 -0.0359281 0.480138
0.151755 -0.0363142 0.480498
0.152659 -0.0366978 0.480821
0.15362 -0.0370972 0.48133
0.154497 -0.0374744 0.481555
0.155325 -0.037839 0.48162
0.156188 -0.0382131 0.481792
0.157086 -0.0385966 0.482077
0.157974 -0.0389777 0.482322
0.158997 -0.0393955 0.482995
0.160113 -0.0398389 0.483952
0.161257 -0.0402907 0.484988
0.0834903 -0.00314286 0.514683
0.0839919 -0.00348405 0.512584
0.0846152 -0.00383177 0.511326
0.0852149 -0.00417643 0.509938
0.0858413 -0.00452179 0.508747
0.0864892 -0.0048678 0.507713
0.0871293 -0.00521207 0.506649
0.087777 -0.00555602 0.50565
0.0884601 -0.00590236 0.504887
0.0891522 -0.00624891 0.504191
0.0898721 -0.00659774 0.503675
0.0906196 -0.00694894 0.503332
0.0914165 -0.00730533 0.503287
0.0922156 -0.00766202 0.503253
0.0930334 -0.00802097 0.503326
0.0938688 -0.00838218 0.503498
0.0947059 -0.00874391 0.503673
0.0954917 -0.00909974 0.503551
0.0962985 -0.00945817 0.503546
0.0970875 -0.00981448 0.50344
0.0978713 -0.0101701 0.503304
0.0986765 -0.0105286 0.503285
0.0995553 -0.0108974 0.503665
0.100392 -0.0112607 0.503808
0.101247 -0.0116269 0.504044
0.10206 -0.0119875 0.504054
0.102824 -0.012341 0.503801
0.103459 -0.0126751 0.502877
0.104054 -0.0130024 0.501759
0.104543 -0.0133124 0.500112
0.104978 -0.0136126 0.498217
0.105388 -0.0139072 0.496223
0.105805 -0.0142012 0.494293
0.10624 -0.0144966 0.492481
0.106714 -0.0147971 0.49089
0.107239 -0.0151046 0.489567
0.107775 -0.0154132 0.48832
0.10833 -0.0157238 0.487177
0.108839 -0.0160259 0.485836
0.109379 -0.0163322 0.484655
0.109901 -0.0166344 0.483407
0.110436 -0.0169381 0.482236
0.111 -0.0172461 0.481216
0.111621 -0.0175639 0.480469
0.112213 -0.0178758 0.4796
0.112826 -0.018191 0.478834
0.113455 -0.0185089 0.478153
0.114074 -0.0188242 0.477433
0.114691 -0.0191388 0.476714
0.115295 -0.0194505 0.475948
0.115896 -0.0197609 0.475174
0.116463 -0.0200641 0.474262
0.117047 -0.02037 0.473432
0.117651 -0.0206796 0.472701
0.118282 -0.0209942 0.472093
0.118958 -0.0213177 0.471681
0.119646 -0.0216432 0.471319
0.12035 -0.0219722 0.471031
0.121042 -0.0222984 0.470695
0.121768 -0.0226316 0.470498
0.122488 -0.0229636 0.47028
0.12323 -0.0233004 0.470156
0.12397 -0.0236366 0.470019
0.124707 -0.023972 0.469868
0.125433 -0.0243053 0.469678
0.126161 -0.0246388 0.469494
0.126912 -0.0249775 0.469404
0.127653 -0.0253139 0.469273
0.128407 -0.0256532 0.469189
0.129158 -0.025992 0.469098
0.129912 -0.0263314 0.469014
0.130654 -0.026668 0.468883
0.131429 -0.0270124 0.468879
0.132194 -0.0273546 0.468837
0.132972 -0.0276998 0.468841
0.133774 -0.0280507 0.468932
0.134577 -0.028402 0.469024
0.135383 -0.0287541 0.469123
0.136239 -0.0291185 0.469403
0.137127 -0.0294907 0.469793
0.137984 -0.0298558 0.470067
0.139051 -0.030272 0.471086
0.140266 -0.0307248 0.472616
0.14163 -0.0312152 0.474654
0.143028 -0.0317155 0.476789
0.144418 -0.0322153 0.478869
0.145568 -0.032657 0.480088
0.146555 -0.0330589 0.480729
0.147343 -0.0334118 0.480679
0.148104 -0.0337579 0.480533
0.148891 -0.0341105 0.480476
0.149696 -0.0344677 0.480478
0.150507 -0.0348264 0.480499
0.151403 -0.035207 0.480803
0.15233 -0.0355958 0.481206
0.153252 -0.0359839 0.481588
0.154232 -0.0363871 0.482151
0.15513 -0.0367694 0.482437
0.155961 -0.0371348 0.482507
0.156812 -0.0375053 0.482633
0.157697 -0.0378849 0.482868
0.158569 -0.0382615 0.48306
0.159565 -0.0386708 0.48364
0.160699 -0.0391173 0.484648
0.161894 -0.0395807 0.485838
0.0845636 -0.00268884 0.513954
0.0850153 -0.00302863 0.511563
0.0856415 -0.00337718 0.510348
0.0862835 -0.00372563 0.509257
0.0869487 -0.00407461 0.508332
0.0875907 -0.00442094 0.507277
0.0882454 -0.00476728 0.506319
0.0889287 -0.00511507 0.505552
0.0896145 -0.00546236 0.504813
0.0903272 -0.0058115 0.504248
0.0910749 -0.00616338 0.503901
0.0918559 -0.00651844 0.503755
0.0926386 -0.00687356 0.503619
0.0934464 -0.00723133 0.503629
0.0942733 -0.00759134 0.503747
0.0951029 -0.00795186 0.503875
0.0958989 -0.00830893 0.503808
0.0967245 -0.00866952 0.503906
0.0975329 -0.00902828 0.503904
0.098337 -0.00938668 0.503875
0.0991708 -0.00974889 0.504007
0.100061 -0.0101186 0.504439
0.100902 -0.0104824 0.504598
0.101759 -0.0108487 0.504836
0.102575 -0.0112099 0.504852
0.103331 -0.0115628 0.504548
0.103976 -0.0119 0.503673
0.104588 -0.0122318 0.50264
0.105097 -0.0125477 0.501094
0.105552 -0.0128542 0.499296
0.105972 -0.0131541 0.497351
0.106378 -0.01345 0.495365
0.106781 -0.0137439 0.493393
0.107222 -0.0140419 0.491633
0.107715 -0.0143467 0.490155
0.108242 -0.0146559 0.488861
0.108797 -0.0149687 0.48772
0.10931 -0.0152735 0.486391
0.10985 -0.0155819 0.485213
0.110369 -0.0158858 0.483948
0.110892 -0.0161895 0.482722
0.111455 -0.016499 0.481695
0.112076 -0.0168181 0.480945
0.112668 -0.0171316 0.480077
0.113269 -0.0174459 0.479256
0.113887 -0.0177628 0.478522
0.114492 -0.0180769 0.477742
0.115099 -0.0183908 0.476977
0.115705 -0.0187038 0.476213
0.116307 -0.0190158 0.475447
0.116874 -0.0193205 0.474536
0.117448 -0.0196258 0.473662
0.118051 -0.0199363 0.472927
0.11867 -0.0202493 0.472265
0.119355 -0.0205753 0.471892
0.120044 -0.0209016 0.471534
0.120751 -0.0212314 0.471254
0.121445 -0.0215585 0.470926
0.122171 -0.0218921 0.47073
0.122881 -0.0222221 0.470468
0.123623 -0.0225589 0.470338
0.124363 -0.0228952 0.470201
0.125101 -0.0232311 0.470056
0.125828 -0.0235648 0.469869
0.126557 -0.0238986 0.469686
0.127308 -0.0242374 0.469594
0.128049 -0.0245739 0.469462
0.128802 -0.024913 0.469373
0.129554 -0.025252 0.469282
0.130307 -0.0255912 0.469193
0.131049 -0.0259278 0.46906
0.131835 -0.0262746 0.469098
0.132625 -0.0266222 0.469143
0.133417 -0.0269704 0.469198
0.134233 -0.0273245 0.469339
0.135051 -0.0276788 0.46948
0.13587 -0.028034 0.469627
0.136718 -0.0283958 0.469872
0.137619 -0.0287702 0.470304
0.138589 -0.0291612 0.470976
0.139789 -0.029607 0.472461
0.14111 -0.0300826 0.474357
0.142539 -0.0305854 0.47661
0.143925 -0.0310792 0.478683
0.145201 -0.0315484 0.480348
0.146233 -0.0319598 0.481146
0.147123 -0.0323372 0.481446
0.147885 -0.0326838 0.481299
0.148646 -0.03303 0.481151
0.149421 -0.0333798 0.48105
0.150217 -0.0337346 0.481016
0.151041 -0.0340966 0.481079
0.151924 -0.0344735 0.481336
0.152854 -0.0348622 0.481742
0.153793 -0.0352537 0.482172
0.15479 -0.0356603 0.48279
0.15569 -0.0360425 0.483078
0.156537 -0.0364116 0.483192
0.157388 -0.0367821 0.483317
0.158274 -0.0371616 0.48355
0.159135 -0.0375346 0.483698
0.160117 -0.0379396 0.484231
0.16125 -0.0383837 0.485229
0.162492 -0.0388574 0.486562
0.0855411 -0.00223094 0.512616
0.0860235 -0.0025739 0.510467
0.0866784 -0.00292475 0.50946
0.0873758 -0.00327721 0.50874
0.0880282 -0.00362597 0.507749
0.0887007 -0.0039752 0.506899
0.089393 -0.00432506 0.506185
0.0900784 -0.00467369 0.505439
0.0907833 -0.00502324 0.504823
0.09153 -0.00537576 0.504464
0.0923019 -0.00573034 0.504258
0.0930758 -0.00608498 0.504065
0.0938756 -0.00644203 0.504024
0.0947029 -0.00680187 0.504138
0.0955338 -0.0071624 0.504269
0.0963403 -0.00752065 0.504256
0.0971782 -0.00788243 0.504417
0.0980068 -0.00824349 0.504521
0.0988221 -0.00860333 0.504548
0.0996755 -0.00896775 0.504779
0.100568 -0.00933722 0.505216
0.101421 -0.00970242 0.505427
0.102272 -0.0100678 0.505624
0.103089 -0.0104293 0.50564
0.103844 -0.0107828 0.505328
0.104499 -0.0111229 0.504497
0.105115 -0.0114571 0.50348
0.105654 -0.01178 0.502086
0.106121 -0.0120915 0.500346
0.106534 -0.0123938 0.498361
0.106929 -0.0126919 0.496318
0.10731 -0.0129858 0.494232
0.107727 -0.0132835 0.492358
0.108197 -0.0135876 0.490768
0.108721 -0.0138986 0.489456
0.109277 -0.0142135 0.488319
0.109798 -0.014522 0.48703
0.11033 -0.0148311 0.485809
0.110848 -0.015137 0.484539
0.111369 -0.0154424 0.483302
0.111922 -0.0157521 0.482224
0.112533 -0.0160709 0.481432
0.113125 -0.0163857 0.480557
0.113715 -0.0166996 0.479685
0.114319 -0.0170154 0.478891
0.114913 -0.0173287 0.478057
0.115518 -0.0176435 0.477282
0.116123 -0.0179577 0.476517
0.116738 -0.0182731 0.475802
0.117308 -0.0185799 0.474904
0.117881 -0.0188866 0.47403
0.118474 -0.0191963 0.473248
0.11908 -0.0195081 0.472533
0.119756 -0.0198326 0.472117
0.120443 -0.0201593 0.471753
0.121163 -0.0204918 0.471524
0.121857 -0.0208196 0.471195
0.122594 -0.0211554 0.47104
0.123312 -0.0214877 0.470812
0.124044 -0.0218224 0.470639
0.124785 -0.022159 0.470501
0.125535 -0.0224975 0.4704
0.126264 -0.0228318 0.470219
0.126995 -0.0231664 0.470042
0.127757 -0.0235074 0.469989
0.128488 -0.023842 0.469813
0.129239 -0.0241807 0.469716
0.129991 -0.0245197 0.469621
0.130743 -0.0248589 0.469528
0.131486 -0.0251959 0.469397
0.132285 -0.0255453 0.469478
0.133078 -0.0258935 0.469534
0.133876 -0.0262429 0.469607
0.134709 -0.0266003 0.469806
0.135543 -0.0269579 0.470002
0.136378 -0.0273162 0.4702
0.137238 -0.0276805 0.470487
0.138177 -0.0280627 0.471048
0.139254 -0.0284772 0.472101
0.140577 -0.0289486 0.474009
0.142018 -0.029449 0.476317
0.143461 -0.0299513 0.478598
0.1448 -0.0304312 0.480491
0.145944 -0.0308668 0.481681
0.146849 -0.0312468 0.48203
0.147626 -0.0315973 0.481935
0.148377 -0.0319412 0.481746
0.149139 -0.0322882 0.481599
0.14993 -0.0326418 0.481549
0.150739 -0.0329998 0.481558
0.151567 -0.0333627 0.48163
0.152465 -0.0337425 0.481929
0.153396 -0.034131 0.482336
0.154322 -0.0345183 0.482717
0.155307 -0.0349208 0.483289
0.156205 -0.0353021 0.483569
0.157053 -0.0356711 0.483682
0.15792 -0.036045 0.483853
0.158809 -0.0364249 0.484093
0.159671 -0.0367982 0.484242
0.160652 -0.0372016 0.484763
0.161741 -0.0376327 0.485618
0.162925 -0.0380891 0.486761
0.164832 -0.0396189 0.491304
0.165077 -0.0387937 0.490906
0.0860683 -0.00142969 0.513667
0.08639 -0.00176931 0.510484
0.0870817 -0.00212338 0.509715
0.0878054 -0.00247837 0.509159
0.0884843 -0.0028303 0.508332
0.089182 -0.00318257 0.507635
0.0898844 -0.00353449 0.506976
0.0905714 -0.0038847 0.506235
0.091276 -0.00423553 0.50561
0.0920208 -0.00458877 0.505233
0.0927762 -0.00494261 0.504923
0.0935414 -0.00529703 0.504673
0.0943336 -0.00565367 0.504581
0.0951618 -0.00601355 0.504694
0.0959954 -0.00637418 0.504833
0.0968126 -0.00673359 0.504874
0.097671 -0.00709726 0.505142
0.0985216 -0.00746055 0.505359
0.0993411 -0.00782102 0.5054
0.100206 -0.00818658 0.505685
0.101101 -0.00855582 0.506121
0.101945 -0.00891999 0.506279
0.102777 -0.00928311 0.506368
0.103593 -0.00964456 0.506369
0.10433 -0.0099966 0.505955
0.104986 -0.0103384 0.50513
0.105614 -0.0106759 0.504168
0.106186 -0.0110054 0.502937
0.106676 -0.0113231 0.501316
0.107108 -0.0116316 0.499425
0.107502 -0.0119332 0.497373
0.107868 -0.0122289 0.495213
0.108262 -0.0125268 0.493223
0.108701 -0.0128292 0.491477
0.109203 -0.0131393 0.490061
0.109764 -0.0134571 0.488948
0.110296 -0.0137694 0.487706
0.110829 -0.0140809 0.486491
0.111358 -0.0143908 0.48527
0.111878 -0.0146983 0.484026
0.112419 -0.0150081 0.482893
0.113011 -0.0153251 0.482004
0.113602 -0.0156414 0.481129
0.114182 -0.0159551 0.480208
0.114786 -0.0162723 0.47941
0.115368 -0.0165851 0.478523
0.115962 -0.0168992 0.477697
0.116557 -0.017213 0.476888
0.117171 -0.0175294 0.476168
0.117751 -0.0178395 0.475312
0.118327 -0.018148 0.474445
0.11893 -0.0184609 0.473706
0.119537 -0.018774 0.472991
0.12021 -0.0190989 0.472564
0.120898 -0.0194261 0.472198
0.121628 -0.0197612 0.472012
0.122334 -0.0200916 0.471727
0.123072 -0.020428 0.471574
0.12378 -0.0207586 0.471299
0.1245 -0.0210913 0.471073
0.125229 -0.021426 0.470888
0.12597 -0.0217627 0.470748
0.126701 -0.0220976 0.47057
0.127444 -0.0224348 0.470437
0.128197 -0.022774 0.470345
0.128926 -0.0231086 0.470162
0.129678 -0.0234475 0.470063
0.13043 -0.0237867 0.469968
0.131185 -0.0241263 0.46988
0.13194 -0.0244661 0.469793
0.132753 -0.0248182 0.469923
0.133561 -0.0251694 0.470032
0.134375 -0.0255222 0.47016
0.135236 -0.0258852 0.470458
0.136096 -0.0262482 0.470745
0.136946 -0.0266094 0.47099
0.137821 -0.0269766 0.471325
0.13885 -0.0273778 0.472204
0.14002 -0.027811 0.473574
0.141447 -0.0283029 0.475842
0.142889 -0.0287997 0.478132
0.144291 -0.0292894 0.480256
0.145517 -0.0297407 0.481738
0.146558 -0.0301509 0.48256
0.147365 -0.0305081 0.482564
0.148157 -0.0308618 0.482516
0.148924 -0.0312099 0.482377
0.149701 -0.0315604 0.482277
0.150494 -0.0319147 0.48223
0.151305 -0.0322731 0.48224
0.152134 -0.0326361 0.482312
0.15302 -0.0330126 0.482567
0.15394 -0.0333976 0.48293
0.154849 -0.0337804 0.483253
0.155805 -0.0341747 0.483724
0.156674 -0.0345483 0.483906
0.157521 -0.034917 0.484014
0.158377 -0.0352877 0.484146
0.159269 -0.0356678 0.484393
0.160133 -0.0360409 0.484546
0.1611 -0.0364399 0.485021
0.162462 -0.0369374 0.486729
0.163943 -0.0374657 0.488792
0.165975 -0.0381333 0.492543
0.0872066 -0.000980221 0.513379
0.0877799 -0.00133253 0.511833
0.088376 -0.00168408 0.510457
0.0889925 -0.00203503 0.509233
0.089693 -0.00238891 0.508546
0.0903887 -0.00274185 0.507839
0.0910606 -0.00309275 0.507001
0.0917564 -0.0034443 0.506317
0.0924847 -0.00379729 0.505837
0.0932316 -0.0041512 0.50547
0.0939978 -0.00450625 0.505221
0.0947996 -0.0048639 0.505179
0.0956382 -0.00522453 0.505344
0.0964816 -0.00558596 0.50553
0.0973189 -0.00594723 0.505677
0.0981897 -0.0063118 0.506004
0.0990536 -0.00667622 0.506285
0.0998853 -0.0070381 0.506383
0.100753 -0.00740382 0.506673
0.10164 -0.00777186 0.507054
0.102474 -0.00813505 0.50715
0.103286 -0.00849614 0.507124
0.104091 -0.00885663 0.507061
0.104817 -0.00920823 0.506583
0.105483 -0.0095526 0.505803
0.106123 -0.00989334 0.504903
0.106717 -0.0102277 0.503784
0.107237 -0.0105521 0.502308
0.107691 -0.0108666 0.500521
0.108082 -0.0111717 0.498457
0.108445 -0.0114709 0.496277
0.108826 -0.0117707 0.494222
0.109233 -0.0120721 0.492322
0.109705 -0.0123807 0.49076
0.110244 -0.0126972 0.489535
0.110764 -0.0130101 0.488241
0.111299 -0.013324 0.48703
0.111822 -0.0136351 0.48578
0.11236 -0.0139473 0.484618
0.1129 -0.0142589 0.483478
0.11349 -0.0145773 0.482581
0.114072 -0.0148937 0.481659
0.114652 -0.0152091 0.48074
0.115247 -0.0155261 0.479896
0.115839 -0.0158421 0.479053
0.116424 -0.0161562 0.478186
0.117017 -0.0164711 0.477367
0.11764 -0.0167903 0.476684
0.118219 -0.0171016 0.475822
0.118796 -0.0174119 0.47496
0.11941 -0.017728 0.474266
0.120028 -0.0180442 0.473593
0.120702 -0.01837 0.473165
0.121402 -0.0187001 0.472845
0.122133 -0.0190357 0.472658
0.122842 -0.0193672 0.472382
0.123582 -0.0197042 0.47223
0.12429 -0.0200354 0.471951
0.124999 -0.0203667 0.471681
0.125717 -0.0206994 0.471444
0.126445 -0.021034 0.471248
0.127165 -0.0213672 0.471026
0.127898 -0.0217026 0.470852
0.128652 -0.0220422 0.470761
0.129382 -0.0223771 0.470576
0.130135 -0.0227163 0.470478
0.130888 -0.0230559 0.470384
0.131658 -0.0233987 0.470349
0.132427 -0.0237416 0.470314
0.133255 -0.0240965 0.470495
0.134076 -0.0244502 0.470648
0.134914 -0.0248076 0.470859
0.135777 -0.0251704 0.471155
0.13665 -0.025536 0.471487
0.13754 -0.0259052 0.471872
0.138459 -0.0262811 0.472354
0.139538 -0.0266918 0.473406
0.140797 -0.0271421 0.475082
0.142215 -0.0276283 0.477301
0.143603 -0.0281097 0.479388
0.144946 -0.0285827 0.481288
0.146094 -0.0290143 0.48249
0.147056 -0.0294058 0.483034
0.14788 -0.0297665 0.483089
0.14869 -0.0301245 0.483098
0.149485 -0.0304793 0.483058
0.150279 -0.0308339 0.483009
0.151073 -0.0311884 0.482961
0.151886 -0.0315473 0.482971
0.152717 -0.0319107 0.483043
0.153577 -0.0322807 0.483209
0.154467 -0.032658 0.483467
0.155361 -0.0330366 0.483735
0.156284 -0.0334225 0.484097
0.157123 -0.0337885 0.484179
0.15797 -0.0341567 0.484284
0.158842 -0.034531 0.484464
0.15974 -0.0349118 0.484724
0.16062 -0.0352885 0.484926
0.16186 -0.0357524 0.486257
0.163545 -0.0363256 0.488969
0.165343 -0.0369279 0.492002
0.167691 -0.0376671 0.496708
0.176059 -0.0411617 0.515768
0.174003 -0.0395542 0.510933
0.176531 -0.040349 0.516014
0.0884914 -0.000535092 0.514015
0.0889724 -0.000886259 0.511905
0.0895918 -0.00124001 0.510688
0.090239 -0.00159351 0.509662
0.0908705 -0.00194525 0.508558
0.0915507 -0.00229815 0.507764
0.0922538 -0.00265146 0.507119
0.0929746 -0.00300511 0.506587
0.0937138 -0.00335942 0.50617
0.0944818 -0.00371522 0.505924
0.095294 -0.00407383 0.505933
0.096145 -0.00443535 0.50616
0.097009 -0.00479822 0.506453
0.097867 -0.00516119 0.506705
0.0987587 -0.00552727 0.507136
0.0996353 -0.00589278 0.507475
0.100479 -0.00625599 0.507626
0.101349 -0.00662193 0.507913
0.102218 -0.00698822 0.50819
0.103033 -0.00734988 0.508172
0.103825 -0.00770939 0.50803
0.10462 -0.00806922 0.507905
0.105338 -0.00842106 0.50738
0.106004 -0.008767 0.506597
0.106652 -0.00911024 0.505732
0.107256 -0.00944789 0.504659
0.107788 -0.00977625 0.50324
0.108253 -0.0100955 0.501511
0.108655 -0.0104055 0.499494
0.109007 -0.0107074 0.497261
0.109375 -0.0110093 0.495142
0.10975 -0.0113101 0.493088
0.110198 -0.0116184 0.491409
0.110716 -0.0119342 0.490081
0.111243 -0.0122502 0.488816
0.11178 -0.0125665 0.487616
0.112324 -0.0128827 0.486463
0.112865 -0.0131974 0.485311
0.113403 -0.0135108 0.484161
0.11397 -0.0138276 0.483161
0.114541 -0.0141439 0.482185
0.115111 -0.0144594 0.481219
0.115718 -0.0147797 0.480427
0.116333 -0.0151006 0.479681
0.11694 -0.0154197 0.478907
0.117554 -0.0157395 0.478178
0.118197 -0.0160632 0.477576
0.118778 -0.0163765 0.476716
0.119354 -0.0166883 0.475847
0.11998 -0.0170078 0.475199
0.120611 -0.0173276 0.474576
0.121268 -0.0176515 0.474071
0.12198 -0.0179843 0.473795
0.122712 -0.0183206 0.473605
0.123403 -0.0186495 0.473245
0.124123 -0.0189835 0.473009
0.124832 -0.0193156 0.472732
0.125529 -0.0196452 0.472406
0.126234 -0.0199762 0.472114
0.126962 -0.020311 0.471912
0.127681 -0.0206444 0.471679
0.128413 -0.0209802 0.4715
0.129168 -0.0213202 0.471408
0.1299 -0.0216557 0.471225
0.130654 -0.0219956 0.471128
0.131411 -0.0223359 0.471041
0.132183 -0.0226793 0.471012
0.132955 -0.0230229 0.470983
0.133774 -0.0233757 0.471126
0.134595 -0.0237292 0.471272
0.135433 -0.0240863 0.471478
0.136296 -0.0244487 0.471769
0.137172 -0.0248143 0.472107
0.138102 -0.0251912 0.472632
0.139066 -0.0255756 0.473272
0.140222 -0.0260004 0.474585
0.141553 -0.0264633 0.476508
0.142955 -0.0269425 0.478655
0.144279 -0.0274069 0.480501
0.145557 -0.0278631 0.482166
0.146621 -0.0282746 0.483065
0.147528 -0.0286529 0.48341
0.148382 -0.0290204 0.483572
0.149226 -0.0293856 0.483692
0.15004 -0.0297446 0.483709
0.15085 -0.0301027 0.483709
0.151645 -0.0304578 0.48366
0.152458 -0.0308166 0.483669
0.153289 -0.0311797 0.483734
0.154136 -0.0315468 0.483853
0.154996 -0.0319168 0.484008
0.155871 -0.0322906 0.484211
0.156764 -0.0326686 0.484469
0.157575 -0.0330282 0.484459
0.158422 -0.0333959 0.484557
0.159308 -0.0337731 0.484783
0.160208 -0.0341539 0.485049
0.161091 -0.0345308 0.485255
0.162628 -0.0350624 0.487515
0.164629 -0.0357056 0.4912
0.166739 -0.0363776 0.495184
0.17248 -0.0380953 0.507706
0.174953 -0.0388648 0.512653
0.176925 -0.0395162 0.516021
0.0893656 0.000266319 0.517198
0.0897867 -8.86756e-05 0.514692
0.0903252 -0.000443765 0.512955
0.0909117 -0.000798355 0.51154
0.0914776 -0.00115057 0.510026
0.0921131 -0.0015037 0.508953
0.0927762 -0.00185691 0.508061
0.0934886 -0.00221141 0.507472
0.0942288 -0.00256681 0.507053
0.0950065 -0.00292384 0.506855
0.0958221 -0.00328305 0.506874
0.0966872 -0.00364544 0.50717
0.0975739 -0.00400973 0.507579
0.0984365 -0.00437305 0.507844
0.0993316 -0.00473916 0.508281
0.10021 -0.00510473 0.508615
0.101046 -0.0054676 0.508714
0.101899 -0.00583209 0.508899
0.102768 -0.00619832 0.509166
0.103582 -0.00656028 0.509134
0.104366 -0.00691964 0.508943
0.105155 -0.00727941 0.508776
0.105873 -0.00763238 0.508244
0.106529 -0.00797896 0.507408
0.107156 -0.00832182 0.506434
0.107759 -0.00866118 0.50535
0.10829 -0.00899201 0.503923
0.108766 -0.00931543 0.502248
0.109182 -0.00963053 0.500301
0.109543 -0.00993744 0.498114
0.109909 -0.0102428 0.495984
0.11028 -0.0105468 0.493909
0.110705 -0.0108552 0.492118
0.1112 -0.0111707 0.490681
0.111733 -0.0114896 0.489444
0.112271 -0.0118082 0.488246
0.112817 -0.0121267 0.487102
0.11338 -0.0124464 0.486048
0.113927 -0.0127632 0.484937
0.114485 -0.0130803 0.483888
0.115043 -0.0133968 0.482853
0.115621 -0.0137151 0.48192
0.116228 -0.0140369 0.481127
0.116857 -0.0143613 0.480438
0.117488 -0.0146855 0.479768
0.118129 -0.0150107 0.479146
0.118786 -0.0153378 0.478599
0.119388 -0.015656 0.477824
0.119987 -0.0159732 0.477044
0.120616 -0.0162946 0.476401
0.12127 -0.0166195 0.475869
0.12193 -0.0169451 0.475366
0.122622 -0.0172757 0.475003
0.123333 -0.017609 0.474715
0.12401 -0.0179365 0.474294
0.124708 -0.0182675 0.473962
0.125407 -0.0185984 0.473637
0.126094 -0.0189271 0.473266
0.126789 -0.019257 0.472929
0.127504 -0.0195902 0.472673
0.128212 -0.019922 0.472391
0.128934 -0.0202563 0.472165
0.129689 -0.0205966 0.47207
0.130423 -0.0209328 0.471889
0.131178 -0.0212731 0.471794
0.131936 -0.0216139 0.471705
0.132719 -0.0219595 0.471711
0.133504 -0.0223056 0.471726
0.134325 -0.0226587 0.471871
0.135136 -0.0230101 0.471975
0.135972 -0.0233666 0.472167
0.136824 -0.0237263 0.472413
0.137704 -0.0240921 0.47276
0.138664 -0.0244741 0.473386
0.139686 -0.0248692 0.474227
0.140915 -0.0253067 0.475792
0.142217 -0.0257605 0.477599
0.143561 -0.0262242 0.479528
0.144811 -0.0266704 0.481105
0.146017 -0.0271087 0.482509
0.147006 -0.027503 0.483147
0.147947 -0.0278877 0.483607
0.148849 -0.0282647 0.483926
0.149738 -0.0286393 0.484199
0.150583 -0.0290048 0.484315
0.151409 -0.0293664 0.484367
0.152219 -0.0297247 0.484363
0.153033 -0.030084 0.484371
0.153851 -0.0304441 0.484388
0.154682 -0.0308073 0.484448
0.155525 -0.0311735 0.484546
0.156386 -0.0315436 0.484697
0.157251 -0.031915 0.484862
0.158062 -0.0322742 0.484846
0.158922 -0.0326449 0.484987
0.159811 -0.0330222 0.485218
0.1607 -0.0333999 0.485444
0.161857 -0.0338392 0.486513
0.16369 -0.0344354 0.489687
0.165982 -0.03514 0.494261
0.168378 -0.0358723 0.499105
0.171223 -0.0367129 0.505285
0.173782 -0.0374909 0.510524
0.175735 -0.0381295 0.513854
0.08902 0.00062339 0.520229
0.0902099 0.00107826 0.520165
0.0906414 0.000717375 0.517704
0.0911304 0.000358544 0.515641
0.0916443 1.71311e-06 0.513765
0.0921425 -0.000352438 0.511827
0.0927288 -0.000706833 0.510448
0.0933358 -0.00106033 0.509214
0.0939986 -0.00141452 0.508326
0.0947307 -0.00177061 0.507853
0.0955162 -0.00212864 0.507691
0.0963356 -0.00248828 0.507723
0.097213 -0.00285118 0.508078
0.0981143 -0.003216 0.508558
0.0989883 -0.00357999 0.508875
0.0998768 -0.00394542 0.509264
0.100746 -0.00431023 0.50954
0.101582 -0.00467333 0.50963
0.102427 -0.00503724 0.50976
0.103289 -0.00540287 0.509979
0.104105 -0.00576523 0.509949
0.1049 -0.00612609 0.509807
0.105682 -0.00648591 0.5096
0.106403 -0.00684024 0.509077
0.107058 -0.00718837 0.508231
0.107684 -0.00753293 0.507245
0.108274 -0.00787313 0.506092
0.108813 -0.0082073 0.504707
0.109309 -0.00853571 0.503127
0.109746 -0.00885648 0.50128
0.11011 -0.00916768 0.499107
0.110465 -0.0094757 0.496924
0.110821 -0.00978163 0.494772
0.111222 -0.0100906 0.492867
0.111695 -0.0104061 0.491328
0.11223 -0.0107275 0.490096
0.112786 -0.0110503 0.488981
0.113344 -0.0113725 0.487889
0.113908 -0.0116943 0.486839
0.114468 -0.0120148 0.485782
0.115024 -0.0123337 0.48472
0.11557 -0.0126504 0.483628
0.116147 -0.0129704 0.482686
0.116754 -0.0132937 0.481888
0.117386 -0.0136198 0.48121
0.118032 -0.0139474 0.480597
0.118698 -0.0142774 0.480079
0.119371 -0.0146081 0.4796
0.120009 -0.0149333 0.478972
0.120643 -0.0152574 0.478334
0.121294 -0.0155836 0.477775
0.121962 -0.015912 0.477292
0.122635 -0.0162409 0.476834
0.123315 -0.0165706 0.47641
0.124001 -0.0169008 0.476011
0.124652 -0.0172255 0.475479
0.125315 -0.0175515 0.474996
0.125978 -0.0178774 0.474522
0.126654 -0.0182049 0.474099
0.127318 -0.0185303 0.473634
0.128024 -0.0188626 0.47334
0.128722 -0.0191933 0.473013
0.129443 -0.0195278 0.472781
0.130178 -0.0198648 0.472602
0.130934 -0.0202053 0.472504
0.131691 -0.0205462 0.47241
0.132449 -0.0208872 0.472319
0.133231 -0.0212327 0.47232
0.134028 -0.0215809 0.47237
0.134826 -0.0219296 0.472424
0.135637 -0.0222809 0.472527
0.136486 -0.0226395 0.472762
0.13734 -0.0229994 0.473012
0.138223 -0.0233651 0.473362
0.139212 -0.0237515 0.474085
0.140263 -0.0241509 0.475024
0.141486 -0.0245845 0.476557
0.142741 -0.0250261 0.478188
0.144015 -0.0254727 0.479864
0.145189 -0.0259007 0.481168
0.146327 -0.0263228 0.482333
0.147309 -0.0267142 0.48294
0.148295 -0.027107 0.483556
0.14927 -0.0274981 0.484123
0.150218 -0.0278843 0.484595
0.151107 -0.0282588 0.484859
0.151963 -0.0286265 0.485006
0.15279 -0.0289883 0.485052
0.153605 -0.0293478 0.48506
0.154411 -0.0297056 0.485034
0.155214 -0.0300628 0.484998
0.156042 -0.0304253 0.485043
0.156902 -0.0307951 0.485188
0.157757 -0.0311637 0.485314
0.158571 -0.0315238 0.485306
0.159447 -0.0318977 0.485495
0.160323 -0.0322716 0.485681
0.16144 -0.0326996 0.486623
0.162881 -0.0332007 0.488574
0.164987 -0.0338531 0.492585
0.167546 -0.034611 0.497962
0.170186 -0.0353912 0.503531
0.172561 -0.036115 0.508227
0.174607 -0.0367667 0.511863
0.0910419 0.00189977 0.523029
0.0914424 0.0015333 0.520359
0.0919008 0.00116979 0.51809
0.0923786 0.000808979 0.51598
0.0928332 0.000451206 0.513768
0.0933775 9.4321e-05 0.512126
0.0939419 -0.000261036 0.51063
0.0945658 -0.000616288 0.509505
0.0952718 -0.00097284 0.508871
0.0960504 -0.0013314 0.50866
0.0968715 -0.0016915 0.508692
0.0977597 -0.00205471 0.509096
0.0986632 -0.0024193 0.509576
0.0995304 -0.00278285 0.509844
0.100401 -0.00314717 0.510127
0.10126 -0.00351125 0.510332
0.102086 -0.00387386 0.510361
0.102914 -0.00423679 0.510395
0.103779 -0.00460238 0.510621
0.104616 -0.00496649 0.510695
0.105416 -0.00532821 0.510573
0.1062 -0.00568872 0.510369
0.10693 -0.00604495 0.509889
0.107585 -0.00639462 0.509033
0.108192 -0.00673946 0.507948
0.108781 -0.00708174 0.506791
0.109318 -0.00741818 0.505393
0.109823 -0.00775017 0.503855
0.110281 -0.00807619 0.50211
0.110657 -0.00839239 0.499996
0.111011 -0.00870421 0.497807
0.111363 -0.00901358 0.495638
0.111751 -0.0093246 0.49367
0.112204 -0.00964069 0.492034
0.11274 -0.00996444 0.490807
0.113306 -0.0102905 0.489737
0.113866 -0.0106149 0.48865
0.11444 -0.0109398 0.487641
0.115001 -0.0112623 0.486586
0.115569 -0.0115847 0.485573
0.116105 -0.0119023 0.484436
0.116691 -0.0122252 0.483529
0.117298 -0.0125501 0.482728
0.117951 -0.0128803 0.482134
0.11862 -0.0132122 0.481615
0.11931 -0.0135467 0.481196
0.120008 -0.013882 0.480811
0.12066 -0.0142106 0.480238
0.12131 -0.0145384 0.479657
0.121968 -0.014867 0.479119
0.122638 -0.015197 0.478637
0.123298 -0.0155251 0.478117
0.123965 -0.0158541 0.477633
0.124627 -0.0161819 0.477131
0.125252 -0.0165036 0.476485
0.12589 -0.0168267 0.475895
0.12654 -0.0171515 0.475361
0.127203 -0.0174781 0.474887
0.127855 -0.0178025 0.474371
0.128551 -0.0181336 0.474028
0.129247 -0.0184648 0.473695
0.129959 -0.0187983 0.473421
0.130694 -0.0191356 0.473239
0.131452 -0.0194768 0.473144
0.132199 -0.0198161 0.473008
0.132947 -0.0201555 0.472872
0.133717 -0.020499 0.472824
0.134502 -0.0208451 0.472828
0.135291 -0.0211919 0.472843
0.136104 -0.0215433 0.472947
0.136954 -0.0219018 0.473184
0.137809 -0.0222614 0.473434
0.138706 -0.022629 0.473831
0.139709 -0.0230168 0.474599
0.140764 -0.0234152 0.475543
0.141924 -0.0238344 0.476848
0.143108 -0.0242593 0.47822
0.14432 -0.024691 0.479674
0.145438 -0.0251056 0.48078
0.146538 -0.0255178 0.48181
0.147562 -0.025916 0.482567
0.148604 -0.0263185 0.483373
0.149627 -0.0267181 0.484104
0.150622 -0.0271125 0.48473
0.151559 -0.0274959 0.485153
0.152446 -0.0278696 0.485401
0.153302 -0.0282373 0.485544
0.154134 -0.0286003 0.485604
0.154942 -0.0289584 0.485579
0.155745 -0.0293156 0.48554
0.156587 -0.0296812 0.485625
0.157449 -0.030051 0.485773
0.158324 -0.0304236 0.485959
0.15917 -0.0307906 0.486051
0.160065 -0.0311682 0.486296
0.160944 -0.0315426 0.486483
0.16229 -0.0320187 0.488143
0.163982 -0.0325717 0.490869
0.166338 -0.0332724 0.495634
0.168815 -0.0340035 0.500731
0.171268 -0.0347332 0.505696
0.173172 -0.0353441 0.50892
0.0915229 0.00272675 0.523694
0.0920353 0.00235647 0.521715
0.0925508 0.0019888 0.519788
0.0930362 0.00162365 0.517714
0.0934978 0.00126131 0.515535
0.094025 0.00090101 0.513782
0.0945662 0.000542721 0.512139
0.0951765 0.000185075 0.510925
0.0958715 -0.000173017 0.510217
0.0966353 -0.000532187 0.50991
0.097448 -0.00089257 0.509881
0.0983202 -0.0012552 0.510182
0.0992042 -0.00161883 0.510541
0.100044 -0.00198124 0.510649
0.100895 -0.00234454 0.510814
0.101735 -0.00270769 0.510913
0.102551 -0.00306986 0.510879
0.10338 -0.00343295 0.510913
0.104268 -0.00379959 0.511252
0.105128 -0.00416522 0.511443
0.10595 -0.00452874 0.511426
0.106746 -0.0048907 0.511273
0.107476 -0.00524807 0.510789
0.10811 -0.00559797 0.509824
0.108707 -0.00594411 0.508685
0.109287 -0.00628776 0.50748
0.109805 -0.00662512 0.505987
0.110309 -0.00695974 0.504444
0.110785 -0.00729032 0.502789
0.111163 -0.0076103 0.500682
0.111508 -0.00792507 0.49845
0.111866 -0.00823882 0.496314
0.11226 -0.00855381 0.494374
0.112703 -0.00887183 0.492692
0.113252 -0.00919906 0.491521
0.113831 -0.0095284 0.490506
0.114399 -0.0098556 0.489453
0.114964 -0.0101814 0.488399
0.115533 -0.0105069 0.48738
0.116092 -0.0108302 0.486326
0.116641 -0.0111514 0.48524
0.11725 -0.0114787 0.484429
0.117869 -0.0118066 0.483674
0.118523 -0.0121383 0.48308
0.119211 -0.0124738 0.48264
0.119922 -0.012812 0.482301
0.120621 -0.0131485 0.481918
0.121298 -0.0134818 0.481442
0.121972 -0.0138141 0.480955
0.122633 -0.0141445 0.48042
0.123294 -0.0144744 0.479891
0.123943 -0.0148023 0.479318
0.124587 -0.0151291 0.478733
0.125216 -0.0154533 0.478092
0.125821 -0.0157734 0.477358
0.126436 -0.0160944 0.476673
0.12706 -0.0164164 0.476034
0.127711 -0.0167419 0.475503
0.128361 -0.0170669 0.474977
0.129056 -0.0173987 0.474631
0.129753 -0.0177305 0.474292
0.130477 -0.0180665 0.474062
0.131212 -0.0184042 0.473875
0.131972 -0.018746 0.473784
0.132719 -0.0190857 0.473645
0.133469 -0.0194258 0.473514
0.134229 -0.0197676 0.47342
0.135001 -0.0201116 0.473373
0.135789 -0.0204585 0.473384
0.136604 -0.02081 0.473491
0.137447 -0.0211666 0.473693
0.138304 -0.0215263 0.473948
0.139201 -0.0218933 0.474339
0.140169 -0.0222734 0.474976
0.141184 -0.0226629 0.475774
0.142287 -0.0230693 0.476873
0.143398 -0.0234781 0.477981
0.144522 -0.0238904 0.479123
0.145597 -0.0242946 0.48008
0.146657 -0.0246972 0.480976
0.147685 -0.0250942 0.481744
0.148743 -0.0254977 0.482609
0.149836 -0.025909 0.483579
0.150894 -0.0263142 0.484419
0.151907 -0.0267115 0.485098
0.152855 -0.0270967 0.485549
0.153783 -0.0274781 0.485927
0.154662 -0.0278502 0.486137
0.155503 -0.0282152 0.486219
0.156337 -0.0285788 0.486278
0.157208 -0.0289499 0.486452
0.158087 -0.0293233 0.48665
0.158996 -0.0297029 0.486941
0.159895 -0.0300807 0.487194
0.160812 -0.0304627 0.487503
0.161781 -0.0308559 0.487967
0.163294 -0.0313649 0.49014
0.16514 -0.0319463 0.493329
0.167414 -0.0326217 0.497818
0.169676 -0.0332981 0.502221
0.171821 -0.0339528 0.506216
0.0924729 0.00318173 0.522109
0.0930509 0.00281162 0.520563
0.0936044 0.00244336 0.518898
0.0941406 0.00207712 0.517159
0.0946591 0.00171315 0.515345
0.0951759 0.00135149 0.513552
0.0957751 0.000991286 0.512264
0.0964605 0.000631483 0.51149
0.0972081 0.000271438 0.511079
0.0980042 -8.9274e-05 0.510946
0.0988566 -0.000451442 0.511126
0.099711 -0.000814077 0.51131
0.100521 -0.00117568 0.511248
0.101343 -0.00153785 0.511246
0.102163 -0.00190014 0.511233
0.102969 -0.00226202 0.511144
0.1038 -0.00262507 0.511186
0.104709 -0.00299225 0.51163
0.105584 -0.00335833 0.511889
0.106419 -0.00372269 0.511937
0.107226 -0.00408565 0.511836
0.107954 -0.00444384 0.511339
0.108587 -0.00479539 0.510367
0.109183 -0.00514339 0.50922
0.109763 -0.00548912 0.508015
0.11028 -0.00582901 0.506517
0.110794 -0.00616696 0.505019
0.111279 -0.00650109 0.503407
0.111676 -0.00682633 0.5014
0.112033 -0.00714597 0.499224
0.112401 -0.00746426 0.497132
0.112792 -0.00778254 0.495182
0.113233 -0.00810335 0.493488
0.113772 -0.00843185 0.492269
0.114364 -0.00876435 0.491309
0.114932 -0.00909357 0.490254
0.115506 -0.0094223 0.489235
0.116084 -0.00975061 0.48825
0.116655 -0.0100772 0.487246
0.117216 -0.0104018 0.486208
0.117839 -0.0107324 0.485457
0.11846 -0.0110622 0.484708
0.119106 -0.0113943 0.48407
0.119795 -0.011731 0.483629
0.120487 -0.0120677 0.4832
0.121176 -0.0124037 0.482766
0.121871 -0.0127404 0.482363
0.122556 -0.0130753 0.481916
0.123197 -0.0134042 0.481294
0.123856 -0.0137351 0.480754
0.124503 -0.0140638 0.480165
0.125113 -0.0143872 0.479438
0.125722 -0.0147098 0.478712
0.126339 -0.015033 0.478024
0.126955 -0.0153555 0.477341
0.127572 -0.0156775 0.476668
0.128209 -0.0160021 0.476082
0.128847 -0.0163263 0.475504
0.12953 -0.0166568 0.475106
0.130217 -0.0169877 0.474728
0.130953 -0.0173259 0.474539
0.131691 -0.0176644 0.474361
0.132451 -0.0180064 0.474267
0.1332 -0.0183466 0.474129
0.133948 -0.0186867 0.473989
0.134696 -0.0190268 0.47385
0.135469 -0.0193709 0.473801
0.136268 -0.0197196 0.473849
0.137085 -0.0200713 0.473959
0.13793 -0.0204279 0.474165
0.138787 -0.0207871 0.474415
0.139684 -0.0211534 0.474801
0.140614 -0.0215258 0.475298
0.141589 -0.0219068 0.475949
0.142608 -0.0222962 0.476744
0.143629 -0.0226869 0.477538
0.144654 -0.0230792 0.478335
0.14567 -0.0234704 0.479088
0.14668 -0.0238615 0.479812
0.147718 -0.0242582 0.480619
0.148776 -0.0246597 0.481485
0.14991 -0.0250762 0.482599
0.151042 -0.0254933 0.483692
0.15216 -0.025909 0.484724
0.153203 -0.026311 0.48549
0.154237 -0.0267122 0.486219
0.155192 -0.0270988 0.486678
0.156068 -0.0274702 0.48687
0.156938 -0.0278408 0.487039
0.157841 -0.0282183 0.487316
0.158755 -0.0285982 0.48762
0.159716 -0.028988 0.488069
0.160682 -0.0293792 0.48853
0.161668 -0.029775 0.489047
0.162712 -0.0301831 0.489738
0.164304 -0.0307049 0.492146
0.166244 -0.0313008 0.495611
0.168317 -0.0319271 0.49945
0.170329 -0.0325437 0.503061
0.0946069 0.00289616 0.517725
0.0951849 0.0025296 0.51626
0.0957436 0.00216478 0.514708
0.0963459 0.00180192 0.513431
0.0970333 0.0014403 0.512659
0.0977629 0.00107912 0.512137
0.0985409 0.000717856 0.511893
0.0993728 0.000355859 0.511949
