ply
format ascii 1.0
element vertex 1719
property float x
property float y
property float z
end_header
0.0932973 0.0992947 0.643528
0.0926106 0.098012 0.64351
0.0920065 0.0967738 0.643873
0.0913381 0.0955021 0.643937
0.0906154 0.0942029 0.643744
0.0899007 0.0929089 0.643584
0.0891717 0.0916089 0.643352
0.0884359 0.0903068 0.643084
0.0877346 0.0890234 0.642975
0.0871071 0.0877772 0.643215
0.0864551 0.0865194 0.643335
0.0858059 0.0852636 0.643468
0.0851732 0.0840161 0.643678
0.084568 0.0827819 0.644021
0.0839812 0.0815562 0.644452
0.0833849 0.080326 0.644839
0.0828212 0.0791106 0.645385
0.0822209 0.0778783 0.645752
0.0816024 0.0766381 0.646029
0.080949 0.0753827 0.646132
0.0802534 0.07411 0.646024
0.07951 0.072818 0.645671
0.0787165 0.0715068 0.645061
0.0779183 0.0701961 0.644419
0.0770779 0.0688705 0.643556
0.0763636 0.0675983 0.643324
0.0757953 0.066385 0.643833
0.0754287 0.0652494 0.645378
0.0751697 0.0641519 0.647487
0.0750491 0.063102 0.650328
0.074948 0.0620531 0.65329
0.0747344 0.0609573 0.655687
0.074452 0.0598319 0.657742
0.0741283 0.058688 0.659593
0.0737525 0.0575228 0.661181
0.0733534 0.0563463 0.662657
0.0729842 0.0551772 0.664301
0.072641 0.0540132 0.666095
0.0723138 0.0528503 0.667989
0.0719154 0.0516618 0.66951
0.071482 0.0504602 0.670851
0.0710334 0.0492508 0.672121
0.0705089 0.0480177 0.672981
0.0699415 0.0467716 0.673609
0.0693876 0.045528 0.674314
0.0688169 0.0442791 0.674931
0.0682183 0.043023 0.675392
0.0676026 0.0417612 0.675761
0.0669576 0.040493 0.675964
0.0662972 0.0392214 0.676078
0.0659905 0.038032 0.678195
0.0663144 0.0369796 0.683918
0.0672873 0.0360526 0.693405
0.0668046 0.0357786 0.702265
0.0683631 0.0351242 0.703562
0.0693692 0.0341549 0.71341
0.0698893 0.0330662 0.720526
0.0697562 0.0318388 0.723898
0.132567 0.157168 0.686599
0.131878 0.155811 0.686822
0.131114 0.154404 0.686746
0.130338 0.152988 0.686617
0.129571 0.15158 0.686521
0.128404 0.149897 0.684802
0.126865 0.147964 0.681561
0.122661 0.145818 0.672979
0.125003 0.14582 0.676979
0.119697 0.140501 0.661229
0.11745 0.138137 0.654936
0.115625 0.136067 0.65034
0.114171 0.134251 0.647241
0.113432 0.13291 0.647096
0.112717 0.131586 0.647044
0.112062 0.130301 0.647238
0.111394 0.129008 0.647381
0.110797 0.127761 0.647819
0.110239 0.126539 0.648425
0.10963 0.125284 0.648815
0.10902 0.124028 0.649199
0.108309 0.122709 0.649151
0.107535 0.121353 0.648832
0.106633 0.119921 0.647956
0.105802 0.118534 0.647379
0.104892 0.117101 0.646449
0.104074 0.115727 0.645913
0.103274 0.114365 0.645448
0.102565 0.113058 0.645376
0.10183 0.111736 0.645184
0.101186 0.110468 0.645394
0.100489 0.109171 0.645368
0.0997381 0.107844 0.645096
0.098942 0.106493 0.644617
0.0981776 0.105161 0.644276
0.0974086 0.103828 0.643908
0.0966329 0.102493 0.643505
0.0959195 0.101194 0.643377
0.095217 0.0999018 0.643297
0.0945207 0.0986138 0.643241
0.0938334 0.0973314 0.643224
0.0932292 0.0960933 0.643586
0.0925754 0.0948295 0.64372
0.0918694 0.0935395 0.643608
0.0911878 0.092263 0.643607
0.0904948 0.0909816 0.64355
0.0897779 0.0896893 0.643377
0.0890608 0.0883981 0.643199
0.0884157 0.0871431 0.643357
0.0877262 0.0858673 0.643304
0.0870458 0.0845967 0.64329
0.0863956 0.0833411 0.643418
0.0857874 0.0821055 0.643747
0.0851823 0.0808714 0.64409
0.0845516 0.0796258 0.644308
0.0839502 0.0783935 0.644668
0.0833001 0.0771398 0.64479
0.08263 0.0758781 0.644813
0.0819138 0.0745973 0.644604
0.0811676 0.0733054 0.644243
0.0803578 0.0719885 0.643561
0.0795274 0.0706658 0.642767
0.078665 0.0693329 0.641804
0.0777943 0.0679998 0.640788
0.0770323 0.0667127 0.640309
0.0764308 0.0654897 0.640637
0.0760287 0.0643424 0.641979
0.0757534 0.0632402 0.643979
0.0757211 0.0622233 0.64724
0.0757599 0.061225 0.650891
0.0756901 0.0601801 0.654008
0.0755297 0.0590968 0.656677
0.0753153 0.0579893 0.659084
0.0749682 0.0568319 0.660812
0.0745721 0.0556555 0.662294
0.0742063 0.0544858 0.663945
0.0738681 0.0533215 0.665754
0.0735404 0.0521571 0.667631
0.0731249 0.0509616 0.669053
0.0726736 0.0497539 0.670289
0.0721955 0.0485355 0.671389
0.0716448 0.0472947 0.672102
0.071064 0.0460451 0.672653
0.0704965 0.0447984 0.673279
0.0699122 0.0435469 0.673814
0.0693122 0.0422908 0.674264
0.0686974 0.0410307 0.674633
0.068068 0.0397674 0.674921
0.0677085 0.0385675 0.676716
0.0677324 0.037449 0.680682
0.0684218 0.0364657 0.688437
0.0694403 0.0355326 0.698122
0.0704832 0.0345796 0.708032
0.0711524 0.0335277 0.715892
0.0713739 0.0323731 0.721242
0.0709609 0.0310907 0.722978
0.133833 0.156407 0.686118
0.13313 0.155042 0.686288
0.132378 0.153643 0.686256
0.131578 0.152212 0.686034
0.130794 0.150793 0.685871
0.12995 0.149335 0.685465
0.128799 0.14767 0.683814
0.127336 0.1458 0.680889
0.119312 0.137836 0.657114
0.117025 0.13547 0.650663
0.115169 0.133399 0.645939
0.114413 0.132049 0.645721
0.1137 0.130728 0.645676
0.113045 0.129444 0.64587
0.112394 0.128164 0.64608
0.111817 0.12693 0.646599
0.111301 0.125734 0.647375
0.110718 0.124496 0.64787
0.110168 0.123278 0.648509
0.109515 0.121996 0.648711
0.108767 0.120657 0.648504
0.107881 0.119237 0.647706
0.107065 0.11786 0.647195
0.106147 0.116425 0.646241
0.105308 0.115039 0.645621
0.104522 0.113687 0.645223
0.103849 0.112401 0.645312
0.103136 0.111093 0.645223
0.102511 0.109836 0.645515
0.101848 0.108558 0.645641
0.101094 0.10723 0.645365
0.10028 0.105869 0.644813
0.0994964 0.104528 0.644394
0.0987059 0.103184 0.643937
0.0978932 0.10183 0.643374
0.0971603 0.100521 0.643163
0.096441 0.0992205 0.64301
0.0957441 0.0979328 0.642955
0.0950562 0.0966508 0.642937
0.094452 0.0954126 0.6433
0.0938137 0.0941571 0.643506
0.093139 0.0928835 0.643542
0.0924923 0.0916248 0.643706
0.0918193 0.0903535 0.643746
0.0911205 0.0890702 0.643663
0.0903991 0.0877773 0.643472
0.0897359 0.0865131 0.643549
0.0890268 0.0852282 0.643408
0.0883434 0.0839563 0.643384
0.0876746 0.0826921 0.643427
0.0870517 0.0814495 0.643686
0.086414 0.0802005 0.643874
0.0857343 0.0789333 0.643858
0.0850812 0.0776785 0.643968
0.0843785 0.076403 0.643835
0.0836438 0.0751149 0.643542
0.0828647 0.0738098 0.643027
0.0820519 0.0724926 0.64234
0.0811628 0.0711468 0.641267
0.0803107 0.0698193 0.640367
0.0794356 0.0684858 0.639342
0.0785679 0.0671584 0.638342
0.077778 0.0658644 0.637722
0.0771543 0.0646357 0.637929
0.076696 0.0634692 0.638971
0.0763661 0.062348 0.640669
0.076288 0.0613144 0.643661
0.0764509 0.0603597 0.647908
0.0765353 0.0593681 0.651783
0.07651 0.0583304 0.655122
0.0764338 0.0572681 0.658223
0.0762037 0.056148 0.660547
0.0758227 0.0549753 0.662097
0.0754595 0.0538045 0.663753
0.0751225 0.0526384 0.665558
0.0747804 0.0514677 0.667347
0.0743476 0.0502665 0.668666
0.0738622 0.049047 0.669716
0.0733696 0.0478242 0.670731
0.072804 0.04658 0.671357
0.0721974 0.0453233 0.671766
0.0716148 0.0440733 0.672306
0.0710021 0.0428152 0.672681
0.0703875 0.041557 0.673046
0.069774 0.0402983 0.673418
0.069174 0.0390433 0.673865
0.0691266 0.0379119 0.67738
0.0695024 0.0368654 0.683279
0.0705408 0.035944 0.692937
0.0716016 0.0350032 0.702802
0.0725684 0.0340173 0.712224
0.0728898 0.0328868 0.718065
0.0728265 0.0316713 0.721763
0.0721664 0.0303435 0.722074
0.135347 0.155819 0.686609
0.13462 0.154437 0.686687
0.1338 0.152991 0.686395
0.132971 0.151542 0.686065
0.13216 0.150105 0.6858
0.131291 0.148631 0.685296
0.130441 0.147171 0.684868
0.129329 0.145539 0.683377
0.121148 0.13751 0.659156
0.118449 0.134887 0.651079
0.116205 0.132574 0.6448
0.11545 0.131227 0.64459
0.114736 0.129907 0.644542
0.114083 0.128625 0.644739
0.113433 0.127347 0.644951
0.112859 0.126116 0.645479
0.112363 0.124932 0.646334
0.111805 0.12371 0.646929
0.111295 0.122516 0.647732
0.110684 0.121261 0.648112
0.109991 0.119956 0.648142
0.109144 0.118561 0.647517
0.108343 0.117195 0.647078
0.107422 0.11576 0.64612
0.106595 0.114383 0.645556
0.10581 0.113032 0.645169
0.105142 0.111749 0.645281
0.104432 0.110444 0.645212
0.103807 0.109187 0.645507
0.103141 0.107906 0.64562
0.102384 0.106577 0.645337
0.101572 0.105219 0.644802
0.100788 0.103878 0.644388
0.0999922 0.102533 0.643913
0.0991561 0.101168 0.643253
0.0984025 0.0998486 0.642954
0.097665 0.0985392 0.642723
0.0969675 0.0972519 0.642668
0.096279 0.0959702 0.642651
0.0956748 0.094732 0.643013
0.095038 0.0934775 0.643227
0.0943809 0.0922132 0.643346
0.0937546 0.0909646 0.643606
0.0930977 0.0897014 0.643723
0.0924141 0.0884258 0.643715
0.0917073 0.0871402 0.643597
0.0910397 0.0858741 0.643657
0.090328 0.0845882 0.643509
0.0896423 0.0833154 0.643478
0.088959 0.0820446 0.643457
0.0883194 0.0807943 0.643639
0.0876494 0.079531 0.643675
0.0869348 0.0782489 0.643496
0.0862172 0.0769669 0.643297
0.0854635 0.0756708 0.642922
0.0846629 0.0743568 0.642312
0.0838154 0.0730257 0.641468
0.0829532 0.0716914 0.640543
0.0820289 0.0703353 0.639304
0.0811633 0.0690063 0.63834
0.0802904 0.0676776 0.637329
0.0794716 0.0663731 0.636575
0.0786729 0.0650788 0.635912
0.0780213 0.0638419 0.635975
0.0775107 0.0626573 0.636742
0.0771092 0.0615109 0.638061
0.0769334 0.0604421 0.64053
0.0770413 0.0594666 0.644455
0.0772318 0.0585106 0.648831
0.0773374 0.057516 0.652805
0.0774058 0.0565003 0.656619
0.0773113 0.0554234 0.65962
0.0770714 0.0542935 0.661893
0.0767106 0.053122 0.66355
0.0763754 0.0519551 0.665351
0.076019 0.050778 0.667055
0.0755561 0.0495668 0.668209
0.0750254 0.0483342 0.669011
0.0745012 0.0471022 0.669852
0.0739042 0.0458495 0.670307
0.0732806 0.0445898 0.670621
0.0726966 0.0433409 0.671145
0.0720825 0.0420835 0.67151
0.0714818 0.040829 0.671949
0.070884 0.0395751 0.672403
0.070592 0.0383904 0.674533
0.0708918 0.0373314 0.679934
0.0716183 0.0363497 0.687736
0.0727042 0.0354208 0.697602
0.0737029 0.0344501 0.707064
0.0743364 0.0333857 0.714562
0.0743195 0.0321837 0.718465
0.0739891 0.0309172 0.720629
0.0733621 0.029596 0.721126
0.136817 0.155198 0.686921
0.136081 0.153809 0.686966
0.135252 0.152359 0.686649
0.134398 0.150892 0.686223
0.133541 0.149426 0.68578
0.132639 0.147931 0.685157
0.131763 0.146455 0.684625
0.130626 0.144811 0.683051
0.126744 0.142939 0.675934
0.128011 0.142205 0.675538
0.123971 0.140232 0.667676
0.125222 0.139504 0.667272
0.122364 0.136775 0.658666
0.119613 0.134135 0.650433
0.117336 0.131813 0.644062
0.116581 0.130467 0.643851
0.115852 0.129138 0.643741
0.1152 0.127859 0.643948
0.114569 0.126593 0.644236
0.113996 0.125363 0.644764
0.113483 0.124169 0.645543
0.112923 0.122945 0.64613
0.112412 0.121751 0.646921
0.111822 0.120508 0.647386
0.111149 0.119217 0.647504
0.110362 0.117858 0.647134
0.1096 0.116517 0.646867
0.108734 0.115116 0.646152
0.107926 0.113751 0.645679
0.107177 0.112421 0.64545
0.106509 0.111138 0.64557
0.105817 0.109842 0.645578
0.105138 0.108555 0.645643
0.104448 0.107262 0.64566
0.10367 0.105922 0.645289
0.102841 0.104556 0.644687
0.102026 0.103199 0.644139
0.101245 0.101863 0.643739
0.100419 0.100505 0.643129
0.0996628 0.0991853 0.642825
0.0989405 0.0978845 0.642666
0.0982435 0.0965978 0.642617
0.097553 0.0953155 0.642594
0.096931 0.094068 0.642877
0.0962938 0.0928134 0.64309
0.0956396 0.0915507 0.643226
0.095032 0.0903112 0.643572
0.0943939 0.089057 0.643778
0.0937224 0.0877875 0.64383
0.0930282 0.086508 0.643775
0.0923622 0.0852426 0.643846
0.0916543 0.0839585 0.643721
0.0909683 0.0826856 0.643694
0.0902835 0.0814142 0.64367
0.0896104 0.0801488 0.643698
0.0889043 0.0788698 0.643568
0.0881532 0.0775727 0.643219
0.087384 0.0762695 0.64278
0.0865794 0.0749534 0.642165
0.0857271 0.07362 0.641314
0.0848265 0.0722698 0.64022
0.0839121 0.0709177 0.639048
0.0829824 0.0695631 0.637789
0.0821196 0.0682385 0.636844
0.081282 0.0669267 0.636011
0.0805012 0.0656394 0.635449
0.0797348 0.0643596 0.634949
0.0790859 0.0631247 0.635025
0.0785185 0.0619201 0.635504
0.0779997 0.0607322 0.636226
0.0777204 0.0596265 0.638153
0.0777094 0.0586085 0.641443
0.0777868 0.0576127 0.645204
0.0778636 0.0566081 0.648991
0.0781051 0.0556481 0.653645
0.0781712 0.0546218 0.657437
0.078088 0.0535405 0.660492
0.0778657 0.0524108 0.662848
0.0776422 0.0512757 0.665216
0.0772277 0.0500798 0.666607
0.0767194 0.0488545 0.667518
0.0761422 0.0476093 0.66807
0.0755711 0.0463652 0.668656
0.0749416 0.045105 0.668935
0.0742998 0.0438426 0.669147
0.0737144 0.0425935 0.669661
0.0731133 0.0413414 0.670088
0.0725313 0.0400929 0.670622
0.07195 0.0388442 0.671159
0.0720083 0.0377359 0.675174
0.0726641 0.0367455 0.68248
0.0737263 0.0358209 0.692073
0.0748362 0.0348807 0.702011
0.0757953 0.0338859 0.7112
0.0760845 0.0327448 0.716745
0.0757608 0.0314813 0.718918
0.075195 0.0301715 0.719754
0.0746042 0.0288575 0.720449
0.13913 0.156037 0.687585
0.138363 0.154626 0.687519
0.137626 0.153237 0.687568
0.13678 0.151775 0.687189
0.135928 0.150311 0.686781
0.135017 0.148809 0.686133
0.134044 0.147269 0.685237
0.133119 0.145762 0.68452
0.131929 0.144086 0.682748
0.129249 0.141453 0.675023
0.126436 0.138752 0.666716
0.123575 0.136038 0.658155
0.120805 0.133401 0.6499
0.118522 0.131088 0.643552
0.117762 0.12974 0.643322
0.117012 0.1284 0.643131
0.116344 0.127111 0.643268
0.115714 0.125846 0.643562
0.115139 0.124615 0.644081
0.114605 0.123408 0.644769
0.114039 0.122181 0.645326
0.113508 0.120974 0.646029
0.112932 0.119741 0.646552
0.112283 0.118464 0.646765
0.111554 0.117141 0.646645
0.110838 0.115827 0.646575
0.110051 0.114474 0.646205
0.109266 0.113122 0.645832
0.108537 0.111804 0.645695
0.107866 0.110519 0.645802
0.107167 0.10922 0.645788
0.106465 0.10792 0.645757
0.10577 0.106625 0.645757
0.105005 0.105292 0.645446
0.104157 0.103917 0.644773
0.103339 0.10256 0.644221
0.102558 0.101225 0.643825
0.101732 0.0998673 0.643223
0.100961 0.0985407 0.642859
0.100256 0.0972493 0.642784
0.0995424 0.0959545 0.642664
0.0988333 0.094663 0.642562
0.0981905 0.0934053 0.642754
0.0975497 0.092149 0.642953
0.0968964 0.0908869 0.643094
0.096291 0.0896482 0.643451
0.0956693 0.0884019 0.643734
0.0950137 0.0871399 0.643861
0.0943388 0.0858696 0.643898
0.0936758 0.0846054 0.643988
0.093002 0.0833371 0.644024
0.0923171 0.0820645 0.644008
0.0916299 0.0807918 0.643978
0.0909211 0.0795107 0.643843
0.0901915 0.0782218 0.643608
0.0894026 0.0769094 0.643089
0.0885967 0.0755919 0.642483
0.0877262 0.0742502 0.641562
0.0868188 0.0728964 0.640456
0.0858646 0.0715276 0.639114
0.0849139 0.0701642 0.637776
0.0839698 0.0688075 0.636456
0.0831395 0.0674985 0.635673
0.0823502 0.0662076 0.635081
0.0816164 0.0649397 0.634752
0.0808845 0.0636742 0.634426
0.0802668 0.0624513 0.634656
0.0797013 0.0612471 0.635144
0.0791674 0.0600536 0.635789
0.0787675 0.058905 0.637102
0.0786048 0.0578334 0.639609
0.0785258 0.0567837 0.642553
0.0784399 0.0557254 0.645483
0.0785867 0.0547341 0.649612
0.0786461 0.0537061 0.653328
0.0787228 0.0526752 0.657159
0.0786432 0.0515881 0.660222
0.0785581 0.0504941 0.663274
0.0782474 0.0493284 0.665186
0.0778304 0.0481297 0.66656
0.0772042 0.0468713 0.666854
0.0765839 0.0456151 0.667178
0.075922 0.0443488 0.66728
0.0752636 0.0430831 0.667403
0.074681 0.0418374 0.667922
0.0740857 0.0405879 0.668375
0.0735358 0.0393488 0.669072
0.0732985 0.0381777 0.671448
0.0737301 0.0371449 0.677445
0.0747541 0.0362194 0.686699
0.0758836 0.0352915 0.696603
0.0769343 0.034323 0.706159
0.0775561 0.0332507 0.713443
0.0775355 0.0320452 0.717251
0.0769609 0.0307357 0.718027
0.0764637 0.0294379 0.719235
0.0759225 0.0281318 0.720202
0.139923 0.15406 0.68816
0.139163 0.152654 0.688122
0.138323 0.151197 0.687775
0.137438 0.149712 0.687246
0.136499 0.148193 0.686499
0.135478 0.146623 0.685425
0.134523 0.145099 0.684599
0.133267 0.143384 0.682581
0.130456 0.140682 0.674393
0.127482 0.137895 0.665502
0.124565 0.135162 0.656771
0.121735 0.132504 0.648328
0.119774 0.130405 0.643305
0.119007 0.129054 0.643053
0.118253 0.127712 0.642849
0.117564 0.126411 0.642904
0.116933 0.125146 0.643193
0.116321 0.123892 0.643559
0.115747 0.12266 0.64408
0.11514 0.12141 0.644467
0.114584 0.120189 0.645066
0.113992 0.118946 0.645515
0.113379 0.117691 0.64588
0.112712 0.116405 0.646018
0.112058 0.115128 0.64621
0.111334 0.113811 0.646106
0.11059 0.112483 0.645912
0.109877 0.111175 0.64585
0.109183 0.109878 0.645863
0.10848 0.108576 0.645834
0.107774 0.107274 0.645792
0.10708 0.105979 0.645797
0.106329 0.104655 0.645553
0.105512 0.103297 0.645019
0.104694 0.101941 0.644477
0.103927 0.100614 0.644148
0.103119 0.0992666 0.643636
0.102333 0.0979328 0.643215
0.101616 0.0966354 0.643092
0.100899 0.0953387 0.642962
0.100152 0.0940289 0.642698
0.0994702 0.0927518 0.642718
0.0988081 0.0914851 0.642824
0.098151 0.0902215 0.642951
0.0975308 0.0889757 0.643242
0.0969109 0.0877302 0.643533
0.0962725 0.0864764 0.64374
0.0956321 0.085222 0.643937
0.0949915 0.083968 0.644132
0.0943531 0.0827153 0.644336
0.0936828 0.0814491 0.644391
0.0929919 0.0801745 0.64435
0.0922454 0.0788772 0.644047
0.0914651 0.0775674 0.643581
0.0906215 0.076233 0.642813
0.089762 0.0748949 0.641963
0.0888389 0.0735339 0.640803
0.08788 0.0721623 0.639462
0.0869045 0.0707883 0.638029
0.0859354 0.0694212 0.636613
0.0850066 0.0680737 0.635376
0.0841932 0.0667736 0.63468
0.0834531 0.0655031 0.634328
0.0827512 0.0642483 0.634157
0.082065 0.0630005 0.634057
0.0814626 0.0617833 0.634363
0.0808997 0.0605798 0.634861
0.0803486 0.0593801 0.635419
0.0798454 0.0581959 0.636215
0.079508 0.0570648 0.637837
0.0792739 0.0559639 0.639984
0.0790265 0.0548543 0.642077
0.0790176 0.0538138 0.645382
0.079015 0.0527679 0.648744
0.079098 0.0517394 0.652564
0.0791568 0.0506956 0.656288
0.0792184 0.0496437 0.660055
0.0790337 0.0485147 0.662589
0.0787296 0.0473483 0.664525
0.078207 0.0461199 0.665347
0.0775522 0.0448564 0.665486
0.0768746 0.043588 0.665506
0.0762344 0.04233 0.665715
0.075686 0.0410935 0.666408
0.075126 0.0398535 0.667042
0.0746112 0.0386228 0.667919
0.0747307 0.0375277 0.672174
0.0755226 0.036562 0.680055
0.0766095 0.0356362 0.689584
0.0777471 0.034695 0.699467
0.0787381 0.0337016 0.708637
0.0790323 0.0325585 0.714098
0.0787355 0.0313005 0.716374
0.0782135 0.0300002 0.717431
0.0777553 0.028709 0.718844
0.0772497 0.0274071 0.720005
0.140752 0.152104 0.688871
0.139913 0.150647 0.688531
0.139048 0.149176 0.688091
0.138105 0.147655 0.687342
0.137039 0.146058 0.686104
0.136014 0.14449 0.685015
0.134719 0.142754 0.682863
0.132057 0.14016 0.675315
0.125693 0.134377 0.655946
0.122681 0.131622 0.646834
0.121035 0.129727 0.643097
0.120252 0.128368 0.642787
0.119475 0.127013 0.642494
0.118745 0.125687 0.642383
0.118092 0.124409 0.642585
0.117442 0.123133 0.642796
0.116848 0.121891 0.643232
0.116219 0.120628 0.64353
0.115645 0.119396 0.644047
0.115035 0.118144 0.644422
0.114443 0.116902 0.644868
0.113815 0.11564 0.645168
0.113204 0.114387 0.645535
0.112537 0.113103 0.645671
0.111847 0.111807 0.645711
0.111153 0.110509 0.645728
0.110458 0.109211 0.645738
0.109769 0.107918 0.645775
0.109066 0.106618 0.645746
0.108377 0.105326 0.645777
0.107668 0.104024 0.645718
0.106868 0.102676 0.645265
0.106065 0.101329 0.644797
0.105313 0.100009 0.644538
0.104523 0.0986719 0.644111
0.103718 0.0973293 0.643619
0.102997 0.0960295 0.643481
0.102258 0.0947222 0.643261
0.101471 0.0933935 0.642829
0.100751 0.0920983 0.642685
0.100068 0.0908218 0.642701
0.0993915 0.089549 0.642742
0.0987537 0.0882951 0.642955
0.0981495 0.0870569 0.643318
0.0975295 0.0858116 0.643609
0.0969081 0.0845658 0.643893
0.0962863 0.0833201 0.644176
0.0956654 0.0820748 0.644461
0.0949784 0.0808013 0.644445
0.0942851 0.079526 0.644396
0.0935192 0.0782212 0.64401
0.092719 0.0769038 0.643459
0.0918547 0.0755625 0.642605
0.0909755 0.074218 0.641671
0.0899987 0.0728378 0.640271
0.0890019 0.0714541 0.638764
0.0879902 0.070069 0.637172
0.0870034 0.0686983 0.635683
0.0860929 0.0673606 0.634541
0.0852986 0.0660697 0.633941
0.0845907 0.0648125 0.633748
0.0839189 0.0635696 0.633724
0.0832643 0.0623336 0.63378
0.0826663 0.061118 0.634107
0.0821014 0.0599136 0.634595
0.0815316 0.0587074 0.63506
0.0810076 0.0575159 0.63575
0.0805098 0.0563319 0.636572
0.0801281 0.0551833 0.637972
0.0797269 0.0540262 0.639283
0.0795598 0.0529374 0.641768
0.0793922 0.051843 0.644267
0.0794153 0.0507984 0.647742
0.07957 0.0497833 0.651906
0.0797635 0.0487691 0.656297
0.0797054 0.0476765 0.659442
0.0795143 0.0465413 0.661933
0.0790974 0.0453431 0.663282
0.078426 0.0440779 0.66333
0.0777643 0.0428162 0.663425
0.0771743 0.0415722 0.663891
0.0766933 0.040353 0.664926
0.0762146 0.0391324 0.665978
0.0757474 0.0379122 0.667099
0.0762206 0.0368879 0.673185
0.0773479 0.0359796 0.682791
0.0785154 0.0350558 0.692686
0.0796039 0.0340903 0.702246
0.0805528 0.0330753 0.711132
0.0805233 0.0318679 0.714813
0.0799712 0.0305635 0.715698
0.0794729 0.0292672 0.716876
0.0790362 0.0279775 0.718399
0.0785505 0.0266777 0.719663
0.14289 0.152817 0.688822
0.142152 0.151426 0.688879
0.141346 0.149992 0.688675
0.140507 0.148538 0.68834
0.13959 0.147036 0.6877
0.13852 0.145438 0.686461
0.13749 0.143869 0.685365
0.136208 0.142145 0.683279
0.133797 0.139721 0.676763
0.126876 0.133627 0.655343
0.123633 0.130748 0.645376
0.122353 0.129084 0.643114
0.121552 0.127714 0.642735
0.12073 0.126333 0.642269
0.119919 0.12496 0.641838
0.119206 0.123647 0.641797
0.118514 0.122348 0.641839
0.117884 0.121085 0.642129
0.117235 0.119811 0.642341
0.116645 0.118571 0.64279
0.116034 0.11732 0.643156
0.115446 0.116081 0.643615
0.114855 0.11484 0.644065
0.114283 0.11361 0.644591
0.113672 0.112358 0.644957
0.113021 0.111084 0.645158
0.112363 0.109807 0.645328
0.111689 0.108521 0.64543
0.11102 0.107239 0.645549
0.110322 0.105942 0.645546
0.109655 0.104662 0.645671
0.108969 0.103372 0.645714
0.108192 0.102038 0.645368
0.107393 0.100693 0.644922
0.106675 0.0993908 0.644815
0.105896 0.0980596 0.644445
0.105106 0.0967247 0.644022
0.104378 0.0954221 0.643864
0.103632 0.0941111 0.643618
0.102822 0.0927718 0.643093
0.102067 0.0914603 0.642801
0.101347 0.0901665 0.642657
0.10065 0.0888848 0.642613
0.0999927 0.0876219 0.642741
0.0993723 0.0863763 0.643031
0.0987681 0.0851382 0.643394
0.0981639 0.0839 0.643756
0.0975598 0.0826618 0.644119
0.0969556 0.0814237 0.644482
0.0962839 0.0801568 0.644537
0.0955893 0.0788811 0.644488
0.0948222 0.0775763 0.644103
0.0940054 0.0762531 0.643484
0.0931215 0.0749052 0.642549
0.0922059 0.0735479 0.641457
0.0911911 0.0721552 0.639894
0.0901575 0.0707599 0.638229
0.0891261 0.0693704 0.636558
0.0881224 0.0679963 0.635002
0.0872263 0.0666665 0.633937
0.0864487 0.0653833 0.633422
0.0857583 0.0641334 0.633316
0.0851046 0.0628975 0.633379
0.0844807 0.0616727 0.633584
0.0838853 0.0604578 0.633924
0.0833065 0.0592486 0.634345
0.0827178 0.0580359 0.634718
0.0821732 0.0568374 0.635305
0.0816427 0.0556428 0.635963
0.0811142 0.054448 0.636633
0.0805741 0.0532488 0.63725
0.0802548 0.0521146 0.638958
0.0799166 0.0509713 0.640585
0.0797528 0.0498742 0.643091
0.0798674 0.0488488 0.647007
0.0801223 0.0478521 0.651657
0.0801996 0.0467978 0.655445
0.0801456 0.0457006 0.658597
0.0798675 0.0445394 0.660633
0.079326 0.0433093 0.66134
0.0787134 0.0420624 0.66168
0.0781781 0.0408325 0.662421
0.077752 0.039626 0.66373
0.0773259 0.038418 0.665045
0.0768785 0.037202 0.666259
0.0773814 0.0361779 0.672455
0.0784958 0.0352577 0.681917
0.080751 0.0333497 0.701209
0.0817336 0.0323325 0.710202
0.0817376 0.0311275 0.714037
0.0812576 0.0298351 0.715301
0.080829 0.0285486 0.716848
0.0804273 0.0272629 0.718552
0.0799749 0.0259665 0.719992
0.143499 0.150713 0.688689
0.142708 0.14929 0.688545
0.141922 0.14787 0.688414
0.14105 0.146398 0.687953
0.139985 0.144805 0.686744
0.138986 0.143258 0.68578
0.138115 0.141793 0.685304
0.136125 0.13964 0.680476
0.125402 0.130372 0.64714
0.123571 0.128379 0.642731
0.122765 0.127008 0.642339
0.121931 0.125621 0.641828
0.121087 0.124231 0.641273
0.12031 0.122882 0.640981
0.119578 0.12156 0.640861
0.118926 0.120285 0.641059
0.11826 0.119003 0.641201
0.117668 0.117763 0.641642
0.117059 0.116514 0.642012
0.11647 0.115275 0.642461
0.115881 0.114036 0.642914
0.115328 0.112817 0.643517
0.11474 0.111578 0.643975
0.114131 0.110328 0.644349
0.113518 0.109075 0.644702
0.112884 0.107812 0.644973
0.112236 0.106541 0.645181
0.111572 0.105263 0.645323
0.110924 0.103993 0.645529
0.110257 0.102713 0.645653
0.109518 0.101399 0.645474
0.108738 0.100064 0.645115
0.108022 0.0987636 0.645025
0.107243 0.0974326 0.644658
0.106449 0.0960966 0.644227
0.105685 0.0947764 0.643915
0.104935 0.0934647 0.643662
0.104123 0.0921251 0.643133
0.103367 0.0908135 0.642841
0.102645 0.0895196 0.642696
0.101963 0.0882447 0.64272
0.101287 0.0869733 0.642767
0.100647 0.0857188 0.642974
0.100025 0.0844724 0.643257
0.099403 0.0832264 0.643542
0.0987826 0.0819812 0.643832
0.0981784 0.0807431 0.644195
0.0975232 0.0794836 0.644328
0.0968301 0.078209 0.644287
0.0960798 0.076912 0.643985
0.0952784 0.0755962 0.643444
0.0943937 0.0742495 0.642515
0.0934443 0.0728807 0.64128
0.0924077 0.0714821 0.63963
0.0913353 0.0700749 0.6378
0.0902658 0.0686741 0.635967
0.0892581 0.0673015 0.634404
0.088375 0.0659788 0.633409
0.0876151 0.0647034 0.632983
0.0869413 0.0634601 0.632957
0.0863035 0.0622302 0.633098
0.0856807 0.0610059 0.633309
0.0850709 0.0597863 0.633581
0.0844774 0.0585723 0.63393
0.0838865 0.057359 0.634292
0.0833262 0.0561555 0.634801
0.0827794 0.0549557 0.635378
0.0822487 0.0537602 0.636034
0.0817069 0.0525607 0.636638
0.0812109 0.0513738 0.637469
0.0807004 0.0501815 0.638232
0.0803493 0.0490326 0.639788
0.0802791 0.0479567 0.642746
0.0804824 0.046946 0.647091
0.0806855 0.0459257 0.651465
0.0807872 0.0448688 0.655364
0.0806712 0.04375 0.658191
0.0802894 0.0425605 0.659694
0.0797425 0.0413299 0.660366
0.07929 0.0401199 0.661522
0.0789212 0.0389262 0.663114
0.0785472 0.0377281 0.66469
0.0784056 0.0365745 0.667476
0.0791808 0.0355949 0.675049
0.080256 0.0346541 0.684243
0.079662 0.0343233 0.691727
0.0813996 0.0337022 0.693871
0.0824784 0.0327133 0.703237
0.0831986 0.0316388 0.710787
0.082988 0.0303943 0.713458
0.0825793 0.029113 0.715091
0.0821861 0.0278297 0.716822
0.0818048 0.0265452 0.718626
0.0813686 0.0252489 0.720147
0.144849 0.150001 0.688504
0.144076 0.14859 0.688433
0.143307 0.147182 0.68837
0.142481 0.14574 0.688091
0.141461 0.144178 0.687067
0.140497 0.142654 0.686248
0.139675 0.14122 0.685966
0.138191 0.139383 0.683125
0.126392 0.129523 0.645841
0.12475 0.127652 0.6422
0.12393 0.126274 0.641755
0.123082 0.124881 0.641194
0.12221 0.123476 0.640533
0.1214 0.12211 0.640113
0.120643 0.120775 0.639893
0.119968 0.119488 0.64
0.119266 0.118187 0.639994
0.118654 0.116937 0.640351
0.118026 0.115678 0.640641
0.117416 0.114428 0.641004
0.11681 0.113182 0.641384
0.116278 0.111975 0.642064
0.115716 0.110751 0.642625
0.115151 0.109526 0.643175
0.114581 0.108297 0.643705
0.113989 0.107056 0.644143
0.113361 0.105797 0.644436
0.112713 0.104527 0.644643
0.11208 0.103266 0.644911
0.111426 0.101994 0.645093
0.110724 0.100698 0.645069
0.109961 0.099374 0.644788
0.109266 0.098084 0.644787
0.108502 0.0967615 0.644491
0.107729 0.0954364 0.644153
0.106951 0.0941104 0.643787
0.10622 0.0928086 0.643622
0.105424 0.0914772 0.643166
0.104668 0.0901665 0.642882
0.103949 0.0888741 0.642753
0.103283 0.0876064 0.64285
0.102605 0.0863343 0.642895
0.101962 0.0850783 0.643092
0.101337 0.0838304 0.643364
0.100713 0.0825831 0.643641
0.100091 0.0813368 0.643926
0.0994705 0.0800913 0.644217
0.0988152 0.0788317 0.644352
0.0981215 0.0775571 0.644314
0.0973743 0.0762621 0.64403
0.0965727 0.074947 0.643496
0.0956889 0.073602 0.642582
0.0947006 0.0722201 0.641182
0.0936407 0.0708151 0.639441
0.0925433 0.0694016 0.637512
0.0914392 0.0679911 0.635534
0.0904274 0.0666198 0.633966
0.0895569 0.0653035 0.63304
0.088797 0.0640293 0.632619
0.0881246 0.0627871 0.632601
0.0874862 0.0615574 0.632742
0.0868605 0.0603324 0.632939
0.0862334 0.0591073 0.633129
0.0856388 0.0578932 0.633472
0.0850349 0.0566762 0.633771
0.0844615 0.0554686 0.634216
0.0839007 0.0542647 0.634722
0.0833688 0.0530689 0.635369
0.0828109 0.0518649 0.635891
0.0822996 0.0506737 0.636642
0.0818031 0.0494855 0.63747
0.0812793 0.0482888 0.638166
0.081025 0.0471628 0.640192
0.0811609 0.0461334 0.644163
0.0813293 0.0451027 0.648324
0.0814509 0.0440498 0.652284
0.0815215 0.0429765 0.656016
0.0813355 0.0418339 0.658486
0.0809019 0.0406296 0.659724
0.0805803 0.0394485 0.661535
0.0803294 0.0382778 0.663719
0.0799986 0.037086 0.665509
0.0799029 0.035937 0.668519
0.0806947 0.0349516 0.676123
0.0817936 0.0340033 0.685378
0.0829646 0.0330436 0.695083
0.0839586 0.0320289 0.703941
0.0844673 0.0309114 0.710327
0.0843436 0.0296785 0.713435
0.0839866 0.0284025 0.715336
0.0835975 0.0271183 0.717078
0.0832032 0.0258298 0.718804
0.0827701 0.0245322 0.720333
0.146193 0.149286 0.688298
0.14543 0.147881 0.688267
0.144701 0.146499 0.688358
0.143932 0.145093 0.688301
0.142981 0.143575 0.687546
0.142078 0.14209 0.686969
0.141303 0.140684 0.686874
0.129046 0.129661 0.651
0.125054 0.125517 0.641016
0.124165 0.124102 0.640297
0.123303 0.122706 0.639683
0.122495 0.121342 0.639269
0.121735 0.120008 0.639042
0.121023 0.118701 0.638999
0.120315 0.117398 0.638974
0.119665 0.116127 0.639173
0.119014 0.114857 0.639371
0.118348 0.113579 0.639506
0.117739 0.112331 0.639866
0.11719 0.111116 0.640473
0.116648 0.109905 0.641109
0.11611 0.108694 0.641762
0.115581 0.107488 0.642455
0.11501 0.106259 0.642979
0.114401 0.10501 0.643345
0.113753 0.103742 0.643552
0.11312 0.102481 0.643817
0.112466 0.101211 0.643996
0.111779 0.0999245 0.644038
0.111054 0.0986202 0.643915
0.110379 0.0973413 0.644
0.109652 0.0960382 0.643864
0.108932 0.0947395 0.643753
0.108177 0.0934254 0.643489
0.107451 0.0921263 0.643345
0.106688 0.090812 0.643043
0.10595 0.0895099 0.642838
0.105234 0.0882194 0.642728
0.10459 0.0869616 0.642923
0.10393 0.0856972 0.643048
0.103286 0.0844406 0.643243
0.102658 0.0831908 0.643503
0.102032 0.0819425 0.643775
0.101393 0.0806886 0.643986
0.100753 0.0794349 0.644193
0.100095 0.0781742 0.644318
0.0993999 0.0768992 0.644277
0.0986538 0.0756051 0.644004
0.097884 0.0743034 0.64362
0.0970149 0.0729654 0.642783
0.096021 0.0715831 0.641372
0.0949382 0.0701721 0.639543
0.0938168 0.0687523 0.637523
0.0926597 0.0673254 0.63532
0.0916281 0.0659496 0.633675
0.090741 0.0646293 0.632681
0.0899803 0.0633559 0.632262
0.0893087 0.0621146 0.63225
0.0886687 0.0608847 0.632384
0.0880237 0.0596537 0.632493
0.0873756 0.0584225 0.632585
0.086764 0.0572033 0.632847
0.0861456 0.0559822 0.633076
0.0855757 0.0547762 0.633535
0.0850315 0.0535774 0.634118
0.0845018 0.0523824 0.634772
0.083944 0.0511786 0.635292
0.083447 0.0499913 0.636108
0.0829665 0.0488073 0.637008
0.0824443 0.0476107 0.637709
0.0820354 0.0464427 0.638967
0.0821125 0.0453956 0.642616
0.0822416 0.044352 0.646551
0.0823888 0.0433034 0.650604
0.0825155 0.042241 0.654583
0.0825619 0.0411503 0.658192
0.0822624 0.039975 0.660094
0.082061 0.0388162 0.662502
0.0818869 0.0376577 0.665066
0.0816541 0.0364817 0.667348
0.0818642 0.0353861 0.671904
0.0826305 0.0343832 0.679336
0.0837058 0.0334169 0.688413
0.0848183 0.0324325 0.697757
0.0856496 0.0313778 0.705718
0.0858529 0.030203 0.710477
0.0857607 0.0289713 0.713731
0.0854199 0.0276955 0.715706
0.0850136 0.0264067 0.717349
0.0846042 0.0251136 0.718987
0.0841733 0.0238149 0.720521
0.147508 0.148551 0.687981
0.146772 0.147164 0.688052
0.146064 0.145796 0.688228
0.145347 0.144422 0.688366
0.144465 0.142948 0.687883
0.143642 0.141512 0.687613
0.142888 0.140119 0.687608
0.142139 0.138729 0.687613
0.125318 0.123366 0.639683
0.124467 0.121978 0.639112
0.123661 0.120617 0.638712
0.122907 0.119287 0.638514
0.122174 0.11797 0.638391
0.121429 0.116647 0.638216
0.120755 0.115364 0.638322
0.120079 0.114081 0.638419
0.119372 0.112782 0.638389
0.118724 0.111515 0.638589
0.118154 0.110289 0.639106
0.117592 0.109068 0.639656
0.117035 0.107849 0.640229
0.116508 0.106644 0.640922
0.115956 0.105426 0.641517
0.115367 0.104189 0.64196
0.114741 0.102933 0.642254
0.114129 0.101684 0.642604
0.113497 0.100426 0.642875
0.11283 0.0991508 0.642997
0.112127 0.0978587 0.642967
0.111454 0.0965818 0.643059
0.110766 0.0952987 0.643088
0.1101 0.0940266 0.643207
0.109367 0.0927241 0.643041
0.108662 0.0914353 0.642986
0.10795 0.0901451 0.642905
0.107229 0.0888512 0.642778
0.106516 0.0875624 0.642683
0.105892 0.0863134 0.642967
0.105251 0.0850569 0.643175
0.104609 0.0838008 0.643381
0.103983 0.0825516 0.643654
0.103358 0.0813031 0.64393
0.102717 0.0800483 0.644138
0.102058 0.0787865 0.644263
0.101394 0.0775236 0.644367
0.100695 0.0762472 0.64431
0.099963 0.074959 0.644106
0.0992137 0.0736657 0.64382
0.0983752 0.0723403 0.64313
0.0973656 0.0709538 0.641663
0.0962418 0.0695301 0.639668
0.0950641 0.0680927 0.63741
0.0938652 0.0666542 0.635037
0.0927982 0.0652688 0.633245
0.0918947 0.0639449 0.632185
0.0911334 0.0626725 0.631767
0.0904596 0.0614312 0.631748
0.089802 0.0601962 0.631801
0.0891407 0.0589607 0.631833
0.0884901 0.0577294 0.631914
0.0878767 0.0565103 0.632167
0.0872567 0.0552894 0.632388
0.0866862 0.0540835 0.632842
0.0861569 0.0528894 0.633492
0.0856306 0.0516954 0.634158
0.0850776 0.0504932 0.6347
0.0845832 0.0493064 0.635523
0.0841038 0.0481224 0.636423
0.0835803 0.0469255 0.637114
0.0830555 0.0457275 0.637801
0.0831108 0.0446722 0.641317
0.083223 0.0436217 0.645138
0.0834998 0.0426013 0.649793
0.0837479 0.0415626 0.654343
0.0840444 0.0405234 0.659165
0.0838866 0.0393753 0.661765
0.0838346 0.0382427 0.664911
0.0836601 0.0370782 0.667466
0.0834627 0.0359029 0.669926
0.0839453 0.0348504 0.675835
0.086702 0.0318207 0.700537
0.0874248 0.0307363 0.707894
0.0873147 0.0295049 0.711014
0.0872368 0.0282711 0.714323
0.0868933 0.0269922 0.716275
0.0864805 0.0257002 0.717877
0.0860386 0.0244006 0.719339
0.148221 0.146513 0.688235
0.14754 0.14516 0.688513
0.146841 0.143798 0.688725
0.145984 0.142339 0.68834
0.145187 0.140919 0.688179
0.144426 0.139522 0.688148
0.143668 0.138127 0.688125
0.142231 0.136335 0.685522
0.126395 0.122587 0.638776
0.125637 0.121254 0.63857
0.124886 0.119925 0.638389
0.124176 0.11862 0.638363
0.12347 0.117319 0.63835
0.122718 0.115993 0.638154
0.122 0.114687 0.638089
0.121283 0.113382 0.638022
0.120515 0.112051 0.637752
0.119788 0.110744 0.637643
0.119173 0.109495 0.637977
0.118569 0.108253 0.638354
0.11797 0.107013 0.638751
0.117424 0.105799 0.63936
0.116873 0.104582 0.639952
0.116286 0.103348 0.640402
0.115683 0.102105 0.640785
0.115077 0.100861 0.641157
0.114486 0.0996234 0.641591
0.113842 0.0983605 0.641804
0.113179 0.0970893 0.64194
0.112512 0.0958164 0.642055
0.111861 0.0945518 0.642239
0.111198 0.0932822 0.64237
0.110502 0.0919977 0.642359
0.109816 0.0907191 0.642391
0.109142 0.0894463 0.642468
0.108455 0.0881687 0.64249
0.107777 0.0868955 0.642546
0.107172 0.0856543 0.642909
0.106549 0.084406 0.643201
0.105925 0.0831572 0.643487
0.105301 0.0819086 0.64377
0.104678 0.0806603 0.644056
0.104037 0.0794054 0.644267
0.103376 0.0781425 0.644384
0.102691 0.0768711 0.6444
0.10199 0.0755942 0.644341
0.101257 0.074306 0.644136
0.100526 0.0730201 0.643937
0.0997239 0.0717092 0.643418
0.0987651 0.0703431 0.642192
0.0976221 0.0689147 0.64013
0.0964025 0.067465 0.637706
0.0951539 0.0660122 0.635129
0.0940132 0.0646038 0.633019
0.0930428 0.0632591 0.631665
0.0922648 0.0619826 0.631176
0.0915883 0.0607412 0.631146
0.0909151 0.0595019 0.631128
0.0902537 0.0582674 0.631162
0.0896054 0.0570376 0.631253
0.0889924 0.0558192 0.631507
0.0883715 0.0545988 0.631724
0.0877977 0.0533923 0.63216
0.0872698 0.0521988 0.632813
0.08676 0.0510095 0.633554
0.0862264 0.0498127 0.634184
0.0857352 0.0486265 0.635019
0.0852566 0.0474424 0.635917
0.0847331 0.0462454 0.636605
0.0844345 0.0451033 0.638379
0.0846369 0.044078 0.642588
0.0848941 0.0430564 0.64709
0.0853102 0.0420593 0.652402
0.0856868 0.0410407 0.65756
0.0858745 0.0399684 0.661828
0.0857008 0.0388104 0.664344
0.0856568 0.0376726 0.667521
0.0854781 0.0365007 0.670051
0.085575 0.0353758 0.673973
0.0864037 0.034374 0.681594
0.0883913 0.0323673 0.698684
0.0893435 0.0313239 0.707118
0.0896577 0.0301599 0.712366
0.0891834 0.0288654 0.71362
0.088781 0.0275789 0.71525
0.0883823 0.0262898 0.716909
0.0879012 0.0249864 0.718152
0.149705 0.145881 0.688541
0.149045 0.144541 0.688901
0.148368 0.14319 0.689196
0.147569 0.141768 0.689036
0.146721 0.140317 0.688689
0.145964 0.138922 0.68868
0.145176 0.137509 0.688549
0.144376 0.13609 0.688371
0.143723 0.134758 0.688749
0.126769 0.12051 0.637888
0.126098 0.119226 0.638014
0.125433 0.117947 0.638167
0.124752 0.116659 0.638255
0.124002 0.115335 0.638069
0.123278 0.114026 0.637984
0.122556 0.11272 0.637903
0.121745 0.111367 0.637466
0.120975 0.110038 0.63719
0.120299 0.108758 0.637277
0.119629 0.107483 0.637393
0.118968 0.106211 0.637537
0.11838 0.104978 0.637978
0.117794 0.103745 0.638423
0.117192 0.102504 0.638806
0.116592 0.101264 0.639196
0.116005 0.100031 0.639642
0.115437 0.0988057 0.640164
0.114817 0.0975557 0.640472
0.114211 0.0963126 0.64084
0.113581 0.0950587 0.641111
0.112951 0.0938045 0.641378
0.112306 0.0925437 0.64158
0.111647 0.0912772 0.641726
0.110982 0.0900088 0.641846
0.11033 0.0887463 0.642016
0.109663 0.0874781 0.642125
0.109003 0.0862132 0.642259
0.108397 0.084972 0.642622
0.107792 0.0837307 0.642986
0.107186 0.0824895 0.643349
0.10658 0.0812483 0.643713
0.105975 0.0800071 0.644076
0.105351 0.0787587 0.644362
0.10469 0.0774959 0.644487
0.104007 0.0762252 0.644513
0.103321 0.0749539 0.644521
0.102605 0.0736725 0.644397
0.101909 0.0723996 0.644358
0.101147 0.0711036 0.644024
0.100257 0.0697635 0.64312
0.0991476 0.0683486 0.641228
0.0979 0.0668912 0.638703
0.096586 0.0654183 0.635858
0.0953769 0.0639888 0.633462
0.0943157 0.0626154 0.631713
0.0934553 0.0613126 0.630857
0.0927438 0.0600606 0.630671
0.0920679 0.0588212 0.630643
0.0913934 0.0575832 0.630618
0.0907501 0.0563557 0.630733
0.0901392 0.0551383 0.630997
0.0895186 0.0539184 0.631215
0.0889294 0.0527078 0.631578
0.0884003 0.051514 0.632222
0.0878914 0.0503249 0.632962
0.0873748 0.0491326 0.63367
0.0868862 0.0479469 0.634512
0.0864068 0.0467622 0.635403
0.0861255 0.0456253 0.63724
0.0860779 0.0445412 0.640206
0.0864414 0.0435473 0.645167
0.0868573 0.0425526 0.650417
0.0874018 0.0415737 0.656328
0.0876609 0.040519 0.660895
0.0877474 0.0394158 0.664656
0.0875511 0.0382466 0.667058
0.0874985 0.0370999 0.670182
0.087311 0.0359204 0.672664
0.0876994 0.0348405 0.678017
0.0885655 0.033832 0.685786
0.087449 0.0333913 0.690363
0.0895951 0.0328312 0.694432
0.0904739 0.0317835 0.702387
0.0913299 0.0307112 0.71029
0.091291 0.0294842 0.71373
0.090766 0.0281791 0.714728
0.0903096 0.0268823 0.716078
0.0898542 0.0255825 0.717443
0.151246 0.145281 0.689048
0.150593 0.143944 0.689438
0.149914 0.142592 0.689729
0.149136 0.141182 0.689653
0.14828 0.139727 0.689283
0.147488 0.138311 0.689149
0.146655 0.136872 0.688855
0.145826 0.135437 0.688576
0.145132 0.13408 0.688796
0.144458 0.132736 0.689094
0.126996 0.117438 0.639149
0.126314 0.116149 0.639237
0.125571 0.114828 0.639089
0.124849 0.11352 0.639018
0.124128 0.112212 0.638946
0.123125 0.11076 0.637768
0.122329 0.109418 0.637395
0.121571 0.108097 0.637165
0.120818 0.10678 0.636951
0.120075 0.105468 0.636772
0.119446 0.104215 0.637045
0.118804 0.102955 0.637265
0.118181 0.101705 0.637561
0.117557 0.100455 0.63785
0.11695 0.0992125 0.63821
0.116365 0.0979808 0.638658
0.115765 0.0967418 0.639046
0.115201 0.0955191 0.639579
0.11461 0.0942844 0.640008
0.114019 0.0930488 0.640432
0.113411 0.0918059 0.640789
0.112787 0.0905558 0.641079
0.112144 0.0892973 0.641287
0.111533 0.0880534 0.64163
0.110906 0.0868028 0.641908
0.110266 0.0855467 0.642129
0.10966 0.0843052 0.642492
0.109053 0.083063 0.642848
0.108429 0.0818141 0.643134
0.107806 0.080566 0.643425
0.107201 0.0793248 0.643789
0.106578 0.078077 0.64408
0.105936 0.0768218 0.644288
0.105274 0.0755592 0.644405
0.104609 0.0742963 0.644509
0.103927 0.0730279 0.644539
0.103266 0.0717677 0.644657
0.102557 0.0704909 0.644562
0.101739 0.069177 0.643987
0.100719 0.0677949 0.64251
0.0995539 0.0663676 0.640375
0.0983268 0.0649257 0.637947
0.0970556 0.0634763 0.635302
0.0959102 0.0620754 0.633198
0.0949473 0.0607392 0.631897
0.0940985 0.0594432 0.631098
0.0932932 0.0581634 0.630489
0.0925847 0.0569154 0.630312
0.0919092 0.0556787 0.630283
0.0912537 0.0544486 0.630342
0.0906475 0.0532335 0.630625
0.0900598 0.0520237 0.630994
0.0895479 0.0508346 0.631714
0.089056 0.0496498 0.63253
0.0885679 0.0484649 0.633368
0.0880957 0.0472827 0.634284
0.08785 0.0461556 0.636271
0.0878364 0.0450804 0.639368
0.0880937 0.0440622 0.643772
0.0886396 0.0430992 0.649584
0.0891951 0.0421242 0.655484
0.0896065 0.0411033 0.660734
0.0897149 0.0400055 0.664562
0.0896125 0.0388545 0.667399
0.0893399 0.0376642 0.669426
0.0892135 0.0364971 0.67218
0.0892749 0.035358 0.675874
0.0899412 0.0343178 0.68257
0.0909457 0.0333186 0.690986
0.0919074 0.0322897 0.699256
0.0926443 0.0312048 0.706467
0.0930481 0.03005 0.712071
0.0928783 0.0287981 0.714839
0.0923191 0.0274857 0.715666
0.0918188 0.0261802 0.716793
0.152196 0.143377 0.690163
0.151506 0.142017 0.69042
0.150727 0.140607 0.690347
0.149848 0.139138 0.6899
0.149032 0.137708 0.689683
0.148157 0.136246 0.68924
0.147305 0.134799 0.688881
0.1466 0.133435 0.689063
0.145909 0.132081 0.689299
0.127662 0.11459 0.642104
0.126936 0.113277 0.64203
0.126155 0.111935 0.641739
0.124989 0.110399 0.639946
0.123973 0.108944 0.638726
0.12305 0.107539 0.637858
0.122173 0.106159 0.637163
0.121344 0.104806 0.63665
0.120637 0.103515 0.636616
0.11997 0.102243 0.636738
0.119305 0.100974 0.636865
0.118637 0.099703 0.63698
0.118005 0.0984495 0.637233
0.117398 0.0972084 0.637592
0.116783 0.0959631 0.637914
0.11622 0.094742 0.63845
0.115654 0.093519 0.638974
0.115086 0.0922947 0.63949
0.114501 0.0910626 0.639939
0.113916 0.0898303 0.640388
0.11331 0.0885887 0.64075
0.112721 0.0873544 0.641184
0.112135 0.0861211 0.641629
0.111516 0.084874 0.641938
0.11091 0.0836326 0.642305
0.110301 0.0823895 0.642653
0.109673 0.0811392 0.642924
0.109032 0.0798837 0.643138
0.108426 0.0786425 0.643502
0.107821 0.0774013 0.643865
0.107198 0.0761536 0.644157
0.106556 0.0748988 0.644364
0.105912 0.0736437 0.644562
0.105268 0.0723889 0.644757
0.104626 0.0711354 0.644961
0.103968 0.0698765 0.645094
0.103223 0.0685879 0.644843
0.102295 0.0672384 0.643788
0.101229 0.0658458 0.642114
0.100113 0.0644421 0.640206
0.0989173 0.0630179 0.637924
0.0978054 0.0616273 0.635997
0.0968564 0.0602936 0.634781
0.0958473 0.0589455 0.633283
0.0948712 0.0576121 0.631921
0.0939818 0.0563089 0.630937
0.0931477 0.0550252 0.630194
0.0923464 0.0537537 0.629592
0.0917719 0.0525481 0.63002
0.0912017 0.0513435 0.630467
0.0906948 0.0501555 0.631207
0.0902052 0.0489711 0.632029
0.0897176 0.0477861 0.632865
0.089465 0.0466583 0.634799
0.0894926 0.0455947 0.638055
0.0897913 0.0445877 0.642606
0.0903592 0.0436316 0.648458
0.0910932 0.0426982 0.655139
0.0915314 0.0416837 0.660464
0.0917495 0.040609 0.664778
0.0916658 0.0394618 0.667679
0.0913574 0.0382628 0.66952
0.0910096 0.037053 0.671181
0.0908023 0.0358652 0.673535
0.0911805 0.0347773 0.67875
0.0921527 0.0337787 0.686904
0.0932426 0.0327787 0.695696
0.0942215 0.0317382 0.70401
0.094939 0.0306359 0.711095
0.0949667 0.0294138 0.714814
0.0944925 0.0281128 0.716062
0.0938882 0.0267926 0.716662
0.15403 0.142942 0.691723
0.1533 0.141557 0.691835
0.152513 0.14014 0.691743
0.151565 0.138632 0.691052
0.150701 0.137174 0.690665
0.149798 0.135696 0.69013
0.148881 0.134212 0.689535
0.148133 0.132824 0.689566
0.147437 0.131466 0.689787
0.146686 0.130078 0.689799
0.130474 0.114715 0.647839
0.129391 0.113212 0.646419
0.12834 0.111729 0.645105
0.127024 0.110116 0.642759
0.125863 0.108587 0.640992
0.124779 0.107101 0.639514
0.123788 0.105665 0.638387
0.122852 0.10426 0.637468
0.122062 0.102928 0.637111
0.121315 0.101618 0.636918
0.120568 0.100309 0.636726
0.119818 0.099 0.636515
0.119126 0.0977195 0.636532
0.11846 0.0964516 0.636651
0.117821 0.0951966 0.636878
0.11724 0.093968 0.637337
0.116695 0.0927551 0.637942
0.116153 0.0915426 0.638559
0.115593 0.0903222 0.639107
0.115048 0.0891074 0.639716
0.11448 0.0878826 0.640234
0.113929 0.0866643 0.640822
0.113383 0.0854476 0.641432
0.112804 0.0842168 0.641906
0.1122 0.0829757 0.64228
0.111586 0.0817305 0.642611
0.110937 0.0804716 0.642795
0.110275 0.0792081 0.642923
0.109652 0.0779602 0.643214
0.109047 0.076719 0.643578
0.108441 0.0754776 0.643942
0.107818 0.0742302 0.644233
0.107195 0.0729824 0.644519
0.10657 0.0717347 0.644802
0.105947 0.0704875 0.645088
0.105306 0.0692347 0.645301
0.10463 0.0679697 0.645355
0.103829 0.0666638 0.644865
0.102898 0.065317 0.6438
0.101941 0.0639651 0.642608
0.100882 0.0625848 0.640959
0.0998417 0.0612154 0.639377
0.0988952 0.0598799 0.638196
0.0977971 0.0585025 0.636329
0.0968228 0.0571675 0.634999
0.0959549 0.0558679 0.634134
0.0949489 0.054532 0.632637
0.0939741 0.0532096 0.631268
0.0933667 0.0519924 0.631553
0.0925929 0.0507307 0.631079
0.0918869 0.0494889 0.630909
0.0913849 0.0483008 0.631671
0.0911343 0.0471746 0.633595
0.0911518 0.0461096 0.636771
0.0914793 0.0451109 0.641407
0.0920811 0.0441645 0.647354
0.0929391 0.0432612 0.654541
0.0935354 0.0422816 0.660555
0.0938388 0.0412253 0.66523
0.09378 0.0400822 0.668224
0.0934642 0.0388808 0.670018
0.0929485 0.0376364 0.67087
0.0925061 0.0364045 0.672077
0.0921825 0.0351918 0.673861
0.0929214 0.0341609 0.680784
0.0942383 0.0332094 0.690558
0.0954712 0.0322177 0.7
0.0964679 0.0311655 0.708358
0.0971744 0.0300482 0.715358
0.0968653 0.0287688 0.717412
0.0961028 0.0274242 0.717239
0.0954414 0.0260946 0.717561
0.155778 0.14245 0.692945
0.155059 0.14107 0.693106
0.154265 0.139649 0.692996
0.153351 0.13816 0.69244
0.152435 0.136672 0.691873
0.1515 0.135176 0.69123
0.150525 0.13366 0.690432
0.149699 0.132228 0.690178
0.14897 0.130852 0.690281
0.148211 0.129459 0.69027
0.133222 0.114787 0.65326
0.131878 0.113148 0.650871
0.130588 0.111542 0.648669
0.12918 0.109883 0.645995
0.12792 0.108305 0.643873
0.126715 0.106759 0.641949
0.125607 0.105266 0.640385
0.124543 0.103798 0.638979
0.123623 0.102403 0.638126
0.122749 0.101032 0.637445
0.1219 0.0996759 0.636854
0.121072 0.0983314 0.636341
0.120335 0.0970307 0.636183
0.119608 0.0957356 0.636061
0.118945 0.0944704 0.63619
0.118342 0.0932323 0.636559
0.117796 0.0920193 0.637157
0.117273 0.0908155 0.63785
0.116755 0.0896131 0.638563
0.116233 0.0884082 0.639264
0.115687 0.0871923 0.639869
0.115173 0.0859894 0.640609
0.114648 0.0847808 0.641303
0.114089 0.0835578 0.641861
0.113507 0.082325 0.642324
0.112892 0.0810793 0.642654
0.112239 0.0798186 0.642825
0.111574 0.0785538 0.642942
0.11095 0.0773051 0.64323
0.110329 0.0760576 0.643527
0.109721 0.0748155 0.643885
0.109096 0.0735669 0.644168
0.108472 0.0723189 0.644454
0.10785 0.0710716 0.644745
0.107244 0.0698304 0.645108
0.106622 0.0685835 0.6454
0.10598 0.0673301 0.645607
0.105284 0.0660594 0.64558
0.104501 0.0647611 0.645169
0.103695 0.0634578 0.644658
0.102806 0.0621304 0.643772
0.101898 0.0608002 0.642794
0.101024 0.0594841 0.64196
0.100006 0.0581281 0.640477
0.0990783 0.0568031 0.63938
0.0982447 0.0555088 0.638694
0.0972742 0.0541788 0.637387
0.0963446 0.0528643 0.636251
0.0954714 0.0515691 0.635358
0.094449 0.0502378 0.633782
0.0934787 0.048925 0.632426
0.0929736 0.0477333 0.633179
0.0927588 0.0466115 0.635262
0.0930739 0.0456116 0.639791
0.0937163 0.0446768 0.64586
0.0946089 0.0437834 0.653131
0.0952279 0.0428117 0.659183
0.09554 0.0417581 0.66385
0.0955701 0.0406352 0.667228
0.0952453 0.0394324 0.668963
0.0947189 0.0381867 0.669758
0.0942377 0.0369491 0.670768
0.0938513 0.0357263 0.672235
0.0935459 0.0345144 0.674099
0.094639 0.0335359 0.682671
0.0960554 0.0325876 0.692863
0.0973445 0.0315921 0.702518
0.098357 0.0305291 0.710908
0.099079 0.0294035 0.717944
0.0984676 0.0280774 0.71852
0.0976667 0.026727 0.718167
0.0969847 0.0253925 0.718395
0.157598 0.141995 0.69441
0.156856 0.1406 0.694494
0.156039 0.139164 0.694307
0.15515 0.137689 0.693855
0.154181 0.136172 0.693108
0.153188 0.134644 0.692263
0.15218 0.13311 0.691357
0.151295 0.131647 0.690894
0.150528 0.130248 0.690859
0.149703 0.12882 0.690611
0.136738 0.116196 0.658775
0.135463 0.114585 0.656691
0.134126 0.11295 0.654358
0.132808 0.11133 0.652077
0.131333 0.109639 0.64918
0.130001 0.108025 0.64681
0.128741 0.106452 0.644694
0.127579 0.104932 0.642947
0.126441 0.103429 0.641273
0.125424 0.101987 0.640061
0.124435 0.100562 0.638946
0.123455 0.0991444 0.637852
0.1225 0.0977419 0.63685
0.121646 0.0963881 0.636237
0.120836 0.0950567 0.635793
0.120131 0.0937729 0.635755
0.119487 0.0925172 0.635961
0.118921 0.0912957 0.636478
