ply
format ascii 1.0
element vertex 1614
property float x
property float y
property float z
end_header
0.042129 -0.0178355 0.123501
0.0423426 -0.0176669 0.123579
0.0425542 -0.0174973 0.123649
0.0427818 -0.0173316 0.123771
0.0430137 -0.0171665 0.123907
0.0432434 -0.0170004 0.124033
0.0434776 -0.016835 0.124174
0.043712 -0.0166693 0.124314
0.0439202 -0.0164971 0.124368
0.044139 -0.016327 0.124455
0.0443498 -0.016155 0.124516
0.0445761 -0.015986 0.124625
0.0448365 -0.0158238 0.124844
0.0451308 -0.0156675 0.125168
0.0454376 -0.015513 0.125529
0.0457543 -0.0153591 0.125918
0.04609 -0.0152076 0.126364
0.0464092 -0.0150519 0.126755
0.0468745 -0.0150813 0.127005
0.046731 -0.0148954 0.12715
0.0295753 -0.0343965 0.139027
0.0297418 -0.0341685 0.13881
0.0299087 -0.0339416 0.138598
0.0300583 -0.0337007 0.138301
0.0302156 -0.0334677 0.138046
0.0303892 -0.0332495 0.137876
0.0305753 -0.0330425 0.137772
0.0307659 -0.0328395 0.137691
0.0309504 -0.0326319 0.137581
0.0311403 -0.032429 0.137498
0.0313291 -0.0322256 0.137411
0.0315019 -0.0320101 0.137247
0.0316673 -0.0317896 0.13705
0.0318405 -0.0315758 0.136892
0.0320107 -0.0313604 0.136722
0.0321717 -0.0311389 0.13651
0.0323491 -0.0309301 0.136377
0.0325348 -0.0307278 0.136285
0.0327246 -0.0305287 0.136213
0.0321968 -0.0288745 0.130075
0.0323409 -0.0286583 0.129834
0.0324735 -0.0284356 0.129543
0.0325883 -0.0282026 0.129177
0.0327073 -0.0279737 0.128833
0.0328346 -0.0277513 0.128529
0.032981 -0.0275418 0.128313
0.0331345 -0.0273374 0.12813
0.0332843 -0.0271314 0.127934
0.033431 -0.0269243 0.127725
0.0335788 -0.0267187 0.127524
0.0337265 -0.0265137 0.127325
0.0338746 -0.0263097 0.127129
0.0340236 -0.0261069 0.126939
0.0341754 -0.0259062 0.126762
0.0343291 -0.0257073 0.126596
0.034476 -0.0255053 0.126403
0.0346225 -0.0253037 0.12621
0.0347652 -0.0251009 0.126003
0.0349132 -0.0249015 0.12582
0.0350545 -0.0246994 0.125612
0.0352029 -0.0245014 0.125434
0.0353584 -0.0243076 0.125287
0.0355179 -0.0241162 0.125158
0.0356739 -0.0239235 0.125015
0.0358255 -0.0237293 0.124857
0.0359715 -0.023533 0.124678
0.0361032 -0.0233309 0.124444
0.0362443 -0.0231337 0.124249
0.0363897 -0.022939 0.124074
0.0365437 -0.0227487 0.123932
0.0367019 -0.0225605 0.123809
0.0368699 -0.0223769 0.123724
0.0370448 -0.0221964 0.123666
0.0372171 -0.022015 0.123599
0.0374043 -0.0218397 0.123589
0.0375952 -0.0216658 0.123592
0.0377871 -0.0214924 0.123599
0.0379715 -0.0213159 0.123578
0.0381584 -0.0211405 0.123567
0.0383339 -0.0209609 0.123513
0.0385088 -0.0207812 0.123458
0.0386875 -0.020603 0.123416
0.0388668 -0.0204251 0.123378
0.0390543 -0.0202502 0.123369
0.0392496 -0.0200778 0.123389
0.0394497 -0.019907 0.123425
0.03965 -0.0197361 0.123462
0.0398535 -0.019566 0.123509
0.0400492 -0.0193934 0.123529
0.0402367 -0.0192181 0.123519
0.0404273 -0.0190437 0.12352
0.0406105 -0.018867 0.123495
0.040794 -0.0186906 0.123472
0.0409815 -0.0185153 0.123462
0.0411767 -0.0183421 0.123479
0.0413648 -0.018167 0.123472
0.0415606 -0.0179938 0.12349
0.041756 -0.0178206 0.123507
0.0419641 -0.0176506 0.123567
0.0421741 -0.0174807 0.123632
0.0423895 -0.0173121 0.123715
0.0426166 -0.0171461 0.123837
0.0428443 -0.0169798 0.123958
0.0430728 -0.0168133 0.124082
0.0433064 -0.0166475 0.124221
0.0435362 -0.0164806 0.124347
0.0437408 -0.0163075 0.124389
0.0439546 -0.0161363 0.12446
0.0441601 -0.0159632 0.124504
0.0443727 -0.0157914 0.124571
0.0446181 -0.0156259 0.124741
0.0449059 -0.0154683 0.125047
0.0452122 -0.0153134 0.125409
0.0455342 -0.0151603 0.125817
0.0458836 -0.0150111 0.126308
0.0462173 -0.0148576 0.126746
0.0465433 -0.0147017 0.127157
0.0470254 -0.0147331 0.127457
0.0468364 -0.0145389 0.127461
0.0294093 -0.0342127 0.139195
0.0295778 -0.0339861 0.138987
0.0297384 -0.0337535 0.138741
0.0298921 -0.033516 0.138461
0.0300501 -0.0332834 0.138208
0.0302241 -0.0330653 0.138039
0.0304075 -0.0328557 0.137919
0.0305982 -0.0326526 0.137837
0.030783 -0.0324451 0.137728
0.0309735 -0.0322426 0.137647
0.0311663 -0.0320421 0.137579
0.0313397 -0.0318268 0.137417
0.0315051 -0.0316061 0.137217
0.0316718 -0.0313872 0.137026
0.0318411 -0.0311709 0.13685
0.0319955 -0.0309445 0.136605
0.0321713 -0.0307344 0.136463
0.0323547 -0.0305304 0.13636
0.0325445 -0.0303313 0.136287
0.0320127 -0.0286771 0.130095
0.0321593 -0.0284627 0.129864
0.0322832 -0.0282345 0.129533
0.0323954 -0.0280002 0.129153
0.0325149 -0.0277719 0.12881
0.0326421 -0.0275497 0.128505
0.0327852 -0.0273384 0.128273
0.032935 -0.027132 0.128074
0.0330818 -0.0269245 0.127864
0.033228 -0.0267175 0.127653
0.0333763 -0.0265124 0.127453
0.0335245 -0.0263081 0.127255
0.0336766 -0.0261066 0.127076
0.0338258 -0.0259042 0.126887
0.0339734 -0.0257016 0.126692
0.03412 -0.025499 0.126495
0.0342624 -0.0252951 0.126283
0.0344057 -0.0250923 0.126077
0.0345518 -0.0248916 0.125884
0.0347009 -0.0246932 0.125706
0.0348492 -0.0244949 0.125526
0.0350011 -0.0242991 0.125363
0.0351601 -0.0241073 0.12523
0.0353204 -0.0239164 0.125103
0.0354801 -0.0237258 0.124975
0.0356318 -0.0235319 0.124817
0.0357781 -0.023336 0.124639
0.0359099 -0.0231342 0.124405
0.0360515 -0.0229375 0.124212
0.0361973 -0.0227433 0.124037
0.0363515 -0.0225533 0.123896
0.0365095 -0.0223652 0.123772
0.0366773 -0.0221817 0.123686
0.0368482 -0.0219997 0.123613
0.0370168 -0.021817 0.123532
0.0371962 -0.0216388 0.123493
0.0373797 -0.0214623 0.123469
0.0375634 -0.0212859 0.123446
0.0377432 -0.0211081 0.123409
0.0379224 -0.0209302 0.123369
0.0380973 -0.0207508 0.123314
0.0382721 -0.0205715 0.12326
0.038451 -0.0203938 0.12322
0.0386305 -0.0202164 0.123183
0.0388247 -0.0200441 0.1232
0.0390236 -0.0198732 0.123234
0.039231 -0.019705 0.123297
0.0394393 -0.0195369 0.123363
0.0396514 -0.0193698 0.123443
0.0398555 -0.0191999 0.123493
0.0400515 -0.0190273 0.123513
0.040243 -0.0188532 0.123518
0.0404305 -0.0186779 0.123509
0.0406215 -0.0185037 0.123511
0.0408131 -0.0183295 0.123516
0.0410085 -0.0181564 0.123534
0.0412003 -0.0179823 0.123539
0.0413954 -0.0178089 0.123555
0.0415909 -0.0176355 0.123572
0.0417995 -0.0174655 0.123633
0.0420098 -0.0172958 0.1237
0.0422293 -0.0171279 0.123797
0.042456 -0.0169617 0.123917
0.0426792 -0.0167941 0.124025
0.042903 -0.0166263 0.124133
0.0431363 -0.0164603 0.124272
0.0433619 -0.0162922 0.124384
0.0435622 -0.0161181 0.124412
0.0437673 -0.0159452 0.124456
0.0439673 -0.0157709 0.124482
0.0441704 -0.015597 0.124518
0.0443973 -0.0154279 0.124631
0.0446696 -0.0152672 0.124888
0.0449724 -0.0151114 0.125241
0.0452898 -0.0149573 0.125637
0.04564 -0.0148082 0.126134
0.0459871 -0.0146569 0.126617
0.0463253 -0.0145027 0.127068
0.0466229 -0.0143404 0.127388
0.0292937 -0.0340742 0.139632
0.0294336 -0.0338213 0.13927
0.0295762 -0.0335725 0.138927
0.0297304 -0.0333351 0.138647
0.0298887 -0.0331025 0.138393
0.0300631 -0.0328844 0.138224
0.0302438 -0.0326724 0.138089
0.0304346 -0.0324691 0.138006
0.0306197 -0.0322615 0.137896
0.0308074 -0.0320565 0.137801
0.0310035 -0.0318584 0.137748
0.0311772 -0.0316431 0.137585
0.0313426 -0.0314222 0.137384
0.0315057 -0.0312004 0.137174
0.0316746 -0.0309836 0.136994
0.0318254 -0.0307544 0.136729
0.0320018 -0.0305448 0.13659
0.0321358 -0.0303054 0.136251
0.0322428 -0.0300484 0.135788
0.0317514 -0.0287415 0.130672
0.0318223 -0.0284755 0.130087
0.0319658 -0.0282593 0.12984
0.0320934 -0.0280339 0.129525
0.0322031 -0.0277982 0.129132
0.0323259 -0.0275723 0.128802
0.032453 -0.0273502 0.128495
0.0325933 -0.0271375 0.12825
0.0327396 -0.0269292 0.128035
0.0328831 -0.0267201 0.127809
0.0330255 -0.0265111 0.127581
0.0331744 -0.0263068 0.127384
0.0333261 -0.0261047 0.127201
0.0334788 -0.0259038 0.127024
0.033628 -0.0257016 0.126833
0.0337717 -0.0254972 0.126622
0.0339105 -0.0252909 0.126392
0.0340489 -0.0250851 0.126163
0.0341888 -0.0248809 0.125942
0.0343358 -0.0246812 0.125753
0.0344856 -0.0244836 0.125578
0.0346413 -0.0242894 0.125428
0.0347969 -0.0240957 0.12528
0.0349603 -0.0239063 0.125165
0.0351241 -0.0237175 0.125053
0.0352875 -0.0235288 0.12494
0.0354389 -0.0233349 0.12478
0.0355889 -0.023141 0.124616
0.0357213 -0.0229397 0.124384
0.0358637 -0.0227436 0.124193
0.0360098 -0.0225498 0.124018
0.0361637 -0.0223598 0.123876
0.0363179 -0.0221704 0.123737
0.0364817 -0.0219854 0.123636
0.0366491 -0.0218022 0.123549
0.0368138 -0.0216181 0.123453
0.0369892 -0.0214386 0.123399
0.0371686 -0.0212607 0.123361
0.0373478 -0.0210829 0.123321
0.0375231 -0.0209037 0.123268
0.0376974 -0.0207243 0.123211
0.0378682 -0.0205437 0.123141
0.0380392 -0.0203635 0.123073
0.0382178 -0.0201861 0.123034
0.038397 -0.020009 0.122997
0.038591 -0.0198369 0.123014
0.0387896 -0.0196663 0.123048
0.038997 -0.0194984 0.123113
0.0392093 -0.0193319 0.123195
0.0394289 -0.0191673 0.123302
0.0396412 -0.0190001 0.123382
0.0398494 -0.0188314 0.123447
0.0400488 -0.0186599 0.12348
0.0402439 -0.0184869 0.123498
0.0404352 -0.0183128 0.123502
0.040627 -0.0181388 0.123507
0.040819 -0.0179648 0.123514
0.0410147 -0.0177918 0.123532
0.0412103 -0.0176185 0.12355
0.0414103 -0.0174464 0.123583
0.041623 -0.0172775 0.12366
0.0418377 -0.0171087 0.123742
0.042057 -0.0169407 0.123838
0.0422837 -0.0167743 0.123959
0.042507 -0.0166066 0.124067
0.042727 -0.0164378 0.124163
0.0429595 -0.0162715 0.1243
0.0431847 -0.0161033 0.124412
0.0433803 -0.0159282 0.124425
0.0435807 -0.0157542 0.124453
0.0437797 -0.0155797 0.124476
0.0439736 -0.0154041 0.124483
0.0441867 -0.0152321 0.124551
0.0444436 -0.0150684 0.124761
0.0447306 -0.0149096 0.125065
0.0450362 -0.0147533 0.125426
0.0453809 -0.0146029 0.125909
0.0457323 -0.0144522 0.126409
0.0460756 -0.0142987 0.126878
0.0463816 -0.0141378 0.127227
0.0469079 -0.0141752 0.127666
0.0466655 -0.0139724 0.127504
0.0290666 -0.0342167 0.140599
0.0291632 -0.0339221 0.139996
0.0292875 -0.0336547 0.139546
0.0294154 -0.0333925 0.139121
0.0295663 -0.0331521 0.138822
0.0297246 -0.0329192 0.138565
0.0299022 -0.0327036 0.138411
0.0300829 -0.0324912 0.138274
0.0302738 -0.0322878 0.138191
0.0304619 -0.0320823 0.138095
0.0306494 -0.0318768 0.137997
0.0308461 -0.0316788 0.137945
0.0310166 -0.0314609 0.137765
0.0311825 -0.0312401 0.137564
0.0313388 -0.0310129 0.137318
0.0314981 -0.0307889 0.13709
0.0316417 -0.0305544 0.136789
0.0318178 -0.0303445 0.136647
0.031894 -0.0300643 0.136031
0.0315672 -0.0285439 0.130695
0.0316513 -0.0282868 0.130167
0.0317867 -0.0280655 0.129883
0.0319072 -0.0278356 0.129533
0.0320169 -0.0276002 0.129138
0.0321369 -0.0273727 0.128794
0.0322581 -0.0271473 0.128459
0.0323983 -0.0269347 0.128212
0.0325382 -0.0267229 0.127968
0.0326814 -0.0265139 0.12774
0.0328208 -0.0263035 0.127499
0.0329724 -0.026101 0.127313
0.0331246 -0.0258996 0.127132
0.0332808 -0.025701 0.12697
0.0334268 -0.0254973 0.126765
0.0335674 -0.0252915 0.12654
0.0337021 -0.0250834 0.126292
0.0338368 -0.0248761 0.126047
0.0339731 -0.0246705 0.125811
0.034124 -0.0244732 0.125638
0.0342812 -0.0242796 0.125493
0.0344411 -0.0240879 0.125361
0.0346041 -0.0238981 0.125243
0.0347748 -0.0237124 0.125158
0.0349392 -0.0235239 0.125048
0.035106 -0.023337 0.124948
0.0352573 -0.0231433 0.124787
0.0354075 -0.0229496 0.124623
0.0355404 -0.0227488 0.124392
0.0356834 -0.0225531 0.124203
0.035826 -0.0223579 0.124015
0.0359793 -0.0221679 0.12387
0.0361298 -0.0219771 0.123715
0.0362901 -0.0217908 0.1236
0.0364539 -0.0216064 0.1235
0.0366182 -0.0214224 0.123402
0.0367897 -0.0212415 0.123333
0.0369612 -0.0210608 0.123265
0.0371326 -0.0208803 0.123197
0.0373034 -0.0206997 0.123127
0.0374704 -0.020518 0.123043
0.0376371 -0.0203364 0.122959
0.0378073 -0.0201562 0.122889
0.0379855 -0.0199791 0.122849
0.0381644 -0.0198022 0.122811
0.0383546 -0.0196292 0.122816
0.0385527 -0.0194588 0.122849
0.0387597 -0.0192911 0.122914
0.0389749 -0.0191258 0.123008
0.0391987 -0.0189628 0.123132
0.0394186 -0.0187982 0.123241
0.0396306 -0.0186308 0.123321
0.0398376 -0.0184617 0.123382
0.0400365 -0.0182901 0.123414
0.0402319 -0.0181173 0.123432
0.0404277 -0.0179445 0.123453
0.040624 -0.0177718 0.123474
0.04082 -0.0175989 0.123495
0.0410198 -0.0174269 0.123528
0.0412243 -0.017256 0.123577
0.0414378 -0.0170872 0.123656
0.0416565 -0.0169194 0.123752
0.0418792 -0.0167522 0.123861
0.0421024 -0.0165848 0.12397
0.0423256 -0.016417 0.124079
0.0425493 -0.016249 0.124188
0.0427776 -0.0160816 0.124312
0.0429986 -0.0159123 0.12441
0.0431973 -0.015738 0.124433
0.0433933 -0.015563 0.124447
0.0435879 -0.0153877 0.124457
0.043777 -0.0152112 0.124448
0.043981 -0.0150376 0.124488
0.0442192 -0.0148703 0.124638
0.0444942 -0.0147092 0.124905
0.0447883 -0.0145507 0.125231
0.0451223 -0.0143982 0.125682
0.0454768 -0.0142478 0.126195
0.0458284 -0.0140956 0.126695
0.0461395 -0.0139355 0.127062
0.0464248 -0.0137701 0.127344
0.0469112 -0.0138001 0.127658
0.0466741 -0.0135986 0.127512
0.0288147 -0.0343403 0.141456
0.0289286 -0.0340583 0.140932
0.0290274 -0.0337651 0.140334
0.0291429 -0.0334894 0.139833
0.0292621 -0.0332191 0.139358
0.0294069 -0.0329731 0.139024
0.0295651 -0.0327398 0.138764
0.029743 -0.0325241 0.138609
0.0299244 -0.032312 0.138474
0.0301153 -0.0321082 0.13839
0.0303034 -0.0319025 0.138292
0.0304877 -0.0316941 0.138176
0.0306812 -0.0314934 0.138108
0.0308455 -0.0312704 0.137894
0.0310084 -0.0310471 0.137676
0.0311614 -0.0308175 0.137413
0.0313172 -0.0305909 0.137166
0.0314613 -0.0303568 0.136865
0.0316406 -0.0301492 0.136738
0.0316966 -0.0298548 0.136021
0.0316548 -0.029495 0.134845
0.0313636 -0.0286489 0.131558
0.0313886 -0.0283499 0.130743
0.031486 -0.028102 0.130275
0.0316139 -0.0278756 0.129954
0.0317271 -0.0276412 0.129568
0.0318307 -0.0274021 0.129143
0.031948 -0.0271732 0.128785
0.0320661 -0.0269462 0.128435
0.0322061 -0.0267338 0.128187
0.0323397 -0.0265184 0.127913
0.0324823 -0.0263094 0.127682
0.0326221 -0.0260996 0.127441
0.0327739 -0.0258975 0.127256
0.0329265 -0.0256965 0.127076
0.0330859 -0.0255 0.126927
0.0332292 -0.0252952 0.126711
0.0333668 -0.025088 0.126472
0.0334979 -0.0248783 0.126208
0.0336327 -0.0246715 0.125963
0.0337661 -0.0244647 0.125714
0.0339204 -0.0242695 0.125556
0.034081 -0.024078 0.125425
0.0342477 -0.0238898 0.125321
0.0344151 -0.0237024 0.125221
0.03459 -0.0235188 0.125153
0.0347548 -0.0233307 0.125044
0.0349214 -0.0231438 0.124944
0.0350726 -0.0229502 0.124782
0.0352199 -0.0227554 0.124606
0.0353564 -0.0225565 0.124388
0.0354994 -0.022361 0.124199
0.0356416 -0.0221659 0.124008
0.0357913 -0.0219745 0.123848
0.0359413 -0.0217837 0.123691
0.0360985 -0.0215964 0.123564
0.0362623 -0.0214121 0.123464
0.0364226 -0.0212268 0.123351
0.0365901 -0.0210445 0.123266
0.0367577 -0.0208626 0.123183
0.036922 -0.0206796 0.123088
0.0370854 -0.0204967 0.122991
0.0372479 -0.0203136 0.12289
0.0374105 -0.0201309 0.122792
0.0375772 -0.01995 0.122709
0.037755 -0.0197731 0.122668
0.0379335 -0.0195965 0.122631
0.0381233 -0.0194237 0.122635
0.0383208 -0.0192534 0.122667
0.0385268 -0.0190856 0.122729
0.0387414 -0.0189204 0.122823
0.0389645 -0.0187574 0.122946
0.0391846 -0.0185931 0.123057
0.0393968 -0.018426 0.123139
0.0396075 -0.0182583 0.123214
0.0398103 -0.018088 0.123261
0.0400099 -0.0179167 0.123296
0.0402096 -0.0177452 0.123331
0.040409 -0.0175736 0.123364
0.0406084 -0.0174018 0.123397
0.0408124 -0.017231 0.123446
0.0410253 -0.0170624 0.123525
0.0412432 -0.0168947 0.12362
0.0414653 -0.0167278 0.123729
0.0416919 -0.0165614 0.123851
0.0419185 -0.0163948 0.123973
0.0421418 -0.016227 0.124083
0.0423699 -0.0160598 0.124207
0.0425978 -0.0158923 0.12433
0.0428139 -0.0157219 0.124412
0.0430127 -0.0155475 0.124436
0.0432046 -0.0153717 0.124437
0.0433955 -0.0151957 0.124434
0.0435843 -0.0150192 0.124424
0.0437877 -0.0148455 0.124463
0.0440125 -0.0146756 0.12457
0.0442731 -0.0145118 0.124793
0.0445513 -0.0143505 0.12507
0.0448737 -0.0141958 0.125486
0.045218 -0.0140436 0.12597
0.0455691 -0.013891 0.12647
0.0458848 -0.0137316 0.126855
0.0461784 -0.0135675 0.127166
0.0464289 -0.0133963 0.127339
0.0286932 -0.0346177 0.141946
0.0283206 -0.0346335 0.142168
0.0284877 -0.0343973 0.141922
0.0286374 -0.0341462 0.141584
0.0287723 -0.0338832 0.14117
0.0288794 -0.033597 0.140611
0.0289955 -0.0333214 0.140108
0.0291105 -0.0330471 0.139606
0.0292522 -0.0327979 0.139252
0.0294078 -0.0325621 0.138976
0.0295831 -0.032344 0.138806
0.0297621 -0.0321296 0.138656
0.0299504 -0.0319233 0.138557
0.0301354 -0.0317149 0.138442
0.0303164 -0.0315037 0.138308
0.0305096 -0.0313025 0.138237
0.0306711 -0.0310772 0.138008
0.0308333 -0.0308535 0.137785
0.0309832 -0.0306214 0.137504
0.0311356 -0.0303923 0.137239
0.0312813 -0.0301594 0.136944
0.0314149 -0.0299191 0.136594
0.0313936 -0.0295708 0.1355
0.0314742 -0.0290445 0.133026
0.031097 -0.0287133 0.132141
0.031067 -0.0283747 0.131053
0.031164 -0.0281253 0.130576
0.0313113 -0.0279107 0.13034
0.0314313 -0.0276795 0.129979
0.0315444 -0.0274451 0.129591
0.0316479 -0.0272063 0.129164
0.0317625 -0.0269759 0.128792
0.0318776 -0.0267473 0.128426
0.0320169 -0.0265347 0.128174
0.0321469 -0.0263175 0.127883
0.0322839 -0.0261054 0.127626
0.0324236 -0.0258958 0.127384
0.0325759 -0.0256943 0.1272
0.0327255 -0.025492 0.127007
0.0328854 -0.025296 0.12686
0.0330319 -0.0250932 0.126657
0.0331696 -0.0248865 0.126418
0.0333012 -0.0246774 0.126155
0.0334392 -0.0244725 0.125923
0.0335733 -0.0242665 0.125676
0.0337277 -0.0240715 0.125518
0.0338914 -0.0238817 0.1254
0.0340618 -0.0236956 0.125312
0.0342301 -0.0235087 0.125215
0.0344051 -0.0233253 0.125148
0.0345699 -0.0231373 0.125038
0.0347326 -0.0229488 0.124922
0.0348839 -0.0227555 0.12476
0.0350314 -0.022561 0.124584
0.0351717 -0.0223639 0.124381
0.0353148 -0.0221688 0.124191
0.0354536 -0.0219724 0.123986
0.0355993 -0.0217795 0.12381
0.0357493 -0.0215891 0.123653
0.0359001 -0.0213994 0.1235
0.0360606 -0.021214 0.123387
0.0362204 -0.0210287 0.123272
0.0363839 -0.0208452 0.123173
0.0365447 -0.020661 0.123064
0.0367083 -0.0204781 0.122966
0.0368708 -0.0202951 0.122866
0.0370333 -0.0201125 0.122766
0.037196 -0.0199302 0.122668
0.0373659 -0.0197506 0.122598
0.0375437 -0.0195739 0.122558
0.0377222 -0.0193976 0.12252
0.0379115 -0.0192249 0.122523
0.038105 -0.0190535 0.122542
0.0383065 -0.0188845 0.122589
0.038517 -0.0187182 0.122669
0.0387356 -0.018554 0.122777
0.0389516 -0.0183887 0.122875
0.0391627 -0.0182216 0.122954
0.0393731 -0.018054 0.12303
0.0395761 -0.0178841 0.123079
0.0397798 -0.0177142 0.123129
0.0399834 -0.0175441 0.123179
0.0401864 -0.0173736 0.123226
0.0403893 -0.0172029 0.123272
0.0405968 -0.0170332 0.123334
0.0408095 -0.0168647 0.123413
0.0410277 -0.0166972 0.12351
0.0412537 -0.0165312 0.123633
0.0414835 -0.0163658 0.123769
0.0417144 -0.0162001 0.123906
0.0419419 -0.0160333 0.124031
0.0421733 -0.0158669 0.124167
0.0424012 -0.0156994 0.124291
0.0426169 -0.0155289 0.124373
0.0428153 -0.0153546 0.124396
0.0430071 -0.0151789 0.124397
0.0431987 -0.015003 0.124397
0.0433874 -0.0148266 0.124387
0.0435902 -0.0146529 0.124424
0.0438104 -0.0144822 0.124517
0.0440621 -0.0143166 0.124712
0.0443302 -0.0141534 0.124958
0.0446375 -0.013996 0.125329
0.0449663 -0.013841 0.125765
0.0453106 -0.0136871 0.126247
0.0456294 -0.0135281 0.126644
0.0459277 -0.0133648 0.126972
0.0461914 -0.0131956 0.127189
0.0466455 -0.0132197 0.127404
0.0464219 -0.013021 0.127299
0.0281113 -0.0344093 0.142123
0.0282927 -0.0341867 0.141955
0.028457 -0.0339491 0.141695
0.0286017 -0.0336948 0.141331
0.0287156 -0.0334148 0.140805
0.028831 -0.0331382 0.140294
0.0289471 -0.0328646 0.139794
0.0290858 -0.0326127 0.139421
0.0292417 -0.0323769 0.139144
0.0294141 -0.0321561 0.138956
0.0295933 -0.0319417 0.138807
0.0297817 -0.0317353 0.138706
0.0299636 -0.0315241 0.138574
0.0301417 -0.0313105 0.138424
0.0303312 -0.0311064 0.138333
0.0304925 -0.0308809 0.138101
0.0306516 -0.0306547 0.137861
0.0308016 -0.0304228 0.137579
0.0309509 -0.0301915 0.137297
0.031102 -0.0299626 0.137027
0.0311787 -0.0296816 0.136396
0.0308783 -0.0281739 0.131055
0.0309852 -0.0279313 0.130622
0.0311265 -0.0277129 0.130357
0.0312424 -0.0274792 0.129976
0.0313556 -0.0272452 0.129586
0.0314592 -0.0270067 0.129157
0.0315712 -0.0267751 0.128771
0.0316864 -0.0265468 0.128404
0.0318226 -0.0263326 0.128137
0.0319522 -0.0261155 0.127843
0.0320861 -0.0259019 0.127571
0.032226 -0.0256928 0.127329
0.0323788 -0.0254918 0.127147
0.0325316 -0.0252915 0.126968
0.0326915 -0.0250958 0.126821
0.0328382 -0.0248934 0.126618
0.0329789 -0.0246885 0.126391
0.0331146 -0.0244818 0.126145
0.0332567 -0.0242793 0.125929
0.0333914 -0.0240738 0.125685
0.0335458 -0.023879 0.125525
0.0337094 -0.0236893 0.125407
0.03388 -0.0235033 0.125319
0.0340453 -0.0233151 0.12521
0.0342202 -0.0231318 0.125141
0.0343841 -0.0229436 0.125028
0.0345426 -0.0227533 0.124894
0.0346943 -0.0225604 0.124733
0.0348419 -0.0223662 0.124558
0.0349832 -0.0221699 0.124358
0.0351262 -0.0219748 0.124167
0.0352621 -0.0217775 0.12395
0.0354041 -0.0215834 0.123759
0.0355508 -0.0213918 0.123588
0.0356978 -0.0212009 0.12342
0.0358545 -0.0210143 0.123292
0.0360176 -0.0208306 0.123191
0.036178 -0.0206462 0.123079
0.0363382 -0.0204621 0.122968
0.0365015 -0.0202794 0.12287
0.0366639 -0.0200966 0.122769
0.0368262 -0.0199142 0.122668
0.0369927 -0.0197335 0.122585
0.037167 -0.0195557 0.122532
0.0373487 -0.0193806 0.122507
0.0375307 -0.0192056 0.122483
0.0377164 -0.0190318 0.122473
0.0379059 -0.0188592 0.122477
0.0380996 -0.018688 0.122496
0.0383015 -0.0185191 0.122546
0.038512 -0.0183526 0.122626
0.0387263 -0.018187 0.122719
0.0389367 -0.0180199 0.122797
0.0391504 -0.0178535 0.122886
0.0393569 -0.0176848 0.122948
0.0395606 -0.0175151 0.123
0.0397604 -0.0173441 0.123037
0.0399595 -0.0171729 0.123071
0.040162 -0.0170023 0.123117
0.0403694 -0.0168328 0.12318
0.040586 -0.0166655 0.123274
0.0408074 -0.0164989 0.123384
0.041041 -0.0163348 0.123534
0.0412714 -0.0161696 0.123673
0.0415021 -0.016004 0.123811
0.0417337 -0.0158381 0.12395
0.0419653 -0.0156718 0.124089
0.0421893 -0.0155034 0.124201
0.0424044 -0.0153328 0.124281
0.0426061 -0.0151593 0.124316
0.0427982 -0.0149838 0.124318
0.0429938 -0.0148089 0.124332
0.0431867 -0.0146336 0.124337
0.0433936 -0.0144606 0.124388
0.0436138 -0.0142899 0.124482
0.0438567 -0.0141227 0.124649
0.0441152 -0.0139578 0.124865
0.0444072 -0.0137975 0.125188
0.0447201 -0.0136398 0.125576
0.0450535 -0.013484 0.126026
0.0453744 -0.0133252 0.126432
0.0456765 -0.0131625 0.126775
0.0459538 -0.0129952 0.127036
0.046199 -0.0128228 0.127194
0.0280815 -0.033961 0.141897
0.0282543 -0.0337315 0.141683
0.028403 -0.0334811 0.14134
0.0285314 -0.0332141 0.14089
0.0286577 -0.0329472 0.140435
0.0287804 -0.0326793 0.139966
0.0289199 -0.0324278 0.139594
0.0290758 -0.0321918 0.139314
0.0292452 -0.0319683 0.139109
0.0294241 -0.0317534 0.138956
0.029609 -0.031544 0.138836
0.0297876 -0.0313301 0.138685
0.0299655 -0.0311161 0.138533
0.0301519 -0.0309095 0.138425
0.0303103 -0.0306818 0.138177
0.0304665 -0.0304534 0.137921
0.0306167 -0.0302217 0.137638
0.0307633 -0.0299885 0.13734
0.0308742 -0.0297306 0.13687
0.0308849 -0.0294034 0.135912
0.030528 -0.0281798 0.131233
0.0306443 -0.0279427 0.13084
0.030797 -0.0277311 0.130625
0.0309353 -0.027511 0.130344
0.031052 -0.0272781 0.129964
0.0311629 -0.0270429 0.129562
0.0312702 -0.0268071 0.129148
0.0313828 -0.026576 0.128763
0.0314986 -0.0263485 0.128397
0.0316319 -0.0261327 0.128115
0.0317617 -0.025916 0.127821
0.0318924 -0.0257008 0.127534
0.0320324 -0.025492 0.127292
0.032188 -0.0252929 0.127122
0.0323415 -0.0250932 0.126945
0.0325014 -0.0248977 0.126798
0.032651 -0.0246971 0.126607
0.0327956 -0.0244946 0.126396
0.0329323 -0.0242886 0.126154
0.0330785 -0.0240884 0.125954
0.0332169 -0.0238849 0.125724
0.0333713 -0.0236902 0.125564
0.0335348 -0.0235005 0.125444
0.0337054 -0.0233146 0.125356
0.0338706 -0.0231265 0.125246
0.0340419 -0.0229415 0.125162
0.0342047 -0.0227529 0.125044
0.0343599 -0.0225613 0.124896
0.0345113 -0.0223684 0.124733
0.0346566 -0.0221733 0.124548
0.0347982 -0.0219773 0.124348
0.0349382 -0.0217813 0.124145
0.035074 -0.0215842 0.123926
0.0352126 -0.0213889 0.123721
0.0353553 -0.021196 0.123534
0.0355018 -0.0210051 0.123364
0.0356551 -0.0208175 0.123223
0.0358147 -0.0206327 0.123107
0.0359716 -0.0204473 0.122982
0.036132 -0.0202635 0.122872
0.0362952 -0.0200811 0.122774
0.036461 -0.0198999 0.122686
0.0366278 -0.0197193 0.122603
0.0367987 -0.0195403 0.122537
0.036977 -0.0193641 0.122499
0.037159 -0.0191891 0.122475
0.0373412 -0.0190143 0.122452
0.0375268 -0.0188406 0.122442
0.0377159 -0.018668 0.122445
0.037909 -0.0184966 0.122463
0.0381063 -0.0183264 0.122496
0.0383079 -0.0181574 0.122544
0.0385136 -0.0179893 0.122607
0.0387164 -0.0178202 0.122658
0.0389223 -0.0176518 0.12272
0.0391248 -0.0174822 0.122769
0.0393274 -0.0173125 0.122818
0.03953 -0.0171426 0.122867
0.039733 -0.0169726 0.122916
0.0399359 -0.0168024 0.122965
0.0401429 -0.016633 0.123027
0.0403623 -0.0164664 0.123132
0.0405832 -0.0163 0.123241
0.0408171 -0.0161361 0.123395
0.0410553 -0.0159726 0.123561
0.0412906 -0.0158081 0.123716
0.041522 -0.0156422 0.123856
0.0417569 -0.0154766 0.124008
0.0419801 -0.0153082 0.124118
0.0421915 -0.0151369 0.124186
0.0423928 -0.0149636 0.124221
0.0425844 -0.0147882 0.124222
0.0427757 -0.0146127 0.124223
0.0429694 -0.0144376 0.124231
0.0431803 -0.0142655 0.124296
0.043405 -0.0140956 0.124405
0.0436474 -0.0139284 0.124572
0.0439004 -0.0137624 0.124772
0.0441856 -0.0136009 0.125074
0.0444831 -0.0134405 0.125415
0.0448049 -0.0132829 0.12583
0.0451204 -0.013123 0.126221
0.0454265 -0.0129608 0.12658
0.0457139 -0.012795 0.126875
0.0459734 -0.0126246 0.12708
0.0464159 -0.0126464 0.127262
0.0462053 -0.0124501 0.127196
0.027686 -0.0339547 0.14199
0.0278775 -0.0337421 0.141879
0.0280549 -0.033517 0.14169
0.0282134 -0.0332756 0.141398
0.0283493 -0.0330154 0.140987
0.0284832 -0.0327552 0.14057
0.0286131 -0.0324933 0.140137
0.0287529 -0.0322419 0.139763
0.028909 -0.0320059 0.139481
0.0290724 -0.0317771 0.139242
0.0292476 -0.0315591 0.139068
0.029429 -0.0313467 0.138929
0.0296075 -0.0311326 0.138776
0.0297826 -0.0309164 0.138608
0.0299692 -0.0307099 0.138501
0.0301308 -0.0304846 0.138267
0.0302842 -0.0302542 0.137995
0.0304352 -0.030023 0.137714
0.0305886 -0.0297948 0.137448
0.0306561 -0.0295058 0.136759
0.0306085 -0.029138 0.135508
0.0306497 -0.0285832 0.132787
0.030369 -0.028318 0.132349
0.0303029 -0.0279541 0.131059
0.0304595 -0.0277445 0.130859
0.0306016 -0.0275261 0.130592
0.0307341 -0.0273025 0.130282
0.0308547 -0.0270725 0.12992
0.0309691 -0.0268399 0.129532
0.0310777 -0.0266053 0.129122
0.0311907 -0.0263748 0.128737
0.0313104 -0.0261499 0.128388
0.031441 -0.0259329 0.128093
0.0315744 -0.0257185 0.127813
0.0317049 -0.0255034 0.127524
0.0318483 -0.0252968 0.127296
0.0320043 -0.0250981 0.127128
0.0321583 -0.0248989 0.126952
0.0323153 -0.0247019 0.126791
0.032468 -0.0245031 0.126613
0.0326162 -0.0243027 0.126418
0.0327572 -0.0240991 0.126192
0.032908 -0.0239014 0.126012
0.0330527 -0.0237012 0.125808
0.0332071 -0.0235065 0.125647
0.0333672 -0.0233152 0.125512
0.0335347 -0.0231278 0.12541
0.0336964 -0.022938 0.125285
0.033861 -0.02275 0.125172
0.0340204 -0.02256 0.12504
0.0341723 -0.022367 0.124877
0.0343206 -0.022173 0.124701
0.0344629 -0.0219769 0.124503
0.034604 -0.021781 0.124301
0.0347439 -0.0215852 0.124096
0.0348793 -0.0213882 0.123876
0.0350151 -0.0211921 0.123659
0.0351542 -0.020998 0.123457
0.0352968 -0.020806 0.123271
0.0354456 -0.0206169 0.123112
0.0356022 -0.0204313 0.122985
0.0357593 -0.0202463 0.122861
0.0359264 -0.0200653 0.122777
0.0360931 -0.0198845 0.122693
0.0362636 -0.0197052 0.122623
0.0364379 -0.0195274 0.122569
0.0366163 -0.0193512 0.122532
0.0367986 -0.0191764 0.122509
0.0369842 -0.0190027 0.122499
0.0371698 -0.018829 0.122489
0.0373554 -0.0186553 0.122479
0.037541 -0.0184816 0.122469
0.0377301 -0.018309 0.122472
0.0379195 -0.0181364 0.122476
0.0381128 -0.017965 0.122494
0.0383104 -0.0177946 0.122528
0.0385085 -0.0176243 0.122563
0.0387071 -0.0174541 0.1226
0.0389052 -0.0172834 0.122634
0.0391029 -0.0171126 0.122666
0.039301 -0.0169418 0.1227
0.0395031 -0.0167718 0.122747
0.0397097 -0.0166028 0.12281
0.0399168 -0.0164337 0.122874
0.0401397 -0.0162682 0.122993
0.040364 -0.0161025 0.123115
0.0405978 -0.0159387 0.123269
0.0408362 -0.0157754 0.123438
0.0410788 -0.0156125 0.12362
0.0413094 -0.0154466 0.123759
0.0415438 -0.0152808 0.123909
0.0417668 -0.0151124 0.12402
0.0419772 -0.0149412 0.124086
0.0421742 -0.0147671 0.124107
0.0423656 -0.0145917 0.124108
0.0425609 -0.0144172 0.124123
0.0427583 -0.014243 0.124144
0.0429741 -0.0140719 0.124226
0.0432031 -0.0139028 0.124351
0.043445 -0.0137354 0.124517
0.043689 -0.0135678 0.124689
0.0439635 -0.0134045 0.124958
0.0442464 -0.0132417 0.125252
0.0445535 -0.0130817 0.125623
0.0448635 -0.012921 0.125999
0.0451782 -0.0127599 0.126388
0.0454799 -0.012596 0.126731
0.0457629 -0.0124287 0.127012
0.0460185 -0.0122572 0.127204
0.0274762 -0.0337301 0.141938
0.0276707 -0.0335205 0.141844
0.0278523 -0.0332996 0.141678
0.0280194 -0.0330661 0.141432
0.0281636 -0.0328134 0.141065
0.0283042 -0.0325591 0.140681
0.028438 -0.0323006 0.140266
0.0285783 -0.0320495 0.139892
0.0287351 -0.0318139 0.139612
0.0288953 -0.0315824 0.139353
0.0290674 -0.0313617 0.139161
0.0292453 -0.0311464 0.139002
0.029424 -0.0309324 0.13885
0.0295966 -0.0307143 0.138668
0.0297836 -0.030508 0.138561
0.0299484 -0.0302853 0.138343
0.0301021 -0.0300551 0.13807
0.0302532 -0.0298241 0.137788
0.0304121 -0.0295999 0.137548
0.03043 -0.0292754 0.136606
0.0303419 -0.0288798 0.135147
0.0302253 -0.0284704 0.133567
0.0301118 -0.0280694 0.132021
0.0301177 -0.0277557 0.131077
0.0302643 -0.0275395 0.130827
0.0303975 -0.0273155 0.130516
0.0305268 -0.0270902 0.13019
0.0306542 -0.026865 0.129859
0.030773 -0.0266356 0.12949
0.0308855 -0.0264037 0.129097
0.0309987 -0.0261738 0.128712
0.0311187 -0.0259494 0.128362
0.0312466 -0.0257309 0.128053
0.0313835 -0.0255189 0.127789
0.0315148 -0.0253046 0.127502
0.0316618 -0.0251003 0.12729
0.0318213 -0.0249037 0.127136
0.0319758 -0.0247049 0.126962
0.0321329 -0.0245081 0.126801
0.0322887 -0.0243112 0.126636
0.0324406 -0.0241128 0.126456
0.0325856 -0.0239115 0.126247
0.0327403 -0.0237158 0.126083
0.0328887 -0.0235175 0.125893
0.0330433 -0.023323 0.125732
0.0332004 -0.0231302 0.125584
0.033361 -0.0229395 0.125451
0.0335191 -0.0227481 0.12531
0.03368 -0.0225585 0.125182
0.0338368 -0.0223674 0.125038
0.0339856 -0.0221732 0.124861
0.0341339 -0.0219794 0.124685
0.0342754 -0.0217832 0.124482
0.0344129 -0.021586 0.124265
0.0345525 -0.0213904 0.124059
0.0346881 -0.0211938 0.123838
0.034821 -0.0209968 0.123609
0.0349566 -0.0208017 0.123393
0.0350956 -0.0206085 0.123192
0.0352374 -0.0204171 0.123005
0.0353933 -0.0202316 0.122875
0.0355535 -0.020048 0.122764
0.0357248 -0.0198689 0.122697
0.0358994 -0.0196911 0.122643
0.0360808 -0.0195158 0.122616
0.0362593 -0.0193396 0.122579
0.0364416 -0.0191648 0.122556
0.0366272 -0.0189911 0.122546
0.0368128 -0.0188174 0.122536
0.0369984 -0.0186437 0.122526
0.037184 -0.0184701 0.122516
0.0373697 -0.0182964 0.122506
0.0375553 -0.0181227 0.122496
0.0377409 -0.017949 0.122486
0.03793 -0.0177763 0.122489
0.0381231 -0.0176048 0.122507
0.0383169 -0.0174333 0.122527
0.0385109 -0.0172618 0.122547
0.0387044 -0.0170901 0.122565
0.0388976 -0.0169182 0.122582
0.0390913 -0.0167463 0.1226
0.0392895 -0.0165755 0.122635
0.0394963 -0.0164067 0.122699
0.0397033 -0.0162378 0.122764
0.0399258 -0.0160722 0.122882
0.0401498 -0.0159066 0.123005
0.0403868 -0.0157436 0.123172
0.0406252 -0.0155804 0.123342
0.040871 -0.015418 0.123536
0.0411016 -0.0152522 0.123677
0.0413352 -0.0150864 0.123826
0.0415533 -0.0149169 0.12392
0.0417633 -0.0147457 0.123986
0.0419561 -0.0145709 0.123993
0.0421469 -0.0143958 0.123993
0.0423418 -0.0142213 0.124007
0.042543 -0.0140479 0.124042
0.0427592 -0.013877 0.124126
0.0429923 -0.0137086 0.124266
0.0432387 -0.013542 0.124448
0.0434858 -0.0133748 0.124631
0.0437559 -0.0132106 0.124888
0.0440367 -0.0130474 0.125177
0.0443343 -0.0128857 0.125519
0.0446382 -0.012724 0.125878
0.044948 -0.012562 0.126253
0.0452585 -0.0123991 0.126626
0.0455569 -0.0122336 0.126959
0.0458325 -0.0120642 0.127215
0.0275026 -0.033335 0.142028
0.0276788 -0.0331088 0.141829
0.0278324 -0.032863 0.141506
0.0279771 -0.0326106 0.141138
0.0281215 -0.0323597 0.140773
0.0282593 -0.0321047 0.140377
0.0284034 -0.0318567 0.140021
0.0285604 -0.0316212 0.139739
0.0287177 -0.0313871 0.139463
0.0288899 -0.0311664 0.13927
0.0290678 -0.0309511 0.13911
0.0292473 -0.0307376 0.13896
0.0294205 -0.0305199 0.138779
0.0296047 -0.0303113 0.138658
0.0297691 -0.0300883 0.138435
0.02992 -0.0298559 0.138146
0.0300719 -0.0296255 0.137866
0.0301877 -0.0293701 0.137406
0.0301532 -0.0290089 0.136195
0.0299581 -0.0282137 0.133191
0.0298598 -0.0278248 0.131714
0.029924 -0.0275515 0.131053
0.0300671 -0.0273332 0.130785
0.0301996 -0.0271092 0.13047
0.0303299 -0.0268848 0.130147
0.030461 -0.0266623 0.129832
0.030581 -0.0264339 0.129467
0.030694 -0.0262027 0.129075
0.0308073 -0.0259731 0.128688
0.0309267 -0.0257486 0.128334
0.0310517 -0.0255288 0.12801
0.0311924 -0.0253193 0.127762
0.0313278 -0.0251077 0.127493
0.0314788 -0.0249058 0.127298
0.0316419 -0.0247113 0.127161
0.0317996 -0.0245144 0.127
0.0319569 -0.0243178 0.126839
0.0321129 -0.0241211 0.126674
0.032268 -0.0239245 0.126507
0.0324138 -0.0237237 0.126301
0.032569 -0.0235284 0.126138
0.0327213 -0.0233321 0.125964
0.0328758 -0.0231375 0.125802
0.0330299 -0.0229433 0.125639
0.0331868 -0.022751 0.125491
0.0333443 -0.0225594 0.125346
0.0335016 -0.0223682 0.125202
0.0336583 -0.0221772 0.125057
0.0338077 -0.0219834 0.124882
0.0339557 -0.0217897 0.124704
0.0340938 -0.0215922 0.124486
0.0342275 -0.0213936 0.124252
0.0343637 -0.0211968 0.124031
0.0345002 -0.0210008 0.123813
0.0346334 -0.0208043 0.123585
0.0347663 -0.0206083 0.123357
0.0349011 -0.0204138 0.123139
0.0350389 -0.0202212 0.122935
0.0351879 -0.0200334 0.122778
0.0353455 -0.0198492 0.122656
0.0355206 -0.0196717 0.122605
0.0357027 -0.0194968 0.122581
0.0358918 -0.0193244 0.122585
0.0360777 -0.0191508 0.122576
0.0362669 -0.0189784 0.12258
0.0364558 -0.0188058 0.122583
0.0366414 -0.0186321 0.122573
0.036827 -0.0184585 0.122563
0.0370127 -0.0182848 0.122553
0.0371983 -0.0181111 0.122543
0.0373839 -0.0179374 0.122533
0.0375695 -0.0177637 0.122523
0.0377551 -0.01759 0.122514
0.0379442 -0.0174173 0.122516
0.0381336 -0.0172447 0.12252
0.0383232 -0.017072 0.122525
0.0385162 -0.0169002 0.122541
0.0387057 -0.0167275 0.122545
0.0388954 -0.0165546 0.12255
0.0390929 -0.0163838 0.122582
0.0392988 -0.0162148 0.122644
0.0395027 -0.0160452 0.122698
0.0397253 -0.0158796 0.122818
0.0399486 -0.015714 0.12294
0.040181 -0.0155499 0.123092
0.0404146 -0.0153855 0.123246
0.0406566 -0.0152224 0.123429
0.0408905 -0.0150572 0.123582
0.0411245 -0.0148915 0.123733
0.0413419 -0.0147222 0.123827
0.0415509 -0.0145507 0.12389
0.0417467 -0.0143767 0.123908
0.0419338 -0.0142011 0.123896
0.0421289 -0.0140269 0.123911
0.0423338 -0.0138543 0.123959
0.0425497 -0.0136833 0.124044
0.0427827 -0.0135148 0.124184
0.0430332 -0.0133489 0.124381
0.0432847 -0.0131824 0.12458
0.0435552 -0.013018 0.124839
0.0438397 -0.0128551 0.125142
0.0441314 -0.0126924 0.125467
0.044429 -0.0125294 0.125807
0.0447368 -0.0123669 0.126177
0.0450467 -0.0122036 0.126551
0.0453551 -0.0120391 0.126917
0.0456461 -0.0118715 0.127224
0.0275008 -0.0329138 0.141957
0.0276491 -0.0326631 0.141601
0.027791 -0.0324082 0.141214
0.0279394 -0.0321608 0.140869
0.0280839 -0.0319116 0.140507
0.0282318 -0.0316668 0.140169
0.0283892 -0.0314314 0.139887
0.0285467 -0.0311974 0.139609
0.028719 -0.0309765 0.139415
0.0288946 -0.0307592 0.139241
0.0290745 -0.0305458 0.139091
0.0292449 -0.0303258 0.138894
0.0294258 -0.0301146 0.138754
0.02959 -0.0298913 0.138529
0.029744 -0.0296613 0.138254
0.0299029 -0.0294361 0.138008
0.0299743 -0.0291484 0.137318
0.0298962 -0.0287569 0.135879
0.0297021 -0.0279652 0.132867
0.0296094 -0.0275816 0.131411
0.0297257 -0.0273442 0.131005
0.0298666 -0.0271249 0.130726
0.0300002 -0.0269019 0.130414
0.0301344 -0.0266804 0.130109
0.0302689 -0.0264603 0.129809
0.0303926 -0.0262346 0.129461
0.0305062 -0.026004 0.129069
0.0306197 -0.0257748 0.128681
0.0307385 -0.0255503 0.128323
0.0308635 -0.0253308 0.127997
0.0310044 -0.0251216 0.12775
0.0311441 -0.0249127 0.127499
0.031299 -0.0247131 0.127321
0.0314655 -0.0245207 0.127199
0.0316234 -0.0243239 0.127038
0.0317809 -0.0241275 0.126877
0.0319371 -0.023931 0.126712
0.0320923 -0.0237346 0.126545
0.0322414 -0.0235356 0.126352
0.0323971 -0.0233406 0.126191
0.0325527 -0.023146 0.12603
0.0327075 -0.0229517 0.125868
0.0328617 -0.0227576 0.125705
0.0330122 -0.0225622 0.125528
0.0331689 -0.0223704 0.125379
0.0333226 -0.0221777 0.125219
0.0334796 -0.021987 0.125075
0.0336294 -0.0217935 0.124901
0.0337778 -0.0216001 0.124724
0.0339123 -0.0214013 0.12449
0.0340462 -0.021203 0.124256
0.0341795 -0.0210052 0.124022
0.0343165 -0.0208097 0.123805
0.03445 -0.0206135 0.123577
0.0345831 -0.0204179 0.123349
0.034711 -0.020221 0.123103
0.0348449 -0.0200272 0.122883
0.0349868 -0.019837 0.122696
0.0351439 -0.0196529 0.122573
0.0353197 -0.0194759 0.122524
0.0355058 -0.0193026 0.122517
0.0357021 -0.0191328 0.12255
0.0358953 -0.0189618 0.12257
0.0360884 -0.0187908 0.122589
0.0362811 -0.0186195 0.122607
0.03647 -0.0184469 0.12261
0.0366557 -0.0182732 0.1226
0.0368413 -0.0180995 0.12259
0.0370269 -0.0179258 0.12258
0.0372125 -0.0177521 0.12257
0.0373981 -0.0175784 0.12256
0.0375838 -0.0174048 0.122551
0.0377694 -0.0172311 0.122541
0.037955 -0.0170574 0.122531
0.0381406 -0.0168837 0.122521
0.03833 -0.016711 0.122525
0.0385161 -0.0165374 0.122516
0.0387055 -0.0163646 0.12252
0.0389024 -0.0161937 0.122551
0.0391078 -0.0160246 0.122612
0.039311 -0.0158548 0.122664
0.0395299 -0.0156884 0.122772
0.0397488 -0.0155217 0.122878
0.0399762 -0.0153565 0.123014
0.0402084 -0.015192 0.123165
0.0404501 -0.0150288 0.123348
0.0406882 -0.0148644 0.123516
0.0409262 -0.0146995 0.123683
0.0411474 -0.0145308 0.12379
0.041356 -0.0143595 0.123853
0.0415517 -0.0141855 0.123871
0.041739 -0.01401 0.12386
0.0419302 -0.0138351 0.123863
0.0421348 -0.0136625 0.12391
0.0423497 -0.0134914 0.123992
0.0425826 -0.013323 0.124133
0.0428369 -0.0131574 0.124344
0.0430977 -0.0129921 0.124575
0.0433728 -0.0128284 0.124851
0.0436625 -0.0126658 0.125172
0.0439493 -0.012502 0.125482
0.0442368 -0.0123373 0.12579
0.0445371 -0.0121735 0.126138
0.044841 -0.0120091 0.126495
0.0451492 -0.0118443 0.126862
0.0454544 -0.0116781 0.127216
0.0271646 -0.0329622 0.142392
0.027313 -0.0327099 0.142029
0.0274573 -0.0324555 0.141648
0.0276081 -0.0322087 0.141309
0.0277638 -0.0319676 0.141002
0.027913 -0.0317222 0.140663
0.0280674 -0.0314829 0.140358
0.0282249 -0.0312474 0.140074
0.02838 -0.031011 0.13978
0.0285494 -0.0307876 0.139568
0.0287254 -0.0305704 0.139394
0.0289023 -0.0303545 0.139227
0.0290726 -0.0301343 0.139028
0.0292528 -0.0299224 0.138883
0.0294199 -0.0297012 0.138671
0.0295778 -0.029474 0.138414
0.0297473 -0.0292563 0.13822
0.0297715 -0.0289345 0.137282
0.0296795 -0.0285338 0.135764
0.0295753 -0.0281309 0.134204
0.029469 -0.0277328 0.132653
0.0293661 -0.0273435 0.131139
0.0295274 -0.0271372 0.130957
0.0296728 -0.026921 0.130698
0.0298044 -0.026697 0.130376
0.0299391 -0.0264761 0.130072
0.0300768 -0.0262584 0.129786
0.0302039 -0.0260351 0.129453
0.0303184 -0.0258054 0.129063
0.0304325 -0.0255768 0.128676
0.0305514 -0.0253527 0.128316
0.0306763 -0.0251333 0.127989
0.0308176 -0.0249246 0.127742
0.0309609 -0.024718 0.127507
0.0311193 -0.0245205 0.127345
0.0312891 -0.02433 0.127237
0.0314472 -0.0241334 0.127076
0.0316019 -0.0239357 0.126902
0.031758 -0.0237392 0.126736
0.0319103 -0.0235414 0.126555
0.0320594 -0.0233426 0.126361
0.0322152 -0.0231478 0.126199
0.0323738 -0.0229549 0.126051
0.0325293 -0.022761 0.125892
0.0326869 -0.0225686 0.125743
0.0328374 -0.0223734 0.125565
0.0329911 -0.0221803 0.125402
0.0331446 -0.0219877 0.125241
0.0332986 -0.0217957 0.125083
0.0334487 -0.0216026 0.12491
0.0335946 -0.0214082 0.124721
0.0337326 -0.0212112 0.124501
0.0338666 -0.0210131 0.124266
0.0340033 -0.020817 0.124046
0.0341406 -0.0206218 0.12383
0.0342714 -0.0204247 0.123589
0.034401 -0.0202279 0.123345
0.034522 -0.0200287 0.12307
0.0346521 -0.0198337 0.122834
0.03479 -0.0196424 0.122632
0.0349503 -0.0194597 0.12252
0.0351256 -0.0192827 0.12247
0.0353149 -0.0191106 0.122476
0.0355113 -0.018941 0.12251
0.0357085 -0.0187715 0.122547
0.0359058 -0.0186018 0.122583
0.0361026 -0.0184319 0.122617
0.0362953 -0.0182605 0.122634
0.0364843 -0.0180879 0.122637
0.0366699 -0.0179142 0.122627
0.0368555 -0.0177405 0.122617
0.0370411 -0.0175668 0.122607
0.0372268 -0.0173932 0.122598
0.0374124 -0.0172195 0.122588
0.037598 -0.0170458 0.122578
0.0377871 -0.016873 0.122581
0.0379765 -0.0167003 0.122584
0.0381699 -0.0165286 0.122603
0.0383599 -0.016356 0.122609
0.0385497 -0.0161832 0.122614
0.0387423 -0.0160111 0.122629
0.0389436 -0.0158409 0.122675
0.0391431 -0.0156702 0.122714
0.0393539 -0.0155019 0.122794
0.0395645 -0.0153332 0.122871
0.0397863 -0.0151667 0.122988
0.0400139 -0.0150011 0.123124
0.0402516 -0.014837 0.123293
0.0404905 -0.0146727 0.123466
0.040732 -0.0145084 0.123646
0.0409539 -0.0143398 0.123756
0.0411625 -0.0141685 0.12382
0.0413585 -0.0139947 0.123839
0.0415495 -0.0138199 0.123842
0.0417406 -0.0136452 0.123844
0.041945 -0.0134725 0.123892
0.0421592 -0.0133013 0.123971
0.0423915 -0.0131326 0.124111
0.0426455 -0.0129668 0.124322
0.0429149 -0.0128027 0.124583
0.0431949 -0.0126393 0.124877
0.0434896 -0.0124771 0.125216
0.043776 -0.0123128 0.125526
0.044058 -0.0121472 0.125818
0.0443483 -0.0119817 0.126134
0.0446461 -0.0118163 0.126473
0.0449526 -0.0116509 0.126836
0.0452613 -0.0114848 0.127204
0.0457353 -0.0115083 0.12749
0.0455471 -0.0113152 0.127495
0.0269967 -0.0331978 0.142647
0.0266697 -0.033258 0.143154
0.0268181 -0.0330025 0.142778
0.0269832 -0.0327642 0.142505
0.0271275 -0.0325081 0.142116
0.0272678 -0.0322501 0.141709
0.0274254 -0.0320093 0.141406
0.0275887 -0.0317748 0.14114
0.0277421 -0.031533 0.140822
0.0279032 -0.031299 0.140551
0.0280613 -0.0310637 0.140267
0.0282162 -0.030827 0.139969
0.0283859 -0.0306036 0.139757
0.0285619 -0.0303861 0.139581
0.0287356 -0.0301675 0.139394
0.0289087 -0.0299491 0.139207
0.0290891 -0.0297371 0.139061
0.0292571 -0.0295164 0.138852
0.0294222 -0.0292944 0.13863
0.0295999 -0.0290824 0.138477
0.0295723 -0.0287232 0.137265
0.0294732 -0.0283183 0.135701
0.0293632 -0.0279122 0.134102
0.0292544 -0.0275135 0.13253
0.0291524 -0.0271257 0.131012
0.0293182 -0.0269229 0.130853
0.0294704 -0.0267116 0.130628
0.0296089 -0.0264924 0.130337
0.0297463 -0.0262736 0.130046
0.029884 -0.0260561 0.129759
0.0300113 -0.0258332 0.129425
0.0301271 -0.0256046 0.12904
0.030245 -0.0253787 0.128669
0.0303648 -0.0251553 0.128312
0.0304929 -0.0249381 0.127998
0.0306345 -0.0247298 0.127751
0.0307811 -0.0245252 0.127531
0.0309398 -0.0243281 0.127369
0.0311128 -0.0241393 0.127275
0.031271 -0.023943 0.127114
0.0314227 -0.0237437 0.126925
0.0315786 -0.0235473 0.126758
0.0317277 -0.023348 0.126561
0.0318737 -0.0231478 0.126353
0.0320295 -0.0229532 0.12619
0.0321918 -0.0227622 0.126059
0.0323477 -0.0225687 0.1259
0.032509 -0.0223782 0.125767
0.0326631 -0.0221849 0.125603
0.0328171 -0.021992 0.125441
0.0329709 -0.0217995 0.12528
0.033125 -0.0216078 0.125122
0.0332754 -0.0214149 0.124949
0.0334213 -0.0212207 0.12476
0.03356 -0.021024 0.124541
0.0336942 -0.0208263 0.124307
0.0338314 -0.0206305 0.124087
0.0339656 -0.0204342 0.123857
0.034093 -0.020236 0.123601
0.0342189 -0.0200381 0.123342
0.0343363 -0.0198378 0.12305
0.0344631 -0.0196419 0.1228
0.0345979 -0.0194496 0.122584
0.0347579 -0.0192671 0.122472
0.0349327 -0.0190901 0.12242
0.0351217 -0.0189181 0.122426
0.0353179 -0.0187485 0.122459
0.0355214 -0.0185811 0.122521
0.0357228 -0.0184129 0.122574
0.0359237 -0.0182443 0.122624
0.0361204 -0.0180741 0.122658
0.0363129 -0.0179026 0.122674
0.0364985 -0.0177289 0.122664
0.0366841 -0.0175552 0.122654
0.0368697 -0.0173816 0.122644
0.0370554 -0.0172079 0.122635
0.037241 -0.0170342 0.122625
0.0374266 -0.0168605 0.122615
0.0376159 -0.0166878 0.122619
0.0378092 -0.0165161 0.122637
0.0380067 -0.0163454 0.122671
0.0382009 -0.0161737 0.122692
0.0383945 -0.0160018 0.122711
0.0385874 -0.0158296 0.122727
0.0387846 -0.0156583 0.122758
0.0389794 -0.0154865 0.12278
0.0391824 -0.0153162 0.122831
0.0393845 -0.0151457 0.122879
0.0396014 -0.0149781 0.122979
0.0398247 -0.0148114 0.123101
0.0400583 -0.0146464 0.123257
0.0402969 -0.0144821 0.12343
0.040542 -0.0143183 0.123623
0.0407679 -0.0141505 0.123749
0.0409809 -0.0139799 0.123828
0.0411773 -0.0138061 0.123849
0.041368 -0.0136314 0.12385
0.0415548 -0.0134559 0.123838
0.0417548 -0.0132825 0.123871
0.0419648 -0.0131107 0.123937
0.0422006 -0.0129425 0.12409
0.0424584 -0.012777 0.124315
0.0427358 -0.0126138 0.124604
0.0430244 -0.0124514 0.124928
0.0433273 -0.0122899 0.125296
0.043614 -0.0121252 0.125607
0.0438954 -0.0119591 0.125899
0.0441768 -0.011792 0.126187
0.0444648 -0.0116251 0.126495
0.0447572 -0.0114578 0.126814
0.0450597 -0.0112906 0.127163
0.0453397 -0.0111203 0.127437
0.0264667 -0.0330397 0.143145
0.026626 -0.0327946 0.142832
0.0267948 -0.0325597 0.142578
0.0269433 -0.0323074 0.14221
0.0270837 -0.0320495 0.141801
0.0272454 -0.0318122 0.141519
0.0274158 -0.0315838 0.141291
0.0275735 -0.0313455 0.140994
0.0277382 -0.0311144 0.140741
0.0278963 -0.0308789 0.140454
0.0280516 -0.0306423 0.140156
0.0282214 -0.0304187 0.139941
0.0283975 -0.030201 0.139764
0.0285684 -0.0299799 0.13956
0.0287447 -0.0297639 0.139388
0.028926 -0.0295523 0.139246
0.0290956 -0.0293325 0.139042
0.0292681 -0.0291157 0.138857
0.0294526 -0.0289084 0.138737
0.0293769 -0.0285147 0.137265
0.0292718 -0.0281064 0.135662
0.0291566 -0.0276975 0.134027
0.029047 -0.0272992 0.132441
0.0289448 -0.0269122 0.130914
0.0291102 -0.0267094 0.130752
0.0292658 -0.0265008 0.130544
0.0294071 -0.0262838 0.130267
0.0295409 -0.0260631 0.129956
0.0296785 -0.0258459 0.129668
0.0298066 -0.025624 0.129337
0.0299263 -0.0253982 0.128969
0.0300481 -0.025175 0.128616
0.0301743 -0.0249558 0.128288
0.0303061 -0.024741 0.12799
0.0304513 -0.024535 0.12776
0.0306015 -0.0243326 0.127555
0.0307634 -0.0241373 0.127407
0.0309335 -0.0239471 0.127299
0.0310916 -0.0237508 0.127137
0.0312401 -0.02355 0.126933
0.0313929 -0.0233521 0.12675
0.0315384 -0.0231512 0.126537
0.0316844 -0.0229512 0.126328
0.0318401 -0.0227567 0.126164
0.0320031 -0.0225664 0.126036
0.0321628 -0.0223749 0.125893
0.0323277 -0.0221863 0.125776
0.0324856 -0.0219948 0.125628
0.0326402 -0.0218023 0.125468
0.0327946 -0.0216103 0.125309
0.0329482 -0.0214185 0.125148
0.0330985 -0.0212257 0.124974
0.0332444 -0.0210316 0.124783
0.0333836 -0.0208354 0.124566
0.0335213 -0.0206392 0.124345
0.0336592 -0.0204439 0.124127
0.0337901 -0.0202465 0.123882
0.0339141 -0.0200472 0.123611
0.0340358 -0.0198479 0.123333
0.0341496 -0.0196465 0.123026
0.0342739 -0.01945 0.122764
0.034406 -0.0192571 0.122537
0.034563 -0.0190737 0.122412
0.0347343 -0.0188957 0.122347
0.0349228 -0.0187237 0.122351
0.0351186 -0.0185541 0.122384
0.0353254 -0.0183879 0.122459
0.0355297 -0.0182207 0.122525
0.0357376 -0.0180544 0.122603
0.0359382 -0.0178856 0.122652
0.0361346 -0.0177153 0.122685
0.0363238 -0.0175427 0.122689
0.0365127 -0.01737 0.122691
0.0366984 -0.0171963 0.122681
0.036884 -0.0170226 0.122672
0.0370696 -0.0168489 0.122662
0.0372586 -0.0166761 0.122665
0.0374518 -0.0165044 0.122683
0.0376494 -0.0163337 0.122717
0.0378514 -0.016164 0.122768
0.0380497 -0.0159932 0.122804
0.0382438 -0.0158213 0.122824
0.0384369 -0.015649 0.122841
0.0386301 -0.0154767 0.122857
0.0388207 -0.0153037 0.122864
0.0390151 -0.0151315 0.122884
0.0392089 -0.0149591 0.122903
0.039418 -0.0147897 0.122975
0.0396405 -0.0146229 0.123094
0.0398702 -0.0144571 0.123238
0.0401081 -0.0142925 0.12341
0.0403564 -0.0141291 0.123615
0.0405854 -0.0139618 0.123752
0.0407994 -0.0137914 0.123836
0.0409958 -0.0136177 0.123857
0.0411899 -0.0134435 0.12387
0.0413759 -0.0132679 0.123855
0.041572 -0.0130939 0.123875
0.041782 -0.012922 0.123942
0.0420213 -0.0127542 0.124107
0.0422796 -0.0125886 0.124335
0.0425568 -0.0124251 0.124625
0.0428498 -0.0122627 0.124964
0.0431523 -0.0121008 0.125333
0.0434388 -0.0119358 0.125645
0.0437199 -0.0117693 0.125936
0.0440008 -0.0116018 0.126225
0.0442802 -0.0114336 0.126506
0.0445624 -0.0112647 0.126793
0.0448542 -0.0110962 0.127109
0.0451236 -0.0109245 0.12735
0.0456084 -0.0109479 0.127672
0.0453777 -0.0107507 0.12754
0.0458489 -0.0107723 0.127815
0.0456124 -0.0105748 0.127666
