ply
format ascii 1.0
element vertex 1687
property float x
property float y
property float z
end_header
0.0401938 0.15623 0.5377
0.0391968 0.154903 0.536425
0.0382124 0.153656 0.535385
0.0372463 0.152547 0.534764
0.0362764 0.151379 0.533954
0.0353128 0.150249 0.533251
0.0343537 0.14914 0.532609
0.0334041 0.148107 0.532197
0.0324574 0.147087 0.531825
0.0315217 0.146174 0.531788
0.030588 0.145276 0.531794
0.0296586 0.144421 0.53194
0.0287271 0.143534 0.531979
0.027802 0.142729 0.532283
0.026877 0.141924 0.532587
0.0259482 0.141059 0.532692
0.0250195 0.140188 0.532777
0.024091 0.139312 0.532845
0.0231645 0.138462 0.532998
0.0222388 0.137622 0.533181
0.0213162 0.136845 0.533574
0.0203954 0.136122 0.534148
0.019474 0.1354 0.53473
0.0185526 0.134697 0.535377
0.0176335 0.134113 0.536432
0.0167156 0.133672 0.537984
0.0157944 0.133216 0.539491
0.0148706 0.132793 0.541125
0.0139429 0.132334 0.542645
0.0130118 0.131785 0.543864
0.0120783 0.131138 0.544748
0.0111433 0.130471 0.545564
0.00631962 0.131914 0.566837
0.00535882 0.131093 0.567207
0.00440179 0.130167 0.567195
0.00344632 0.129223 0.567115
0.00248978 0.128324 0.567197
0.00153273 0.127449 0.567364
0.000577077 0.126557 0.567466
-0.00037545 0.12562 0.567405
-0.00132652 0.124678 0.567318
-0.00227645 0.123737 0.567228
-0.00322608 0.122805 0.567171
-0.00417971 0.121934 0.567343
-0.0051362 0.121102 0.567657
-0.00608936 0.120233 0.567832
-0.0070453 0.119398 0.568133
-0.00800528 0.118601 0.568584
-0.0089684 0.11783 0.569135
-0.00993693 0.117103 0.569857
-0.0109084 0.11639 0.570636
-0.0118782 0.115653 0.571328
-0.0128439 0.114876 0.571866
-0.0138075 0.114078 0.572326
-0.0147719 0.113284 0.572798
-0.0157398 0.11251 0.573354
-0.0167087 0.111738 0.57392
-0.0176777 0.110962 0.574476
-0.0186468 0.110183 0.575017
-0.0196101 0.109366 0.575406
-0.0205763 0.108563 0.575858
-0.021553 0.107817 0.576541
-0.0225387 0.107113 0.577401
-0.0235376 0.106469 0.578516
-0.0245527 0.105894 0.579924
-0.0255853 0.10539 0.58164
-0.0266122 0.104837 0.583166
-0.0276335 0.104245 0.584538
-0.028644 0.103586 0.585641
-0.029642 0.102867 0.586489
-0.0306379 0.102129 0.587264
-0.031632 0.101382 0.588003
-0.0326323 0.10065 0.588815
-0.0336504 0.0999821 0.58991
-0.0346794 0.0993485 0.591162
-0.0357141 0.0987239 0.592465
-0.0367756 0.0981869 0.594163
-0.0378269 0.0975973 0.595643
-0.0388944 0.0970497 0.597325
-0.0399801 0.09655 0.599235
0.0564215 0.174928 0.554884
0.0554109 0.173827 0.554436
0.0543924 0.172669 0.553813
0.0533469 0.171336 0.552667
0.0522906 0.169916 0.551251
0.0512278 0.168432 0.549631
0.0501666 0.16693 0.547942
0.0491138 0.165454 0.546314
0.0480708 0.164013 0.544779
0.0470441 0.162655 0.543481
0.0460425 0.161448 0.542627
0.0450575 0.16034 0.542068
0.0440761 0.159244 0.541538
0.0430735 0.157973 0.540464
0.0420736 0.156699 0.53937
0.0410708 0.155375 0.53811
0.0400683 0.154023 0.536751
0.0390825 0.15278 0.535717
0.0381172 0.15169 0.535155
0.0371478 0.150544 0.534408
0.0361849 0.149435 0.533771
0.0352267 0.148351 0.533202
0.0342759 0.147319 0.532797
0.0333262 0.146283 0.532368
0.0323873 0.145345 0.53225
0.0314492 0.144404 0.53212
0.0305175 0.143527 0.532192
0.029584 0.142621 0.532168
0.028659 0.141816 0.532472
0.0277339 0.141011 0.532776
0.0268063 0.140167 0.53295
0.0258788 0.139319 0.533113
0.0249514 0.13847 0.53327
0.0240268 0.137662 0.533562
0.0231025 0.136862 0.533877
0.0221811 0.13612 0.534392
0.0212607 0.135416 0.535036
0.0203403 0.134731 0.535745
0.019419 0.134049 0.53647
0.0184997 0.133467 0.537538
0.0175813 0.132989 0.538973
0.0166599 0.132509 0.540407
0.0157356 0.132024 0.541835
0.014808 0.131503 0.543146
0.0138773 0.130929 0.544284
0.0129443 0.130302 0.54524
0.0120096 0.12968 0.546221
0.00720864 0.13099 0.567122
0.00624675 0.130208 0.567631
0.00528773 0.129323 0.56777
0.00433108 0.128386 0.567714
0.00337286 0.127509 0.567878
0.00241497 0.126635 0.568051
0.00145743 0.12576 0.568218
0.000503694 0.124825 0.568162
-0.00044855 0.123884 0.568077
-0.00139976 0.122943 0.567991
-0.00235046 0.122009 0.567926
-0.00330349 0.121118 0.568022
-0.00426056 0.120285 0.568336
-0.00521758 0.119452 0.568649
-0.00617629 0.118636 0.569029
-0.00713878 0.117857 0.569552
-0.00810449 0.117104 0.570175
-0.00907152 0.116355 0.570819
-0.0100392 0.115603 0.571456
-0.0110093 0.114865 0.572146
-0.0119753 0.114085 0.572677
-0.0129379 0.113274 0.573087
-0.0139026 0.112477 0.573554
-0.0148703 0.111698 0.574092
-0.0158335 0.110884 0.574496
-0.016797 0.11007 0.574897
-0.0177654 0.109286 0.575423
-0.0187289 0.108469 0.575813
-0.0196927 0.107651 0.576205
-0.0206692 0.106905 0.576888
-0.0216541 0.106196 0.577735
-0.0226517 0.10555 0.578843
-0.023662 0.104957 0.580183
-0.0246935 0.104451 0.5819
-0.0257182 0.103894 0.583417
-0.0267389 0.103301 0.58479
-0.0277453 0.102627 0.585832
-0.0287467 0.101924 0.586753
-0.0297418 0.101187 0.587534
-0.0307357 0.100438 0.588267
-0.0317402 0.0997238 0.589161
-0.0327619 0.0990723 0.590333
-0.033795 0.0984582 0.591675
-0.0348343 0.0978527 0.593069
-0.035901 0.0973321 0.594854
-0.0369563 0.0967595 0.596419
-0.0380238 0.0962113 0.59811
0.0563144 0.172931 0.554799
0.0553036 0.171826 0.55433
0.0542608 0.170524 0.553269
0.0532141 0.169179 0.552073
0.052156 0.167744 0.550593
0.0510944 0.166263 0.548962
0.0500338 0.16476 0.547249
0.0489832 0.163292 0.545628
0.0479432 0.161866 0.544116
0.0469325 0.16061 0.543114
0.0459423 0.159478 0.542476
0.0449594 0.158381 0.541941
0.0439573 0.15713 0.540924
0.0429581 0.155877 0.539889
0.0419524 0.15455 0.538616
0.0409501 0.153221 0.537322
0.0399623 0.151981 0.536295
0.0389939 0.150878 0.535687
0.0380255 0.149757 0.535016
0.0370633 0.148669 0.534444
0.0361036 0.147588 0.533883
0.0351494 0.146538 0.533417
0.0341978 0.145497 0.532973
0.0332537 0.144516 0.532716
0.0323125 0.143551 0.532508
0.0313766 0.142633 0.532448
0.0304441 0.141745 0.532482
0.0295175 0.140923 0.532728
0.0285925 0.140118 0.533034
0.0276661 0.139294 0.533274
0.0267409 0.138486 0.533569
0.0258146 0.137662 0.533808
0.0248921 0.136897 0.534244
0.0239694 0.136136 0.534695
0.0230505 0.135451 0.535404
0.0221306 0.13477 0.536131
0.0212107 0.13411 0.536932
0.0202896 0.133454 0.537752
0.01937 0.132872 0.538831
0.0184498 0.132339 0.540081
0.0175274 0.131808 0.54135
0.0166024 0.131273 0.542614
0.0156741 0.130685 0.5437
0.0147434 0.13007 0.544698
0.0138109 0.129441 0.545651
0.0128766 0.128822 0.546648
0.00713489 0.129341 0.568124
0.00617403 0.128497 0.568412
0.00521567 0.127583 0.568442
0.00425641 0.126711 0.568626
0.00329676 0.125855 0.568865
0.00233845 0.124977 0.569024
0.00138346 0.124042 0.568969
0.000429653 0.123104 0.5689
-0.000523991 0.122181 0.568882
-0.0014771 0.121264 0.56888
-0.00243113 0.120371 0.568972
-0.00338923 0.119537 0.569287
-0.00434745 0.118706 0.56961
-0.00530729 0.117892 0.570002
-0.00627087 0.117115 0.570537
-0.00723716 0.11636 0.571156
-0.00820469 0.115609 0.571799
-0.00917089 0.114837 0.572361
-0.0101411 0.114094 0.573039
-0.011108 0.113315 0.573579
-0.0120712 0.112503 0.573988
-0.0130344 0.111688 0.574385
-0.0139996 0.110885 0.574835
-0.0149599 0.110047 0.575139
-0.0159179 0.109193 0.575384
-0.0168839 0.108392 0.575839
-0.017848 0.107576 0.576239
-0.0188152 0.106778 0.576713
-0.0197923 0.106032 0.577404
-0.0207799 0.105341 0.578324
-0.0217767 0.104692 0.57943
-0.0227837 0.104081 0.580701
-0.0238105 0.103555 0.582344
-0.0248305 0.10298 0.583789
-0.0258458 0.102366 0.585079
-0.0268473 0.101671 0.586037
-0.0278515 0.100982 0.587024
-0.0288466 0.100245 0.587808
-0.02984 0.0994963 0.588544
-0.0308475 0.0987994 0.589514
-0.031873 0.0981652 0.590768
-0.0329116 0.0975711 0.592209
-0.0339597 0.0969985 0.593759
-0.0350338 0.0965112 0.595701
-0.0360894 0.0959373 0.597272
-0.0371599 0.0954031 0.599035
0.0582199 0.173073 0.55543
0.0572128 0.172004 0.555073
0.0562085 0.170942 0.554729
0.0551788 0.169728 0.553925
0.0541428 0.168462 0.552958
0.053087 0.16706 0.551576
0.0520257 0.165603 0.550009
0.0509578 0.164077 0.548225
0.0498987 0.162579 0.546507
0.0488441 0.16108 0.544767
0.0478229 0.159771 0.543597
0.0468272 0.158612 0.542875
0.0458425 0.157513 0.542331
0.044839 0.156266 0.541321
0.043841 0.155038 0.540359
0.0428387 0.153754 0.539214
0.0418372 0.152452 0.537999
0.0408477 0.151218 0.536986
0.0398779 0.150118 0.536387
0.0389101 0.149017 0.535779
0.0379465 0.147935 0.535222
0.0369852 0.146855 0.534665
0.0360269 0.145784 0.534131
0.035073 0.144736 0.533661
0.0341249 0.143728 0.533317
0.0331803 0.142741 0.533035
0.03224 0.141784 0.532848
0.0313085 0.140914 0.532941
0.0303798 0.140071 0.533121
0.0294561 0.139285 0.53349
0.0285322 0.1385 0.53386
0.0276109 0.137753 0.534359
0.0266867 0.136972 0.534743
0.0257661 0.136247 0.535321
0.0248426 0.135487 0.535778
0.0239234 0.134807 0.536509
0.0230033 0.134131 0.537258
0.0220832 0.133479 0.538096
0.0211624 0.132845 0.538995
0.0202423 0.132261 0.540075
0.0193203 0.131678 0.541163
0.0183963 0.131097 0.542264
0.0174699 0.130495 0.543302
0.0165405 0.129843 0.54417
0.0156095 0.129185 0.545022
0.0146775 0.12855 0.545957
0.0137441 0.12793 0.546954
0.00802247 0.128534 0.56884
0.00706053 0.127709 0.569199
0.0061009 0.126799 0.569244
0.00513997 0.125948 0.569506
0.0041788 0.125106 0.569803
0.00321935 0.124226 0.569955
0.0022631 0.12329 0.5699
0.00130783 0.122354 0.569837
0.00035266 0.121435 0.569834
-0.000601737 0.120516 0.569831
-0.00155705 0.119621 0.569919
-0.00251612 0.118787 0.570234
-0.00347549 0.117957 0.570567
-0.00443652 0.117146 0.570974
-0.00540085 0.11637 0.571515
-0.0063678 0.115613 0.572136
-0.00733572 0.114858 0.572768
-0.0083025 0.114084 0.573323
-0.00927314 0.113339 0.574001
-0.0102408 0.11256 0.574544
-0.0112051 0.111747 0.574956
-0.0121669 0.110914 0.575285
-0.0131298 0.110089 0.575648
-0.0140882 0.109229 0.575869
-0.0150441 0.108355 0.576031
-0.0160079 0.107536 0.576419
-0.0169725 0.106722 0.576826
-0.0179409 0.105928 0.577318
-0.0189182 0.105182 0.578014
-0.0199085 0.104509 0.579015
-0.0209056 0.103859 0.580124
-0.0219123 0.103249 0.581406
-0.0229344 0.102703 0.582974
-0.0239498 0.102103 0.584322
-0.0249566 0.101449 0.585448
-0.0259563 0.10075 0.58639
-0.0269568 0.100045 0.587311
-0.0279512 0.0993074 0.588097
-0.0289451 0.0985591 0.588841
-0.0299556 0.0978748 0.589872
-0.0309808 0.0972421 0.591138
-0.0320231 0.096666 0.592667
-0.0330797 0.096129 0.594384
-0.0341617 0.0956737 0.596482
-0.0352165 0.0950977 0.598054
-0.0362861 0.09456 0.599813
0.0591143 0.172118 0.555625
0.0581107 0.171073 0.555335
0.057113 0.170054 0.555115
0.0560964 0.168922 0.554555
0.055072 0.167735 0.553821
0.0540185 0.166365 0.552531
0.0529591 0.16494 0.551058
0.0518867 0.163412 0.54926
0.0508159 0.161865 0.547386
0.0497492 0.160312 0.545478
0.0487175 0.158953 0.544148
0.0477127 0.157746 0.543275
0.0467235 0.156626 0.542663
0.0457188 0.155385 0.541668
0.0447232 0.154187 0.540794
0.0437257 0.152956 0.53981
0.042728 0.151701 0.538737
0.0417364 0.150468 0.537726
0.0407696 0.149408 0.537252
0.0398019 0.148324 0.536694
0.0388363 0.147242 0.536137
0.0378711 0.146145 0.535526
0.0369081 0.14505 0.534911
0.0359497 0.143976 0.53436
0.0349954 0.142923 0.533866
0.0340479 0.141918 0.533525
0.03311 0.140998 0.533458
0.0321834 0.140189 0.533751
0.0312556 0.139366 0.534
0.0303331 0.138603 0.534448
0.0294112 0.137853 0.534939
0.0284894 0.13711 0.535454
0.0275646 0.136333 0.535858
0.0266449 0.135633 0.536523
0.0257215 0.134889 0.537044
0.0248013 0.134207 0.537773
0.0238803 0.13353 0.538526
0.0229596 0.132879 0.539372
0.0220381 0.132239 0.54026
0.0211156 0.131611 0.541194
0.0201915 0.13098 0.542122
0.0192654 0.130334 0.543007
0.0183372 0.129669 0.543829
0.0174065 0.12896 0.544498
0.0164751 0.128261 0.545205
0.0155428 0.127566 0.545932
0.0146101 0.126918 0.54683
0.00891144 0.127715 0.569515
0.00794933 0.126869 0.569799
0.00698882 0.12596 0.569851
0.00602731 0.125106 0.570106
0.00506567 0.124266 0.570408
0.00410497 0.123401 0.570619
0.00314674 0.122484 0.570634
0.00218941 0.121568 0.570648
0.00123193 0.120668 0.570721
0.000276105 0.119752 0.570729
-0.000679172 0.118839 0.570749
-0.0016377 0.117984 0.570988
-0.00259761 0.117151 0.571311
-0.0035577 0.116321 0.571644
-0.00452384 0.11556 0.57225
-0.0054927 0.114821 0.572944
-0.00646116 0.114067 0.573583
-0.0074286 0.113294 0.574149
-0.00839968 0.112547 0.574825
-0.00936564 0.111747 0.575288
-0.0103283 0.110916 0.575628
-0.0112907 0.110081 0.575954
-0.0122524 0.109241 0.576258
-0.0132113 0.108382 0.576482
-0.0141676 0.107505 0.576637
-0.0151321 0.106687 0.577028
-0.0160968 0.105869 0.577425
-0.0170654 0.105074 0.577915
-0.0180424 0.104328 0.578613
-0.0190334 0.103655 0.579624
-0.0200302 0.103008 0.580745
-0.021037 0.102396 0.582031
-0.0220571 0.101845 0.583583
-0.0230681 0.101223 0.584848
-0.0240698 0.100546 0.585882
-0.0250685 0.0998442 0.586814
-0.0260688 0.0991389 0.58774
-0.0270642 0.0984035 0.588539
-0.0280616 0.0976718 0.58936
-0.0290785 0.0970177 0.590528
-0.0301075 0.0963999 0.59187
-0.0311536 0.0958407 0.593483
-0.0322102 0.0953056 0.59522
-0.0332916 0.0948494 0.597328
-0.0343461 0.0942719 0.598904
-0.0354105 0.093715 0.600589
0.0590035 0.170116 0.555517
0.0580113 0.169129 0.555393
0.0570017 0.168043 0.554969
0.055989 0.16693 0.554457
0.0549497 0.165657 0.553451
0.0539 0.164307 0.552203
0.052828 0.162805 0.550478
0.0517458 0.161214 0.548467
0.0506626 0.159587 0.546323
0.0496131 0.158135 0.544701
0.0485954 0.156859 0.543612
0.0476017 0.155719 0.542934
0.0466023 0.154526 0.542083
0.0456123 0.15338 0.541368
0.0446198 0.152199 0.540538
0.0436262 0.150992 0.539615
0.0426346 0.149779 0.538663
0.0416654 0.148714 0.538172
0.040695 0.147627 0.537603
0.0397274 0.146543 0.53704
0.0387599 0.145446 0.536425
0.0377926 0.144331 0.535746
0.0368296 0.143233 0.535115
0.0358711 0.142156 0.534544
0.03492 0.141132 0.534139
0.0339839 0.140237 0.534155
0.0330611 0.139474 0.534603
0.0321364 0.138695 0.534998
0.0312168 0.137973 0.535588
0.0302974 0.137263 0.536217
0.0293749 0.136524 0.536752
0.028449 0.135748 0.537164
0.0275282 0.135045 0.537826
0.0266048 0.134317 0.538405
0.0256845 0.133647 0.539186
0.0247624 0.132965 0.539927
0.0238403 0.132304 0.540747
0.0229156 0.131619 0.541484
0.0219896 0.130926 0.5422
0.0210617 0.130215 0.542856
0.0201333 0.12951 0.543538
0.0192032 0.128786 0.544156
0.0182722 0.128056 0.544754
0.0173402 0.127319 0.545327
0.016408 0.1266 0.545972
0.0154757 0.125927 0.546781
0.00980096 0.126953 0.570407
0.00883819 0.126084 0.570608
0.00787675 0.125172 0.570649
0.00691482 0.124301 0.570841
0.00595244 0.123461 0.571147
0.00499083 0.122597 0.571365
0.00403155 0.121681 0.571383
0.00307301 0.120766 0.571403
0.00211361 0.119885 0.571549
0.00115556 0.118987 0.57163
0.000199075 0.118074 0.571648
-0.000760143 0.117214 0.571873
-0.00172053 0.116376 0.572178
-0.00268125 0.115541 0.572497
-0.00364656 0.114763 0.573041
-0.00461578 0.114022 0.573735
-0.00558326 0.113253 0.574316
-0.00654941 0.112461 0.574812
-0.00751887 0.111697 0.57542
-0.00848507 0.110895 0.57588
-0.00944792 0.110061 0.576208
-0.0104107 0.109225 0.576532
-0.0113729 0.108386 0.576842
-0.0123328 0.107529 0.577076
-0.0132904 0.106655 0.577245
-0.0142572 0.105851 0.577696
-0.015225 0.10505 0.578164
-0.0161962 0.104267 0.578711
-0.0171737 0.10352 0.57941
-0.0181668 0.10286 0.580481
-0.0191639 0.102211 0.581605
-0.0201674 0.101582 0.582826
-0.0211811 0.100996 0.58424
-0.0221877 0.100354 0.585425
-0.0231851 0.0996554 0.58637
-0.0241804 0.0989378 0.587238
-0.0251807 0.0982342 0.588175
-0.0261801 0.0975188 0.589066
-0.0271809 0.0968018 0.589956
-0.0281984 0.0961468 0.591131
-0.0292298 0.0955444 0.592547
-0.0302801 0.095001 0.594244
-0.0313402 0.094482 0.596064
-0.0324206 0.0940244 0.598179
-0.0334744 0.0934436 0.599752
-0.0345282 0.0928516 0.601284
0.0598952 0.169151 0.555679
0.0589078 0.168194 0.555641
0.0579081 0.167167 0.555391
0.0569069 0.166124 0.555088
0.0558784 0.164923 0.5543
0.0548391 0.163649 0.553279
0.0537724 0.162199 0.55171
0.0526822 0.160588 0.54963
0.0515864 0.158912 0.54733
0.0505207 0.157383 0.545465
0.0494859 0.156018 0.544092
0.0484834 0.154833 0.54327
0.0474887 0.153682 0.542547
0.0465008 0.152561 0.54191
0.0455106 0.151409 0.541167
0.0445208 0.150245 0.540376
0.0435273 0.149035 0.53943
0.0425533 0.147948 0.538869
0.0415811 0.146859 0.538293
0.0406117 0.145776 0.537731
0.0396427 0.144681 0.537119
0.0386734 0.143565 0.536436
0.0377104 0.142484 0.535857
0.0367523 0.141427 0.535351
0.035804 0.140443 0.535076
0.0348694 0.139576 0.535184
0.0339504 0.138857 0.535786
0.0330278 0.13811 0.536292
0.0321074 0.13739 0.536893
0.0311872 0.136681 0.537531
0.0302646 0.135952 0.538108
0.029339 0.135195 0.538589
0.0284169 0.13449 0.539249
0.0274922 0.13376 0.53983
0.0265694 0.133066 0.540533
0.0256447 0.132358 0.541195
0.0247181 0.131634 0.541802
0.0237904 0.130904 0.542391
0.0228618 0.130168 0.542959
0.0219316 0.129414 0.543471
0.0210013 0.128668 0.544007
0.0200712 0.127942 0.544621
0.0191394 0.127192 0.545152
0.0182064 0.126417 0.545594
0.0172735 0.125659 0.546097
0.0163406 0.124926 0.546693
0.0145438 0.125389 0.548082
0.0154071 0.1242 0.547319
0.0106917 0.126248 0.571514
0.00972808 0.125337 0.571564
0.00876543 0.124419 0.571585
0.00780289 0.123529 0.57171
0.00683951 0.122689 0.57202
0.0058774 0.12181 0.572181
0.00491702 0.120893 0.572195
0.00395745 0.119977 0.572213
0.00299686 0.119098 0.572369
0.00203761 0.118202 0.572459
0.00107908 0.117305 0.572543
0.000119053 0.116441 0.572753
-0.000840866 0.115581 0.572979
-0.00180095 0.114727 0.573224
-0.0027653 0.11393 0.573697
-0.00373322 0.113172 0.574323
-0.00470085 0.112399 0.574896
-0.005667 0.111606 0.575388
-0.00663474 0.110823 0.575923
-0.00759917 0.110001 0.576306
-0.00856209 0.109164 0.576624
-0.00952697 0.108344 0.577014
-0.0104901 0.107508 0.577336
-0.0114549 0.106686 0.577719
-0.012418 0.105848 0.578036
-0.013388 0.105061 0.578565
-0.014357 0.104263 0.579047
-0.015331 0.103497 0.579668
-0.0163122 0.102765 0.580438
-0.0173053 0.102102 0.581506
-0.0182992 0.101434 0.582557
-0.0192989 0.100783 0.583691
-0.0203062 0.100161 0.584959
-0.0213027 0.0994659 0.58592
-0.0222968 0.0987508 0.586798
-0.0232925 0.0980321 0.58767
-0.0242893 0.097314 0.588547
-0.025292 0.0966153 0.589516
-0.0262997 0.0959306 0.590554
-0.0273213 0.0952954 0.591825
-0.0283537 0.0946953 0.593261
-0.0294069 0.0941679 0.59504
-0.0304693 0.0936602 0.596923
-0.0315485 0.0931979 0.599033
-0.0325967 0.0925992 0.600532
0.0597886 0.167176 0.555643
0.0587978 0.166199 0.555539
0.0578046 0.165204 0.555379
0.0567846 0.164058 0.554754
0.0557571 0.16286 0.553963
0.0547015 0.161491 0.552636
0.0536114 0.159904 0.550623
0.0525098 0.158222 0.548295
0.0514308 0.156638 0.546253
0.0503805 0.155197 0.544637
0.0493685 0.153965 0.543666
0.0483689 0.152794 0.542876
0.0473765 0.151654 0.542174
0.0463878 0.150523 0.541492
0.0453938 0.14934 0.540638
0.0443957 0.148111 0.539626
0.0434235 0.147046 0.53913
0.0424534 0.145982 0.538632
0.041483 0.144902 0.538076
0.0405178 0.143847 0.537594
0.0395498 0.142755 0.536984
0.0385857 0.141678 0.536417
0.0376288 0.140644 0.535982
0.0366816 0.139681 0.535777
0.0357487 0.138837 0.535964
0.0348297 0.138122 0.536579
0.0339108 0.137414 0.537221
0.0329916 0.136712 0.537889
0.0320728 0.136022 0.538599
0.0311511 0.135311 0.53924
0.0302273 0.134587 0.539837
0.0293043 0.133879 0.540495
0.0283788 0.13315 0.541084
0.0274524 0.132419 0.541666
0.0265244 0.131673 0.542201
0.0255944 0.130907 0.542665
0.0246638 0.130136 0.543115
0.0237324 0.129359 0.543545
0.0228009 0.128583 0.543982
0.0218702 0.127831 0.544499
0.0209399 0.127101 0.545101
0.0200074 0.126332 0.545566
0.0190736 0.125538 0.545943
0.01814 0.124758 0.546367
0.0172063 0.123984 0.546816
0.0162784 0.123495 0.548305
0.0115848 0.125489 0.572433
0.0106201 0.124554 0.572393
0.00965649 0.123615 0.572335
0.00869297 0.122723 0.572455
0.00772893 0.121884 0.572772
0.00676543 0.12102 0.572993
0.00580347 0.12012 0.573074
0.00484197 0.11922 0.573155
0.00388031 0.118341 0.573314
0.00291983 0.117446 0.57341
0.00196079 0.116533 0.573432
0.00100071 0.115652 0.573578
4.10925e-05 0.114772 0.573725
-0.000918654 0.1139 0.573906
-0.00188205 0.113084 0.574305
-0.00284861 0.112305 0.574853
-0.00381423 0.111508 0.575331
-0.00478022 0.11071 0.575803
-0.00574626 0.109907 0.576262
-0.00670908 0.109069 0.576578
-0.00767381 0.108248 0.576964
-0.00864083 0.107446 0.577429
-0.00960641 0.106629 0.57783
-0.0105742 0.105827 0.578299
-0.0115422 0.105024 0.578763
-0.0125154 0.104257 0.57938
-0.0134879 0.103478 0.579949
-0.0144638 0.102719 0.580603
-0.0154481 0.102004 0.581454
-0.0164386 0.101324 0.582455
-0.0174297 0.100633 0.583416
-0.018426 0.099961 0.584468
-0.0194261 0.0993005 0.585575
-0.0204181 0.0985832 0.586443
-0.0214116 0.0978636 0.587308
-0.0224068 0.0971438 0.588178
-0.0234036 0.0964278 0.589068
-0.0244129 0.0957586 0.590176
-0.0254245 0.0950916 0.5913
-0.0264502 0.0944749 0.592662
-0.0274863 0.0938934 0.594192
-0.0285395 0.0933644 0.595977
-0.0295967 0.0928373 0.597785
-0.0306703 0.0923539 0.599812
-0.0317144 0.0917364 0.601236
0.0606687 0.16616 0.555643
0.0596813 0.165201 0.555595
0.0586928 0.164232 0.555513
0.0576809 0.163136 0.555037
0.0566615 0.161991 0.554402
0.0556175 0.160699 0.553309
0.05453 0.15915 0.551404
0.053428 0.157489 0.549135
0.0523428 0.155894 0.547048
0.0512807 0.154402 0.545271
0.0502547 0.153101 0.544074
0.0492495 0.151906 0.543205
0.048252 0.150743 0.542427
0.0472583 0.14959 0.54167
0.0462623 0.148405 0.540804
0.0452622 0.147174 0.53978
0.0442922 0.146131 0.539354
0.0433216 0.145072 0.538868
0.042351 0.144 0.538332
0.041388 0.14297 0.537929
0.0404213 0.141899 0.537385
0.0394566 0.140828 0.536834
0.0385012 0.139818 0.536477
0.0375559 0.13888 0.536355
0.0366246 0.138054 0.536604
0.0357071 0.137354 0.537271
0.0347912 0.136675 0.538018
0.0338719 0.135974 0.538688
0.0329544 0.135301 0.539459
0.0320325 0.134592 0.540111
0.0311086 0.133869 0.54072
0.0301839 0.133147 0.541333
0.0292595 0.132437 0.541991
0.0283313 0.131687 0.542513
0.027401 0.130918 0.54297
0.0264691 0.13013 0.543363
0.0255367 0.12934 0.543749
0.0246026 0.128525 0.544046
0.0236707 0.127746 0.544471
0.0227397 0.126991 0.544985
0.0218094 0.126262 0.545591
0.0208761 0.125478 0.546004
0.019942 0.124681 0.546371
0.0190068 0.123858 0.546644
0.0180802 0.123315 0.547934
0.0124794 0.124686 0.573193
0.0115137 0.123714 0.573015
0.0105491 0.122774 0.572953
0.00958494 0.121878 0.573058
0.00862031 0.121039 0.573375
0.00765623 0.120177 0.573604
0.00669289 0.119294 0.573753
0.00573003 0.11841 0.573898
0.00476674 0.117549 0.574129
0.00380436 0.116673 0.574301
0.00284319 0.115778 0.574397
0.00188289 0.11488 0.574479
0.000923146 0.113982 0.574557
-3.62821e-05 0.113088 0.574651
-0.000997585 0.112233 0.574896
-0.00196154 0.111415 0.575291
-0.00292565 0.110596 0.575684
-0.00388996 0.109777 0.576073
-0.00485425 0.108956 0.576459
-0.00581706 0.108118 0.576775
-0.00678356 0.107315 0.577235
-0.0077526 0.106534 0.577784
-0.00872073 0.105737 0.578274
-0.00969322 0.104974 0.578905
-0.0106659 0.104205 0.579516
-0.0116424 0.103459 0.580224
-0.0126181 0.102699 0.580879
-0.0135995 0.101974 0.581686
-0.0145844 0.101262 0.582554
-0.0155738 0.100566 0.583496
-0.0165623 0.0998553 0.584381
-0.0175517 0.0991425 0.585262
-0.0185423 0.0984229 0.586121
-0.01953 0.0976831 0.586894
-0.0205227 0.0969606 0.58775
-0.0215148 0.0962248 0.588554
-0.0225145 0.0955239 0.589516
-0.0235297 0.0948852 0.590767
-0.0245445 0.0942355 0.591976
-0.0255773 0.0936536 0.593503
-0.0266221 0.0931065 0.595204
-0.0276777 0.0925906 0.59706
-0.0287339 0.092058 0.598856
-0.0298023 0.0915546 0.600806
-0.0308374 0.0909028 0.602079
0.0605717 0.16424 0.555761
0.059588 0.163298 0.55576
0.0585868 0.162263 0.555469
0.0575708 0.161144 0.554913
0.0565303 0.159884 0.553914
0.0554491 0.158388 0.552167
0.0543486 0.15676 0.54999
0.0532564 0.155148 0.547846
0.0521862 0.153631 0.545981
0.0511496 0.152283 0.544633
0.0501381 0.151064 0.543681
0.049135 0.149878 0.542825
0.0481326 0.148681 0.541925
0.0471311 0.147472 0.540976
0.0461289 0.146239 0.539943
0.0451551 0.145177 0.53945
0.0441814 0.144104 0.538914
0.0432129 0.143054 0.538446
0.0422519 0.142045 0.538108
0.0412898 0.141016 0.537701
0.0403297 0.139991 0.537296
0.0393811 0.139043 0.537146
0.0384398 0.138146 0.53716
0.0375048 0.137298 0.537334
0.036582 0.136553 0.537856
0.0356633 0.135847 0.538515
0.0347438 0.135143 0.53918
0.0338254 0.134458 0.539914
0.0329061 0.133774 0.540654
0.0319839 0.133071 0.541334
0.0310593 0.13235 0.541951
0.0301332 0.13162 0.542546
0.029206 0.130886 0.543125
0.0282767 0.130133 0.543641
0.0273441 0.129344 0.54403
0.0264111 0.12855 0.544405
0.0254765 0.127734 0.544701
0.024543 0.126937 0.545065
0.0236109 0.126166 0.545525
0.0226806 0.125439 0.546141
0.0217462 0.124637 0.546493
0.0208108 0.12382 0.546788
0.0198744 0.122974 0.546976
0.0189576 0.122682 0.549192
0.0133759 0.12395 0.574209
0.0124085 0.122958 0.573959
0.0114425 0.121996 0.573817
0.0104773 0.121081 0.573846
0.00951193 0.120241 0.574163
0.00854731 0.119364 0.574338
0.00758304 0.118483 0.574499
0.00661874 0.11762 0.574723
0.00565446 0.116759 0.574958
0.00469043 0.115903 0.575209
0.00372726 0.115028 0.575387
0.00276488 0.114146 0.575533
0.00180403 0.113242 0.575591
0.0008447 0.112325 0.575594
-0.000115266 0.111429 0.575683
-0.00107724 0.110572 0.575923
-0.00203899 0.109717 0.576168
-0.00300067 0.108861 0.576413
-0.00396359 0.108022 0.576724
-0.0049266 0.107184 0.577041
-0.00589481 0.106401 0.577583
-0.00686772 0.105656 0.578288
-0.00784035 0.104899 0.578947
-0.00881731 0.104172 0.579733
-0.00979308 0.103424 0.580437
-0.0107741 0.102709 0.58128
-0.0117528 0.101964 0.582009
-0.0127372 0.101255 0.582891
-0.0137229 0.100543 0.583766
-0.0147125 0.0998442 0.584704
-0.015696 0.099097 0.585438
-0.0166804 0.0983447 0.586156
-0.0176619 0.0975706 0.586781
-0.0186466 0.0968101 0.587469
-0.0196359 0.0960704 0.588253
-0.0206253 0.0953208 0.588999
-0.0216249 0.0946179 0.589959
-0.0226422 0.0939956 0.591288
-0.0236611 0.0933629 0.592584
-0.0246971 0.0928011 0.59421
-0.0257445 0.0922697 0.595992
-0.0268034 0.0917668 0.597924
-0.0278624 0.0912479 0.599796
-0.0289292 0.0907409 0.601741
-0.0299602 0.0900702 0.602936
0.0614546 0.163242 0.555816
0.0604706 0.162301 0.555813
0.0594677 0.161261 0.555504
0.0584494 0.160136 0.554925
0.0574162 0.158922 0.554064
0.056355 0.157548 0.55269
0.0552654 0.156 0.550756
0.0541788 0.154442 0.548771
0.0531051 0.152927 0.546908
0.0520575 0.151535 0.545414
0.0510319 0.150247 0.54424
0.0500196 0.149018 0.543245
0.049015 0.14782 0.542335
0.0480119 0.146613 0.54139
0.0470076 0.145381 0.540352
0.0460294 0.1443 0.539794
0.0450535 0.143221 0.539235
0.0440805 0.142148 0.538691
0.0431183 0.141137 0.538342
0.0421612 0.140153 0.53808
0.0412087 0.139192 0.537888
0.0402651 0.138291 0.537892
0.0393277 0.137433 0.538038
0.0383891 0.136563 0.538143
0.0374629 0.135792 0.538582
0.0365392 0.135045 0.539104
0.0356178 0.134324 0.539714
0.0346978 0.133622 0.540394
0.0337807 0.132957 0.541201
0.0328605 0.132273 0.541951
0.0319355 0.131549 0.542562
0.0310073 0.130799 0.543087
0.0300782 0.130043 0.543592
0.0291501 0.129305 0.544164
0.0282174 0.128517 0.544561
0.0272856 0.127744 0.545013
0.0263531 0.126966 0.545445
0.0254225 0.126223 0.546005
0.024491 0.125472 0.54654
0.0235614 0.124766 0.547236
0.0226266 0.12398 0.54765
0.0216908 0.123178 0.548005
0.0207617 0.122531 0.548927
0.0142738 0.123175 0.575085
0.0133048 0.122166 0.57477
0.0123374 0.121201 0.574616
0.0113712 0.120282 0.574635
0.0104051 0.119441 0.574952
0.00943945 0.118567 0.57514
0.00847381 0.117707 0.575383
0.00750798 0.116863 0.575686
0.00654274 0.116004 0.57593
0.00557749 0.11515 0.576191
0.00461314 0.114275 0.576374
0.00365032 0.113375 0.576451
0.00268917 0.112451 0.576431
0.00173089 0.111492 0.576269
0.000771423 0.110574 0.576267
-0.000188692 0.10968 0.576358
-0.0011496 0.108805 0.576525
-0.00211018 0.10793 0.576692
-0.0030729 0.107089 0.576995
-0.00403604 0.106251 0.577312
-0.00500593 0.105487 0.577936
-0.00598222 0.104779 0.578798
-0.00695889 0.10406 0.57962
-0.00794002 0.103369 0.580562
-0.00892032 0.102656 0.581417
-0.00990397 0.101958 0.582344
-0.0108833 0.101212 0.583074
-0.0118678 0.100498 0.583943
-0.0128536 0.0997817 0.584805
-0.013839 0.0990482 0.585603
-0.0148199 0.0982784 0.586245
-0.015798 0.0974901 0.586806
-0.016774 0.0966789 0.587272
-0.0177563 0.0959014 0.58789
-0.0187429 0.0951456 0.588606
-0.0197289 0.094381 0.589287
-0.0207303 0.0936936 0.590319
-0.0217539 0.0931018 0.591797
-0.0227786 0.0925039 0.593255
-0.0238291 0.0920085 0.5952
-0.0248875 0.0915274 0.597228
-0.0259536 0.0910586 0.599332
-0.0270158 0.0905526 0.601279
-0.0280796 0.090028 0.603161
0.0593104 0.159041 0.554668
0.058279 0.157844 0.55385
0.0572411 0.1566 0.552877
0.0561716 0.155175 0.551322
0.0550964 0.153698 0.549586
0.0540276 0.152231 0.547867
0.0529789 0.150851 0.546409
0.0519384 0.149496 0.545016
0.0509159 0.148224 0.543875
0.0499065 0.147009 0.542911
0.0489014 0.145804 0.541965
0.0478952 0.144575 0.540933
0.0469121 0.143473 0.540304
0.0459307 0.142368 0.539659
0.0449552 0.141288 0.539087
0.0439915 0.140274 0.538729
0.043037 0.139315 0.538547
0.0420901 0.138402 0.538515
0.0411495 0.13753 0.538616
0.0402116 0.136674 0.538772
0.0392717 0.135801 0.538867
0.0383424 0.135008 0.539233
0.0374159 0.134241 0.539686
0.0364941 0.133517 0.54029
0.0355739 0.132813 0.540967
0.0346568 0.132146 0.541772
0.0337363 0.131457 0.542508
0.0328108 0.130729 0.543111
0.0318824 0.129976 0.543628
0.0309545 0.129237 0.544195
0.0300267 0.128503 0.544782
0.0290955 0.127739 0.545266
0.0281652 0.126989 0.545804
0.0272349 0.126249 0.546374
0.0263054 0.125528 0.547019
0.0253743 0.124796 0.547627
0.0244441 0.124089 0.548328
0.0235093 0.123319 0.548802
0.0225724 0.122518 0.549163
0.0216544 0.122107 0.550964
0.0161455 0.123403 0.576256
0.0151732 0.122391 0.575935
0.0142027 0.12138 0.575615
0.013234 0.120415 0.575459
0.0122665 0.119491 0.575461
0.0112996 0.11863 0.575702
0.0103331 0.117755 0.57589
0.00936678 0.116896 0.576139
0.00839991 0.116069 0.576511
0.00743328 0.115228 0.576829
0.0064665 0.114393 0.577169
0.00550095 0.113518 0.577353
0.00453751 0.1126 0.577361
0.00357591 0.111655 0.57726
0.00261729 0.110677 0.577021
0.00165775 0.10974 0.576943
0.000697994 0.108825 0.57695
-0.000263499 0.107949 0.577114
-0.00122432 0.10707 0.577265
-0.00218629 0.106211 0.577494
-0.00314967 0.105371 0.577805
-0.00411968 0.104607 0.578432
-0.00509615 0.103903 0.579313
-0.00607449 0.103202 0.580213
-0.00705754 0.10253 0.581246
-0.00803989 0.101834 0.58218
-0.00902369 0.101136 0.583113
-0.0100032 0.100389 0.583842
-0.0109858 0.0996587 0.584645
-0.011969 0.0989216 0.585425
-0.012949 0.0981486 0.586054
-0.013929 0.0973747 0.58668
-0.0149072 0.0965838 0.587234
-0.0158835 0.0957735 0.587706
-0.0168678 0.0950121 0.588396
-0.0178574 0.0942704 0.589181
-0.0188432 0.0935037 0.589857
-0.0198509 0.092846 0.591033
-0.0208799 0.092288 0.592672
-0.0219122 0.0917263 0.59431
-0.0229733 0.0912839 0.596513
-0.0240424 0.0908545 0.598796
-0.025113 0.0904042 0.601004
-0.0261767 0.0898991 0.602974
0.0601662 0.157929 0.55435
0.0591419 0.156772 0.553652
0.0581232 0.155632 0.553
0.0570752 0.154332 0.551831
0.0560126 0.152937 0.550352
0.0549485 0.151515 0.548767
0.0538993 0.15015 0.547353
0.0528466 0.148745 0.545795
0.051817 0.147448 0.544571
0.0508023 0.146217 0.543549
0.0498021 0.145054 0.542738
0.0487948 0.143834 0.541729
0.0478092 0.142728 0.541088
0.0468193 0.141582 0.540305
0.0458407 0.140494 0.539704
0.0448696 0.139441 0.539214
0.0439175 0.138504 0.539107
0.0429737 0.13762 0.53917
0.0420383 0.13679 0.539416
0.0411024 0.135956 0.539645
0.0401637 0.135099 0.539798
0.0392331 0.134303 0.540158
0.0383034 0.133514 0.540542
0.0373787 0.132769 0.541078
0.0364554 0.132041 0.541672
0.0355355 0.131348 0.542394
0.0346109 0.130621 0.543
0.0336853 0.129892 0.5436
0.0327551 0.129122 0.544061
0.031829 0.1284 0.54469
0.030903 0.127687 0.545356
0.0299752 0.126963 0.545985
0.0290484 0.12626 0.546691
0.0281225 0.12558 0.547487
0.0271939 0.124881 0.548215
0.0262622 0.12415 0.548833
0.025331 0.12344 0.549528
0.0243962 0.122686 0.550066
0.0234591 0.121904 0.550504
0.0160754 0.12166 0.576994
0.0151027 0.120633 0.576611
0.0141324 0.119668 0.57646
0.0131635 0.118744 0.576462
0.0121956 0.117879 0.576693
0.0112279 0.117 0.576867
0.0102604 0.116139 0.57711
0.00929266 0.115313 0.57749
0.00832533 0.114453 0.577738
0.00735824 0.113596 0.577994
0.00639177 0.112718 0.578166
0.00542718 0.111798 0.578171
0.00446438 0.110855 0.578078
0.00350417 0.109878 0.577843
0.00254352 0.10894 0.57776
0.00158363 0.108006 0.57769
0.000622381 0.107111 0.57778
-0.000338225 0.106215 0.577861
-0.00130068 0.105354 0.578085
-0.0022644 0.104514 0.578394
-0.00323443 0.103747 0.579014
-0.00421076 0.103041 0.579896
-0.00518889 0.102339 0.580797
-0.00617329 0.101683 0.581903
-0.00715746 0.101004 0.582915
-0.00814154 0.100308 0.583861
-0.00912345 0.0995784 0.58467
-0.0101059 0.098844 0.585462
-0.0110853 0.0980719 0.586095
-0.012062 0.0972781 0.586635
-0.0130421 0.0965015 0.587254
-0.0140191 0.095695 0.587745
-0.0149958 0.0948899 0.58824
-0.0159806 0.0941262 0.588926
-0.0169692 0.0933832 0.589707
-0.0179606 0.0926454 0.590519
-0.0189773 0.0920383 0.591934
-0.0200162 0.0915341 0.593832
-0.0210657 0.0910579 0.595878
-0.0221408 0.090684 0.598418
-0.0232149 0.0902742 0.600814
-0.0242901 0.089841 0.603124
0.061031 0.156867 0.554185
0.0600122 0.155741 0.553581
0.0590105 0.154691 0.553209
0.057982 0.153499 0.552379
0.0569281 0.152165 0.551085
0.0558747 0.150816 0.549729
0.0548254 0.149468 0.548365
0.0537634 0.148033 0.546705
0.0527235 0.146695 0.545343
0.0517057 0.14546 0.544307
0.0507043 0.144303 0.543512
0.0496974 0.1431 0.542556
0.0487106 0.141999 0.541931
0.0477184 0.140854 0.541147
0.0467347 0.139746 0.540479
0.0457588 0.138673 0.539921
0.0448052 0.137735 0.539807
0.0438604 0.136848 0.539865
0.0429271 0.136038 0.540179
0.0419959 0.135242 0.540543
0.0410617 0.134427 0.540838
0.0401281 0.133614 0.541145
0.0391947 0.132804 0.541459
0.0382683 0.13205 0.541967
0.0373373 0.13126 0.542354
0.0364105 0.13051 0.542878
0.0354835 0.12976 0.543408
0.0345561 0.129013 0.543946
0.0336219 0.128206 0.544277
0.0327003 0.127524 0.545051
0.0317784 0.12685 0.545857
0.0308563 0.126187 0.546709
0.0299343 0.12554 0.547622
0.0290147 0.124938 0.548702
0.0280872 0.12426 0.549517
0.0271561 0.12355 0.550215
0.0262236 0.122835 0.550899
0.0252886 0.122095 0.551498
0.0243652 0.121553 0.552828
0.0179555 0.121938 0.578372
0.01698 0.120943 0.578117
0.0160053 0.119919 0.577747
0.0150333 0.118955 0.577602
0.0140626 0.118013 0.577535
0.0130935 0.117143 0.57775
0.0121246 0.116244 0.57785
0.011156 0.115382 0.578092
0.0101873 0.114555 0.578472
0.00921921 0.113676 0.578646
0.00825143 0.112796 0.578814
0.00728466 0.111895 0.578899
0.00631906 0.110973 0.578894
0.005355 0.110034 0.578817
0.00439265 0.109077 0.578663
0.00342986 0.108156 0.578653
0.00246769 0.10724 0.578657
0.00150539 0.106344 0.578743
0.000543343 0.10545 0.578835
-0.000419136 0.104572 0.578993
-0.00138368 0.103729 0.579295
-0.00235261 0.102941 0.579829
-0.0033274 0.102214 0.580628
-0.00430527 0.101508 0.58152
-0.00528943 0.100851 0.582624
-0.00627204 0.100156 0.583575
-0.00725595 0.0994574 0.584519
-0.00823972 0.0987432 0.5854
-0.00921866 0.0979766 0.586056
-0.0101957 0.0971857 0.58661
-0.0111722 0.0963888 0.587139
-0.0121526 0.0956112 0.587758
-0.0131273 0.0947926 0.588194
-0.0141078 0.0940061 0.588778
-0.0150923 0.0932442 0.589474
-0.0160837 0.0925141 0.59032
-0.0170885 0.0918561 0.591501
-0.0181186 0.0913241 0.593272
-0.0191717 0.0908958 0.595536
-0.0202416 0.0905217 0.598077
-0.0213236 0.0901779 0.600782
-0.0223922 0.0897336 0.603041
-0.023464 0.0892777 0.605268
0.0618817 0.155743 0.553823
0.060879 0.154698 0.553469
0.0598923 0.153724 0.553334
0.0588801 0.15262 0.552779
0.0578385 0.151359 0.551715
0.0567884 0.150041 0.550455
0.0557443 0.148736 0.549223
0.054675 0.147281 0.547494
0.0536315 0.14594 0.546118
0.0526145 0.144724 0.545137
0.0516146 0.143588 0.544411
0.0506089 0.142407 0.543524
0.0496277 0.141351 0.543045
0.0486362 0.140224 0.542324
0.0476508 0.139121 0.541671
0.0466747 0.138062 0.54116
0.0457186 0.137119 0.541033
0.0447685 0.136208 0.541011
0.0438309 0.135376 0.541254
0.0428959 0.13456 0.541554
0.0419585 0.133729 0.541798
0.0410215 0.132899 0.542047
0.0400872 0.132087 0.54236
0.0391574 0.131311 0.542795
0.0382204 0.130479 0.543037
0.0372882 0.129686 0.543414
0.0363602 0.12893 0.543924
0.0354326 0.128181 0.544461
0.0345001 0.127392 0.544855
0.0335811 0.126734 0.54572
0.0326627 0.126094 0.546653
0.0317429 0.125454 0.547592
0.0308228 0.124827 0.548585
0.0299069 0.124266 0.549821
0.0289823 0.123627 0.550783
0.0280517 0.122934 0.551549
0.027118 0.122215 0.552228
0.0261831 0.12149 0.552885
0.0198454 0.122278 0.579985
0.0188635 0.121203 0.579433
0.0178857 0.120188 0.579101
0.0169092 0.119162 0.578722
0.015936 0.118218 0.578657
0.0149639 0.117277 0.578598
0.0139934 0.116407 0.578815
0.0130231 0.115505 0.578905
0.0120534 0.114624 0.579076
0.0110838 0.113762 0.579323
0.0101148 0.112879 0.579484
0.00914645 0.111976 0.579563
0.00817871 0.11107 0.579626
0.00721213 0.110149 0.579625
0.00624673 0.109213 0.579563
0.00528235 0.108278 0.579498
0.00431834 0.107359 0.579495
0.00335512 0.10644 0.579493
0.00239152 0.105544 0.579582
0.00142646 0.104685 0.579821
0.000461593 0.103826 0.580059
-0.000505373 0.103 0.580438
-0.00147385 0.102194 0.580904
-0.0024474 0.101443 0.581603
-0.00342255 0.100699 0.582341
-0.00440329 0.100004 0.583291
-0.00538402 0.0992912 0.584171
-0.00636765 0.0985919 0.585116
-0.00735125 0.0978754 0.585992
-0.00833012 0.0971069 0.586644
-0.00930735 0.0963159 0.587201
-0.0102844 0.0955177 0.587728
-0.0112645 0.0947398 0.588347
-0.0122399 0.093922 0.588791
-0.0132202 0.0931349 0.589374
-0.0142055 0.0923714 0.59007
-0.0152094 0.0917198 0.591281
-0.0162321 0.0911685 0.592961
-0.0172792 0.0907325 0.595191
-0.0183506 0.0903984 0.597917
-0.0194332 0.0900893 0.600785
-0.0205091 0.0897069 0.603336
-0.0215707 0.089218 0.605411
0.0617483 0.153671 0.553402
0.0607671 0.152724 0.553354
0.0597706 0.1517 0.553052
0.0587397 0.150502 0.552185
0.0577012 0.149254 0.551145
0.0566692 0.148025 0.550155
0.0556005 0.146592 0.548491
0.0545492 0.145228 0.547035
0.0535225 0.143975 0.54593
0.0525201 0.142837 0.545194
0.0515131 0.14166 0.544321
0.0505372 0.140645 0.543977
0.0495515 0.139565 0.543409
0.0485741 0.138523 0.542961
0.0475989 0.137484 0.542519
0.0466436 0.136557 0.54245
0.0456876 0.135621 0.542345
0.0447448 0.134763 0.542506
0.0438051 0.133925 0.542733
0.0428636 0.133073 0.542911
0.0419203 0.132206 0.543036
0.0409818 0.131372 0.543272
0.0400456 0.130552 0.543561
0.0391001 0.129662 0.5436
0.038167 0.128864 0.543964
0.0372407 0.128123 0.544526
0.0363169 0.127408 0.545188
0.0353887 0.126661 0.545735
0.0344759 0.126058 0.546801
0.0335559 0.125404 0.547693
0.0326355 0.12476 0.548625
0.0317132 0.124114 0.549552
0.0307977 0.123553 0.550798
0.0298716 0.122899 0.551711
0.0289409 0.122207 0.552489
0.0280066 0.121486 0.553164
0.0270737 0.120793 0.553948
0.0217384 0.122507 0.581178
0.0207571 0.121528 0.580998
0.0197723 0.120429 0.580353
0.0187925 0.119411 0.580008
0.0178142 0.118383 0.579625
0.0168398 0.117442 0.57957
0.0158663 0.116499 0.579507
0.0148946 0.115611 0.579655
0.013923 0.114689 0.579666
0.0129522 0.113789 0.579762
0.0119821 0.112907 0.579931
0.0110123 0.112023 0.58009
0.0100431 0.111119 0.580163
0.00907438 0.11023 0.580296
0.00810633 0.109328 0.580375
0.00713932 0.108411 0.580392
0.00617307 0.107495 0.580406
0.00520776 0.106576 0.580405
0.00424249 0.105674 0.580476
0.00327683 0.104795 0.580636
0.00230867 0.103972 0.581032
0.00134107 0.103134 0.581368
0.000371575 0.102326 0.58183
-0.000597102 0.1015 0.582214
-0.00156878 0.100711 0.582761
-0.0025401 0.0999108 0.583259
-0.00351919 0.0991938 0.584122
-0.00449844 0.0984622 0.584926
-0.00548041 0.097744 0.585795
-0.00646379 0.0970249 0.586665
-0.00744311 0.096254 0.587313
-0.00841888 0.095447 0.587802
-0.00939591 0.0946497 0.588335
-0.010376 0.0938699 0.588949
-0.011354 0.093065 0.589455
-0.0123504 0.0923863 0.590537
-0.013354 0.0917407 0.591779
-0.0143756 0.0911983 0.593504
-0.015421 0.0907709 0.59578
-0.0164844 0.0904219 0.59844
-0.0175509 0.0900468 0.601006
-0.0186223 0.0896662 0.603569
-0.0196851 0.0892044 0.605774
0.0626424 0.15276 0.553707
0.0616636 0.151827 0.553701
0.0606697 0.150821 0.553455
0.0596478 0.149675 0.552753
0.058626 0.148519 0.552009
0.0575919 0.147292 0.551023
0.0565247 0.145885 0.549436
0.0554741 0.144542 0.548045
0.0544477 0.143305 0.546991
0.0534396 0.14215 0.546196
0.0524341 0.140995 0.545395
0.0514598 0.14 0.545117
0.0504763 0.138945 0.544634
0.0494976 0.137907 0.544204
0.0485248 0.136895 0.543853
0.047568 0.135971 0.543795
0.046607 0.135015 0.543626
0.0456587 0.134133 0.543707
0.0447134 0.133266 0.54384
0.0437666 0.132387 0.543927
0.0428183 0.131494 0.543965
0.0418785 0.130656 0.544192
0.0409412 0.129836 0.54448
0.0399942 0.128943 0.544511
0.0390598 0.128141 0.544863
0.0381332 0.127401 0.545435
0.0372096 0.12669 0.546116
0.036282 0.125953 0.546706
0.0353696 0.125352 0.547785
0.034449 0.124696 0.548673
0.0335275 0.124042 0.549575
0.0326067 0.123409 0.55056
0.0316911 0.122845 0.5518
0.0307648 0.122191 0.552719
0.0298335 0.121497 0.553497
0.0289 0.120791 0.554233
0.0279682 0.120118 0.555097
0.0226579 0.121833 0.582489
0.0216733 0.120829 0.582216
0.020685 0.119709 0.581486
0.0197024 0.118668 0.581056
0.0187223 0.117641 0.580674
0.0177457 0.11668 0.580546
0.0167708 0.115739 0.580489
0.0157978 0.114848 0.580629
0.0148248 0.11392 0.580621
0.0138529 0.113018 0.580712
0.0128814 0.112115 0.580797
0.0119106 0.111213 0.580886
0.0109406 0.110292 0.580893
0.00997086 0.109406 0.581041
0.0090015 0.108525 0.581208
0.00803287 0.10763 0.581313
0.00706496 0.106731 0.5814
0.00609779 0.105824 0.581454
0.00513116 0.104921 0.58152
0.004165 0.104025 0.581616
0.00319561 0.103205 0.58203
0.00222596 0.102387 0.582453
0.00125515 0.101585 0.582942
0.000285393 0.100758 0.583332
-0.000685706 0.0999474 0.583788
-0.00165603 0.099121 0.584179
-0.00263381 0.0983835 0.584959
-0.00361156 0.0976314 0.58568
-0.00459217 0.0968965 0.586481
-0.00557533 0.0961747 0.587345
-0.00655474 0.0954034 0.587995
-0.00753055 0.0945951 0.58848
-0.00851034 0.0938144 0.589093
-0.00949523 0.0930662 0.589857
-0.0104866 0.0923565 0.590802
-0.0114981 0.0917837 0.592378
-0.0125169 0.091235 0.59408
-0.0135554 0.0907888 0.596272
-0.0146134 0.0904315 0.598901
-0.0156745 0.0900521 0.60145
-0.0167305 0.089611 0.603731
-0.0177918 0.0891617 0.605999
0.0605715 0.148915 0.553542
0.0595594 0.147816 0.552981
0.0585262 0.146606 0.552049
0.0574643 0.145243 0.550602
0.0564178 0.143937 0.549332
0.055388 0.142699 0.548273
0.0543693 0.141504 0.547343
0.0533606 0.140346 0.54653
0.0523843 0.13935 0.546251
0.0513986 0.138295 0.545769
0.0504188 0.137263 0.545358
0.0494518 0.136295 0.545159
0.0484906 0.135355 0.54505
0.0475244 0.13438 0.544817
0.0465709 0.133474 0.544819
0.0456204 0.132582 0.544869
0.0446686 0.131679 0.544875
0.0437183 0.130782 0.544899
0.0427771 0.12994 0.545117
0.0418386 0.129118 0.5454
0.0408904 0.128225 0.545433
0.0399556 0.127426 0.545799
0.0390314 0.126707 0.546452
0.0381107 0.126023 0.547234
0.0371874 0.125325 0.54797
0.0362747 0.124725 0.549061
0.0353532 0.124063 0.549937
0.0344282 0.123383 0.55075
0.0335043 0.122724 0.551645
0.0325848 0.122121 0.552752
0.0316583 0.121464 0.553669
0.0307264 0.120767 0.554441
0.0297957 0.120096 0.555311
0.0288669 0.119461 0.556325
0.0271086 0.120405 0.559569
0.0280309 0.119987 0.561724
0.0245634 0.122088 0.583786
0.0235762 0.121093 0.583555
0.0225887 0.12007 0.583209
0.0215991 0.118968 0.582552
0.0206146 0.117927 0.582122
0.0196325 0.116901 0.581745
0.0186536 0.115921 0.58154
0.0176767 0.114958 0.581401
0.0167017 0.114027 0.581384
0.0157271 0.11308 0.581296
0.014754 0.112156 0.581303
0.0137818 0.111254 0.58139
0.0128103 0.110369 0.581548
0.0118392 0.109466 0.58163
0.0108685 0.1086 0.581864
0.00989791 0.107739 0.582116
0.00892786 0.106863 0.582303
0.00795826 0.10598 0.582461
0.00698926 0.105092 0.582593
0.00602069 0.104203 0.582723
0.0050522 0.103323 0.582891
0.00408088 0.102521 0.583385
0.00311054 0.101687 0.583745
0.00213945 0.100865 0.58416
0.00117065 0.100002 0.584395
0.000201055 0.099154 0.584697
-0.000768656 0.0983086 0.585009
-0.00174531 0.0975508 0.585706
-0.00272206 0.0967825 0.586361
-0.00370418 0.0960646 0.587242
-0.00468741 0.0953408 0.588103
-0.00566725 0.0945676 0.58875
-0.00664556 0.0937743 0.589308
-0.00762733 0.0930098 0.589998
-0.00862093 0.0923289 0.591075
-0.00962459 0.091711 0.592449
-0.0106508 0.0912371 0.594499
-0.0116846 0.0907875 0.596678
-0.0127389 0.0904377 0.599345
-0.0137954 0.0900599 0.601905
-0.0148459 0.0896063 0.604133
-0.0158865 0.0890602 0.605944
-0.016931 0.088511 0.607758
0.0625397 0.149375 0.555284
0.0615107 0.148217 0.554541
0.0604903 0.147089 0.553885
0.0594578 0.145895 0.553002
0.0584027 0.144581 0.551712
0.057362 0.143319 0.550585
0.0563327 0.1421 0.549585
0.0553065 0.140881 0.548577
0.0542901 0.139698 0.54768
0.0533068 0.138675 0.54731
0.052322 0.137636 0.546882
0.05134 0.136603 0.546469
0.0503749 0.135656 0.54634
0.049415 0.134732 0.54629
0.0484496 0.133772 0.546113
0.0474879 0.132828 0.545985
0.0465326 0.131916 0.545967
0.0455762 0.130994 0.545908
0.0446218 0.130079 0.545872
0.043677 0.129221 0.546036
0.0427379 0.128399 0.546324
0.0417914 0.127526 0.546431
0.0408615 0.126767 0.546946
0.0399423 0.12609 0.547752
0.039026 0.125443 0.548673
0.0381059 0.124777 0.549532
0.0371901 0.124155 0.550556
0.0362628 0.123452 0.551288
0.0353326 0.122733 0.551967
0.0344037 0.122033 0.552721
0.0334782 0.121373 0.553625
0.0325494 0.120696 0.554472
0.0316153 0.119977 0.555164
0.0306864 0.119323 0.556106
0.0297798 0.11893 0.558042
0.0254823 0.121298 0.584671
0.024495 0.120327 0.584531
0.0235072 0.119326 0.584274
0.0225176 0.118269 0.583788
0.0215311 0.11723 0.583369
0.0205476 0.116221 0.583058
0.0195658 0.115218 0.582767
0.0185862 0.114233 0.58254
0.0176089 0.113278 0.58243
0.0166324 0.112313 0.582273
0.0156572 0.111354 0.582137
0.0146837 0.110433 0.582154
0.0137112 0.109546 0.582305
0.0127392 0.108659 0.582455
0.0117676 0.10783 0.58284
0.0107958 0.107005 0.583247
0.00982388 0.106167 0.583595
0.00885263 0.105285 0.583764
0.00788195 0.104395 0.583895
0.00691174 0.103508 0.584037
0.00594224 0.102613 0.58414
0.00497051 0.101788 0.584547
0.00399863 0.100963 0.58495
0.00302759 0.100117 0.585266
0.00205842 0.0992358 0.585427
0.00108785 0.0983846 0.585719
0.000118186 0.0975221 0.58596
-0.000857791 0.0967478 0.58659
-0.00183505 0.0959798 0.587251
-0.00281758 0.0952614 0.588138
-0.00380135 0.0945391 0.589013
-0.00478442 0.0937963 0.589801
-0.00577042 0.0930666 0.590654
-0.00676121 0.0923713 0.591669
-0.00776663 0.091783 0.593182
-0.00878377 0.0912582 0.595004
-0.00982065 0.0908609 0.597429
-0.010863 0.0904526 0.599831
-0.0119164 0.0900889 0.60246
-0.0129607 0.0896148 0.604597
-0.013998 0.0890623 0.606384
-0.0150212 0.0884001 0.607662
0.0634852 0.148684 0.556315
0.0624507 0.147513 0.555524
0.0614357 0.14642 0.554983
0.0603951 0.145201 0.554016
0.0593422 0.143911 0.552805
0.0583043 0.142678 0.551768
0.0572725 0.14146 0.550774
0.0562388 0.140219 0.549689
0.0552179 0.139028 0.548761
0.0542238 0.137959 0.548238
0.0532327 0.136897 0.547731
0.0522486 0.135863 0.547311
0.0512815 0.134911 0.54717
0.0503164 0.133966 0.547046
0.0493523 0.133021 0.546921
0.0483888 0.132073 0.546781
0.047433 0.131166 0.546779
0.0464762 0.130248 0.546737
0.0455241 0.129354 0.546777
0.0445784 0.128497 0.546945
0.0436358 0.127658 0.547177
0.0426938 0.126822 0.547418
0.041769 0.126102 0.548077
0.04085 0.125429 0.548905
0.0399334 0.124781 0.54983
0.0390167 0.124143 0.550799
0.0380978 0.1235 0.551752
0.0371654 0.122761 0.552359
0.0362364 0.122056 0.553095
0.0353089 0.121371 0.553911
0.0343806 0.12069 0.554746
0.0334493 0.119993 0.555522
0.032516 0.119286 0.556269
0.0315869 0.118633 0.55722
0.0307054 0.118493 0.560127
0.0263974 0.120432 0.585264
0.0254106 0.119483 0.58521
0.0244242 0.118527 0.585128
0.0234354 0.117512 0.58481
0.0224482 0.116499 0.584491
0.0214636 0.115507 0.584251
0.0204797 0.114498 0.583934
0.019498 0.113507 0.583688
0.018519 0.112552 0.583579
0.0175418 0.111622 0.583567
0.0165646 0.110663 0.583436
0.015589 0.109723 0.583377
0.0146147 0.108814 0.583438
0.0136413 0.107909 0.583516
0.0126685 0.107047 0.583772
