ply
format ascii 1.0
element vertex 1609
property float x
property float y
property float z
end_header
-0.0360602 0.0343942 0.114584
-0.0359472 0.0339079 0.115094
-0.0358392 0.0334426 0.115746
-0.035729 0.0329675 0.116348
-0.0356217 0.0325049 0.11704
-0.0355067 0.0320097 0.117531
-0.0353887 0.0315021 0.117946
-0.0352916 0.0310824 0.118963
-0.0349465 0.0295725 0.128588
-0.0348043 0.0289628 0.128413
-0.0346602 0.0283449 0.128169
-0.0345186 0.0277375 0.127994
-0.034379 0.0271386 0.127876
-0.0342428 0.0265543 0.127863
-0.0341068 0.0259705 0.12785
-0.0339696 0.0253817 0.127795
-0.0338332 0.0247965 0.127764
-0.0336982 0.024217 0.127774
-0.0335627 0.0236354 0.127764
-0.0334311 0.0230703 0.127887
-0.0333033 0.022521 0.128141
-0.033173 0.0219613 0.128311
-0.0330446 0.0214095 0.128551
-0.0329168 0.0208602 0.128816
-0.0327878 0.0203061 0.129042
-0.0326571 0.0197443 0.129202
-0.0325279 0.0191891 0.129424
-0.0323969 0.0186267 0.129582
-0.0322669 0.0180677 0.129773
-0.0321367 0.0175086 0.129966
-0.0320058 0.0169462 0.130128
-0.0318765 0.0163906 0.130358
-0.0317488 0.0158414 0.130657
-0.031622 0.0152964 0.131003
-0.0314967 0.0147573 0.131419
-0.0313712 0.0142175 0.131838
-0.0312453 0.0136757 0.132246
-0.0311198 0.013136 0.132686
-0.0309943 0.0125956 0.133132
-0.0308695 0.0120588 0.133627
-0.0307451 0.0115233 0.134153
-0.0306225 0.0109952 0.134781
-0.0304975 0.0104571 0.13531
-0.0303736 0.00992353 0.135912
-0.0302475 0.00938054 0.136411
-0.0301202 0.00883315 0.136872
-0.0299926 0.00828398 0.137324
-0.0298647 0.00773376 0.137778
-0.0297344 0.00717335 0.138106
-0.029606 0.00662096 0.138559
-0.0294781 0.00607039 0.139045
-0.0293488 0.0055143 0.139475
-0.0292234 0.00497411 0.140156
-0.0290957 0.00442421 0.140711
-0.0289697 0.00388158 0.141401
-0.0288448 0.00334291 0.142188
-0.041033 0.0583504 0.123404
-0.0408735 0.0576628 0.123001
-0.0407085 0.0569514 0.122483
-0.0405408 0.0562278 0.121898
-0.0403687 0.0554851 0.121216
-0.0401945 0.0547329 0.120476
-0.0400238 0.0539964 0.119795
-0.0398524 0.0532563 0.119085
-0.0396899 0.0525557 0.118548
-0.0395289 0.051861 0.118029
-0.0393747 0.0511965 0.117644
-0.0392161 0.0505131 0.117159
-0.0390518 0.049804 0.116538
-0.0388858 0.0490875 0.115868
-0.038725 0.0483936 0.115297
-0.0385701 0.0477258 0.114846
-0.0384198 0.0470781 0.114486
-0.0382794 0.0464739 0.11434
-0.0381334 0.0458452 0.114063
-0.0379874 0.0452162 0.113778
-0.0378403 0.0445823 0.113459
-0.0377005 0.0439807 0.113304
-0.037559 0.043372 0.113106
-0.0374245 0.0427935 0.113065
-0.0372911 0.0422199 0.113047
-0.0371604 0.0416583 0.113093
-0.0370278 0.0410881 0.11309
-0.0369002 0.0405401 0.113208
-0.0367726 0.0399921 0.113327
-0.0366389 0.0394172 0.113293
-0.0365047 0.0388402 0.113242
-0.0363702 0.0382618 0.113182
-0.0362376 0.0376914 0.113163
-0.0361069 0.03713 0.113196
-0.0359825 0.036596 0.113392
-0.0358602 0.0360712 0.113645
-0.0357388 0.0355507 0.113926
-0.0356174 0.0350298 0.114209
-0.0354992 0.0345235 0.114586
-0.035388 0.0340476 0.115161
-0.0352792 0.0335829 0.115818
-0.0351697 0.033115 0.116464
-0.0350623 0.0326563 0.117184
-0.0349476 0.0321655 0.117704
-0.0348269 0.0316482 0.118056
-0.034726 0.0312184 0.119005
-0.0343678 0.0297201 0.128693
-0.034227 0.0291147 0.12855
-0.0340836 0.0284968 0.12831
-0.0339425 0.0278897 0.12814
-0.0338051 0.0272986 0.128084
-0.0336692 0.0267144 0.128075
-0.0335334 0.0261308 0.128067
-0.0333964 0.0255416 0.128012
-0.0332602 0.0249559 0.127982
-0.0331242 0.0243711 0.127953
-0.032988 0.0237854 0.127913
-0.0328562 0.0232196 0.128032
-0.0327272 0.0226661 0.128253
-0.0325959 0.0221017 0.128386
-0.0324661 0.0215448 0.128583
-0.0323369 0.0209905 0.128805
-0.0322078 0.0204364 0.129032
-0.032078 0.0198789 0.129231
-0.0319496 0.0193285 0.129496
-0.0318195 0.01877 0.129692
-0.0316901 0.0182148 0.12992
-0.0315599 0.0176558 0.130116
-0.0314297 0.017097 0.130317
-0.0313009 0.0165444 0.13058
-0.0311728 0.015995 0.130879
-0.0310455 0.0154489 0.13122
-0.0309187 0.0149058 0.131597
-0.0307912 0.014359 0.131944
-0.0306633 0.0138108 0.132286
-0.0305366 0.0132677 0.132691
-0.0304106 0.0127282 0.133142
-0.0302852 0.0121912 0.133637
-0.0301609 0.0116594 0.134202
-0.030038 0.0111335 0.13486
-0.029913 0.0105987 0.135425
-0.0297876 0.0100623 0.135995
-0.0296608 0.00951912 0.13649
-0.0295322 0.00896825 0.13691
-0.0294033 0.00841592 0.137323
-0.0292744 0.00786335 0.137742
-0.0291437 0.00730301 0.138069
-0.0290148 0.00675097 0.138522
-0.0288862 0.0061999 0.139007
-0.0287564 0.0056439 0.139435
-0.0286303 0.00510463 0.140119
-0.0285018 0.00455464 0.140673
-0.0283749 0.0040122 0.141368
-0.0282489 0.00347398 0.14216
-0.0404594 0.05853 0.123595
-0.0403019 0.0578475 0.123218
-0.0401347 0.0571209 0.122634
-0.0399646 0.0563807 0.121977
-0.0397921 0.0556296 0.121258
-0.0396173 0.0548682 0.120478
-0.0394462 0.054123 0.119759
-0.0392761 0.053382 0.119046
-0.0391147 0.0526812 0.118509
-0.0389563 0.0519934 0.118024
-0.0388047 0.0513367 0.117678
-0.0386503 0.0506672 0.117262
-0.0384904 0.0499722 0.116713
-0.0383286 0.0492684 0.116109
-0.0381674 0.0485675 0.115507
-0.0380118 0.047892 0.11502
-0.0378604 0.047235 0.114616
-0.0377174 0.0466172 0.114403
-0.0375695 0.0459761 0.114063
-0.0374239 0.0453461 0.113774
-0.037276 0.0447054 0.113421
-0.0371352 0.0440967 0.113229
-0.0369944 0.043488 0.113031
-0.0368601 0.0429095 0.112989
-0.0367272 0.0423372 0.112979
-0.036598 0.0417816 0.113058
-0.0364656 0.0412115 0.113055
-0.036338 0.0406635 0.113174
-0.0362104 0.0401155 0.113293
-0.0360769 0.0395406 0.113258
-0.0359431 0.0389634 0.113208
-0.0358089 0.038385 0.113147
-0.0356775 0.0378194 0.113157
-0.035548 0.0372626 0.113218
-0.0354243 0.0367325 0.113437
-0.0353027 0.0362123 0.113718
-0.0351811 0.0356918 0.114001
-0.0350584 0.0351668 0.114259
-0.0349398 0.0346605 0.114637
-0.034829 0.0341902 0.115247
-0.0347187 0.0337226 0.115884
-0.0346104 0.0332647 0.116596
-0.0345029 0.0328107 0.117345
-0.0343876 0.0323203 0.117869
-0.0342654 0.031798 0.11819
-0.0341516 0.0313149 0.118779
-0.0337856 0.0298542 0.1287
-0.0336476 0.0292591 0.128633
-0.0335057 0.0286457 0.128428
-0.0333662 0.0280434 0.128297
-0.033229 0.0274521 0.128241
-0.0330932 0.0268676 0.128233
-0.0329584 0.0262875 0.128255
-0.0328217 0.0256981 0.128202
-0.0326856 0.0251117 0.128168
-0.0325489 0.0245226 0.128109
-0.0324127 0.0239356 0.128062
-0.0322802 0.0233659 0.128152
-0.0321501 0.022808 0.128339
-0.0320176 0.0222389 0.128433
-0.0318875 0.0216806 0.12862
-0.031758 0.0211255 0.128835
-0.0316287 0.0205716 0.129064
-0.0314996 0.0200186 0.129303
-0.031372 0.0194724 0.129609
-0.0312426 0.0189182 0.129846
-0.0311131 0.018363 0.130077
-0.0309826 0.0178037 0.130273
-0.0308529 0.0172476 0.130502
-0.0307237 0.0166949 0.130767
-0.0305953 0.0161454 0.131069
-0.0304675 0.0155988 0.131406
-0.0303395 0.0150519 0.131748
-0.03021 0.0144975 0.132018
-0.030081 0.0139455 0.132319
-0.0299531 0.0133989 0.132687
-0.029826 0.0128566 0.133109
-0.0297 0.01232 0.133605
-0.0295756 0.0117911 0.134206
-0.0294525 0.0112694 0.134904
-0.0293275 0.0107381 0.135515
-0.0292015 0.0102024 0.136087
-0.0290738 0.00965825 0.136578
-0.0289445 0.00910634 0.136984
-0.0288145 0.00855098 0.137358
-0.0286845 0.00799566 0.137742
-0.0285535 0.00743515 0.138068
-0.028424 0.0068829 0.13852
-0.0282948 0.00633228 0.139006
-0.0281651 0.00577955 0.139474
-0.028038 0.00523996 0.140159
-0.0279092 0.0046924 0.140751
-0.0277818 0.00415228 0.141476
-0.0276552 0.00361657 0.142306
-0.0398855 0.0587119 0.123796
-0.039729 0.0580303 0.123425
-0.0395597 0.0572876 0.122772
-0.0393878 0.0565324 0.12205
-0.0392151 0.0557734 0.121297
-0.0390403 0.0550044 0.120484
-0.0388691 0.0542518 0.119733
-0.0387016 0.0535164 0.119048
-0.0385413 0.0528151 0.11851
-0.0383854 0.0521339 0.118058
-0.0382373 0.0514903 0.117776
-0.038087 0.0508353 0.117433
-0.0379309 0.0501533 0.116949
-0.0377719 0.0494566 0.116384
-0.0376116 0.0487541 0.115778
-0.0374542 0.0480645 0.115224
-0.0373006 0.0473934 0.114752
-0.0371542 0.046756 0.114441
-0.0370056 0.0461079 0.114068
-0.0368594 0.0454713 0.113746
-0.0367122 0.0448302 0.113392
-0.0365719 0.0442215 0.1132
-0.0364315 0.0436123 0.113
-0.0362976 0.0430341 0.112961
-0.0361648 0.0424611 0.112946
-0.0360356 0.0419052 0.113024
-0.0359033 0.0413349 0.11302
-0.0357757 0.0407869 0.113139
-0.0356481 0.0402389 0.113258
-0.0355161 0.039669 0.113253
-0.0353836 0.0390973 0.113234
-0.0352508 0.0385243 0.113205
-0.0351207 0.0379638 0.113247
-0.0349913 0.0374068 0.113308
-0.0348662 0.0368712 0.113495
-0.0347432 0.0363456 0.113744
-0.0346202 0.0358199 0.113995
-0.0344963 0.0352898 0.114222
-0.0343783 0.0347886 0.114631
-0.0342686 0.0343283 0.115302
-0.0341586 0.0338665 0.115977
-0.0340504 0.033414 0.116723
-0.0339418 0.03296 0.117473
-0.0338265 0.032473 0.11802
-0.033705 0.031956 0.118377
-0.0335822 0.0314324 0.118696
-0.033205 0.0299964 0.128764
-0.0330694 0.0294119 0.128775
-0.0329299 0.0288082 0.128644
-0.0327917 0.0282099 0.128546
-0.0326555 0.0276225 0.128524
-0.0325207 0.0270415 0.128547
-0.032386 0.0264608 0.128569
-0.0322494 0.0258707 0.128516
-0.0321133 0.0252832 0.128479
-0.0319768 0.0246933 0.128418
-0.0318407 0.0241056 0.12837
-0.031708 0.0235351 0.128458
-0.031577 0.0229727 0.128612
-0.0314429 0.0223953 0.128642
-0.0313117 0.0218322 0.12879
-0.0311813 0.0212731 0.128974
-0.0310511 0.0207157 0.129174
-0.0309226 0.0201666 0.12945
-0.0307954 0.0196244 0.129793
-0.0306664 0.0190735 0.130063
-0.0305372 0.018521 0.130324
-0.0304071 0.0179643 0.130548
-0.030277 0.0174079 0.130778
-0.0301476 0.016855 0.131046
-0.0300183 0.0163022 0.13132
-0.0298887 0.0157487 0.131592
-0.029759 0.0151943 0.131859
-0.0296279 0.0146326 0.132056
-0.0294978 0.0140766 0.132315
-0.0293689 0.0135267 0.132645
-0.0292412 0.012984 0.13306
-0.0291147 0.0124477 0.133559
-0.0289895 0.0119194 0.134164
-0.0288656 0.0113984 0.134871
-0.0287404 0.0108709 0.13552
-0.0286137 0.0103353 0.136098
-0.0284854 0.00979144 0.136589
-0.0283556 0.00923927 0.136992
-0.0282251 0.00868371 0.137361
-0.0280941 0.00812548 0.137711
-0.0279628 0.00756527 0.138036
-0.0278328 0.00701337 0.138489
-0.0277034 0.00646522 0.139009
-0.0275736 0.00591508 0.139518
-0.027446 0.00537845 0.140242
-0.0273169 0.00483343 0.140873
-0.0271887 0.0042952 0.141629
-0.0270612 0.00376196 0.142496
-0.0394559 0.0595245 0.124133
-0.0393067 0.0588742 0.123909
-0.0391521 0.0581971 0.123561
-0.0389867 0.0574674 0.122968
-0.0388174 0.0567178 0.122275
-0.0386448 0.0559514 0.121492
-0.0384701 0.0551748 0.120648
-0.0382988 0.0544144 0.119864
-0.0381314 0.0536723 0.119149
-0.0379694 0.0529571 0.118549
-0.0378157 0.0522818 0.118126
-0.0376696 0.0516442 0.117875
-0.0375228 0.0510028 0.117599
-0.0373669 0.0503162 0.117097
-0.0372103 0.0496258 0.116565
-0.0370509 0.0489216 0.115954
-0.0368918 0.0482178 0.115332
-0.0367376 0.0475384 0.11482
-0.0365917 0.0468998 0.114505
-0.0364426 0.0462454 0.114102
-0.036296 0.0456026 0.113748
-0.0361508 0.0449668 0.113423
-0.03601 0.0443531 0.113207
-0.0358702 0.043744 0.113009
-0.0357365 0.0431653 0.112968
-0.0356036 0.042591 0.112947
-0.0354733 0.0420291 0.112992
-0.0353412 0.0414583 0.112986
-0.0352136 0.0409103 0.113105
-0.035086 0.0403623 0.113224
-0.0349552 0.0397979 0.11325
-0.0348241 0.0392322 0.113266
-0.0346928 0.0386654 0.113274
-0.034563 0.0381058 0.113322
-0.0344336 0.0375489 0.113385
-0.0343076 0.0370086 0.113545
-0.0341842 0.0364823 0.11379
-0.0340609 0.0359562 0.114039
-0.0339385 0.0354346 0.114319
-0.0338218 0.0349433 0.11479
-0.0337121 0.0344878 0.115493
-0.0336013 0.0340271 0.116175
-0.0334918 0.0335737 0.116916
-0.0333803 0.03311 0.117604
-0.0332641 0.0326229 0.118151
-0.0331432 0.0321106 0.118541
-0.0330211 0.0315926 0.1189
-0.0326215 0.0301254 0.128734
-0.0324897 0.0295599 0.128883
-0.0323532 0.02897 0.128853
-0.0322162 0.0283761 0.128792
-0.0320811 0.027793 0.128806
-0.0319471 0.0272156 0.12886
-0.0318124 0.0266345 0.128883
-0.0316759 0.0260438 0.128831
-0.0315394 0.0254521 0.128766
-0.0314029 0.0248609 0.128699
-0.0312669 0.0242723 0.128649
-0.0311335 0.0236973 0.128705
-0.0310015 0.0231307 0.128828
-0.0308682 0.0225562 0.128886
-0.0307361 0.021989 0.129003
-0.0306055 0.0214298 0.129189
-0.0304759 0.0208759 0.129423
-0.0303477 0.0203305 0.129736
-0.0302199 0.0197875 0.130076
-0.0300912 0.0192393 0.130376
-0.0299609 0.0186828 0.130603
-0.02983 0.0181221 0.130794
-0.029699 0.0175617 0.13099
-0.0295688 0.0170051 0.131226
-0.0294385 0.0164486 0.131467
-0.029308 0.0158913 0.131702
-0.0291773 0.0153329 0.131931
-0.0290454 0.0147674 0.132089
-0.028914 0.0142045 0.132276
-0.0287841 0.0136514 0.132571
-0.0286554 0.0131053 0.132948
-0.0285282 0.0125691 0.133445
-0.0284027 0.0120436 0.134078
-0.0282789 0.0115291 0.134855
-0.0281532 0.0110046 0.135543
-0.0280264 0.0104728 0.13616
-0.0278974 0.00992856 0.13665
-0.0277667 0.00937404 0.137022
-0.0276354 0.00881566 0.137359
-0.0275038 0.00825585 0.13768
-0.0273724 0.00769744 0.138035
-0.0272422 0.00714801 0.138522
-0.0271126 0.00660293 0.139082
-0.0269829 0.0060579 0.139665
-0.0268547 0.00552433 0.140433
-0.026725 0.0049817 0.1411
-0.0265957 0.00444327 0.14186
-0.0264669 0.00390976 0.142726
-0.0388765 0.0596897 0.124257
-0.0387274 0.0590364 0.124021
-0.0385749 0.058366 0.123705
-0.038412 0.0576422 0.123142
-0.0382441 0.0568929 0.122453
-0.0380728 0.0561254 0.121668
-0.0379008 0.055354 0.120851
-0.0377309 0.054592 0.120063
-0.0375635 0.0538426 0.119318
-0.0374013 0.0531198 0.118685
-0.0372483 0.0524436 0.11826
-0.0371013 0.0517982 0.117974
-0.0369553 0.0511571 0.117701
-0.0367994 0.0504648 0.117173
-0.0366436 0.0497728 0.116636
-0.0364853 0.0490674 0.116021
-0.0363259 0.0483552 0.11536
-0.0361728 0.0476761 0.114852
-0.0360287 0.0470427 0.114564
-0.0358816 0.0463938 0.114191
-0.0357368 0.0457565 0.113868
-0.0355936 0.0451269 0.113578
-0.0354534 0.0445134 0.113364
-0.0353131 0.0438989 0.11314
-0.0351782 0.0433128 0.113061
-0.0350433 0.0427263 0.112976
-0.0349119 0.0421579 0.112986
-0.034779 0.0415817 0.112951
-0.0346514 0.0410337 0.11307
-0.0345238 0.0404857 0.113189
-0.0343942 0.039927 0.113247
-0.0342644 0.0393676 0.1133
-0.0341347 0.0388078 0.11335
-0.034007 0.0382592 0.113463
-0.0338796 0.0377125 0.113588
-0.0337552 0.0371815 0.113805
-0.0336325 0.0366602 0.114083
-0.0335107 0.0361433 0.114392
-0.0333889 0.0356271 0.114708
-0.0332717 0.0351362 0.115184
-0.0331592 0.0346714 0.115832
-0.0330463 0.0342048 0.11648
-0.0329329 0.033736 0.117125
-0.0328176 0.0332569 0.117715
-0.0326997 0.0327639 0.118223
-0.0325791 0.0322566 0.118647
-0.0324586 0.03175 0.119083
-0.0320389 0.0302593 0.12874
-0.0319086 0.029703 0.128954
-0.0317741 0.0291225 0.128994
-0.0316375 0.0285298 0.128944
-0.0315034 0.0279516 0.128997
-0.0313695 0.0273741 0.129053
-0.0312356 0.0267965 0.129108
-0.0310994 0.0262057 0.129057
-0.030963 0.0256136 0.128993
-0.0308268 0.0250222 0.128929
-0.0306909 0.0244325 0.128875
-0.0305568 0.0238527 0.128895
-0.0304248 0.0232857 0.129018
-0.0302927 0.0227186 0.129141
-0.0301613 0.0221552 0.129294
-0.0300311 0.0215995 0.129515
-0.0299017 0.0210488 0.129782
-0.0297724 0.0204987 0.130058
-0.029643 0.0199478 0.130332
-0.0295138 0.0193991 0.130631
-0.0293833 0.0188418 0.130854
-0.0292517 0.0182781 0.131022
-0.0291205 0.0177171 0.131216
-0.0289897 0.0171592 0.131443
-0.028858 0.0165947 0.131608
-0.0287262 0.0160299 0.131772
-0.0285951 0.0154707 0.131993
-0.0284632 0.014905 0.132151
-0.0283311 0.0143393 0.13231
-0.028201 0.0137862 0.132605
-0.0280717 0.0132393 0.132977
-0.0279439 0.0127029 0.13347
-0.0278172 0.012175 0.134071
-0.0276922 0.0116605 0.134849
-0.0275656 0.0111361 0.135532
-0.0274379 0.010604 0.136149
-0.027308 0.0100577 0.136611
-0.0271773 0.00950589 0.137016
-0.0270457 0.00894816 0.137357
-0.0269137 0.00838783 0.137675
-0.0267822 0.00783221 0.138068
-0.0266518 0.00728551 0.13859
-0.0265219 0.00674372 0.139192
-0.0263917 0.0062017 0.139818
-0.0262626 0.00567032 0.140626
-0.0261323 0.00513037 0.141331
-0.0260019 0.00459184 0.142096
-0.0381445 0.0591828 0.124063
-0.0379958 0.0585283 0.123819
-0.0378357 0.057813 0.123296
-0.0376735 0.0570859 0.12271
-0.0375063 0.0563321 0.121992
-0.0373369 0.0555657 0.121202
-0.0371667 0.0547942 0.120375
-0.036999 0.0540351 0.11959
-0.036834 0.0532903 0.118857
-0.0366791 0.0525988 0.118363
-0.0365314 0.0519453 0.11804
-0.0363858 0.0513033 0.117764
-0.036232 0.0506162 0.117264
-0.0360784 0.0499295 0.116755
-0.0359211 0.0492223 0.116134
-0.035764 0.0485158 0.115504
-0.0356121 0.0478367 0.114998
-0.0354677 0.0471987 0.11469
-0.0353227 0.0465563 0.114351
-0.0351796 0.0459245 0.11406
-0.0350371 0.0452951 0.113773
-0.0348964 0.0446756 0.113531
-0.0347564 0.0440594 0.1133
-0.0346196 0.0434606 0.113156
-0.0344838 0.0428671 0.113035
-0.0343504 0.0422872 0.112983
-0.0342187 0.0417158 0.112975
-0.0340901 0.0411628 0.113067
-0.0339626 0.040615 0.113187
-0.033834 0.0400616 0.113276
-0.0337063 0.0395128 0.11339
-0.0335778 0.0389596 0.113479
-0.0334521 0.0384223 0.11366
-0.0333265 0.037886 0.113847
-0.0332045 0.0373699 0.114156
-0.0330825 0.0368544 0.114473
-0.0329614 0.036344 0.114824
-0.0328404 0.0358343 0.115184
-0.0327225 0.0353434 0.115666
-0.0326066 0.0348642 0.116227
-0.0324905 0.0343847 0.116797
-0.0323741 0.0339035 0.117365
-0.0322551 0.0334078 0.11785
-0.0321347 0.0329045 0.118293
-0.0320136 0.0323969 0.118715
-0.0318928 0.0318914 0.119158
-0.0313279 0.0298506 0.129057
-0.031195 0.0292794 0.129167
-0.0310595 0.0286918 0.129157
-0.0309256 0.0281144 0.129219
-0.0307924 0.0275406 0.129306
-0.0306584 0.0269621 0.129356
-0.0305224 0.0263707 0.129307
-0.0303864 0.0257791 0.12925
-0.030251 0.0251911 0.129218
-0.0301159 0.0246046 0.129193
-0.0299817 0.024024 0.129212
-0.0298496 0.0234564 0.129335
-0.0297175 0.0228893 0.129462
-0.029586 0.022326 0.129622
-0.0294556 0.0217703 0.129847
-0.0293258 0.0212188 0.130113
-0.0291961 0.0206682 0.130389
-0.0290657 0.0201128 0.130627
-0.028936 0.019563 0.13092
-0.0288052 0.0190056 0.131148
-0.0286734 0.0184414 0.131315
-0.0285415 0.0178763 0.131476
-0.0284099 0.0173138 0.131663
-0.0282773 0.0167441 0.131781
-0.0281443 0.0161716 0.131871
-0.0280127 0.0156089 0.13206
-0.0278807 0.0150436 0.132223
-0.0277491 0.0144814 0.13242
-0.0276186 0.0139282 0.132718
-0.0274893 0.0133845 0.133124
-0.0273608 0.012848 0.133616
-0.0272328 0.0123168 0.134185
-0.0271063 0.0117992 0.134927
-0.0269785 0.011272 0.135577
-0.0268495 0.0107369 0.136155
-0.0267186 0.0101873 0.136578
-0.0265877 0.00963803 0.137014
-0.0264558 0.00908023 0.137356
-0.0263235 0.00852022 0.137675
-0.0261919 0.0079677 0.138103
-0.0260611 0.00742386 0.138664
-0.0259306 0.00688497 0.139312
-0.0258 0.00634783 0.14001
-0.0256703 0.00582187 0.140891
-0.0255389 0.00528154 0.141599
-0.0254076 0.00474536 0.142397
-0.0377059 0.0599636 0.124256
-0.0375597 0.0593197 0.124063
-0.037414 0.0586782 0.123877
-0.0372598 0.0579895 0.123476
-0.037103 0.0572857 0.122998
-0.0369389 0.0565411 0.122325
-0.0367721 0.0557804 0.121566
-0.0366021 0.0550006 0.120705
-0.036434 0.0542309 0.119875
-0.0362663 0.0534624 0.119036
-0.0361094 0.0527538 0.118463
-0.0359609 0.0520916 0.118101
-0.0358159 0.0514485 0.117822
-0.0356631 0.0507616 0.117324
-0.0355118 0.0500816 0.11685
-0.0353578 0.0493862 0.116289
-0.0352032 0.0486865 0.115696
-0.0350525 0.0480081 0.115198
-0.034909 0.0473704 0.114893
-0.0347656 0.0467333 0.114585
-0.0346234 0.0461022 0.1143
-0.0344815 0.0454726 0.114016
-0.0343403 0.0448464 0.113742
-0.0342003 0.0442273 0.113499
-0.0340626 0.0436204 0.113314
-0.033926 0.0430201 0.113158
-0.033791 0.0424289 0.113047
-0.0336603 0.0418623 0.113067
-0.0335308 0.0413035 0.113128
-0.0334041 0.0407607 0.113277
-0.0332773 0.040218 0.113427
-0.0331523 0.0396857 0.113637
-0.0330258 0.0391437 0.113793
-0.0329017 0.0386173 0.11404
-0.032776 0.0380809 0.114231
-0.0326537 0.0375658 0.11455
-0.0325315 0.0370515 0.114877
-0.0324103 0.0365433 0.115245
-0.0322897 0.0360389 0.115642
-0.032171 0.0355473 0.116124
-0.0320522 0.0350552 0.116609
-0.0319333 0.0345628 0.117101
-0.0318133 0.0340644 0.117563
-0.031691 0.0335526 0.117945
-0.0315684 0.0330386 0.11832
-0.0314466 0.0325298 0.118734
-0.0313251 0.0320243 0.119176
-0.0307489 0.0300129 0.129263
-0.0306167 0.029446 0.129407
-0.0304814 0.0288588 0.129404
-0.0303483 0.0282859 0.129502
-0.0302156 0.0277151 0.129617
-0.0300815 0.0271355 0.129664
-0.0299456 0.0265436 0.129614
-0.0298098 0.0259517 0.129561
-0.0296747 0.025364 0.129536
-0.0295397 0.0247767 0.12951
-0.0294055 0.0241952 0.129527
-0.0292732 0.0236271 0.12965
-0.0291411 0.0230599 0.129782
-0.0290095 0.0224969 0.129948
-0.0288788 0.021941 0.130177
-0.0287487 0.0213891 0.130443
-0.0286185 0.0208372 0.130714
-0.0284877 0.0202809 0.130949
-0.0283576 0.0197306 0.131242
-0.0282266 0.0191728 0.131471
-0.0280946 0.0186081 0.131639
-0.027962 0.0180392 0.131769
-0.0278297 0.0174719 0.131915
-0.0276965 0.0168977 0.131994
-0.027563 0.0163209 0.132046
-0.0274308 0.0157549 0.132203
-0.0272987 0.0151896 0.132369
-0.027167 0.0146279 0.132574
-0.0270362 0.0140747 0.132875
-0.0269068 0.0135346 0.133318
-0.0267775 0.0129977 0.133811
-0.0266488 0.0124668 0.134386
-0.0265209 0.0119461 0.135093
-0.0263917 0.0114145 0.135697
-0.0262613 0.0108728 0.136199
-0.0261299 0.0103228 0.136614
-0.0259982 0.0097709 0.137019
-0.0258659 0.00921343 0.137362
-0.0257333 0.00865339 0.137684
-0.0256013 0.00810288 0.138141
-0.0254698 0.00755957 0.138707
-0.0253386 0.00702373 0.139395
-0.0252075 0.00649218 0.140172
-0.0250768 0.00597122 0.141125
-0.0249443 0.00543072 0.141833
-0.0248118 0.00489407 0.142629
-0.0371189 0.0600922 0.124218
-0.0369745 0.0594552 0.124058
-0.0368316 0.0588268 0.12393
-0.0366827 0.0581635 0.123643
-0.036531 0.0574834 0.123274
-0.0363698 0.0567475 0.122645
-0.036206 0.0559955 0.12193
-0.0360373 0.0552134 0.121063
-0.0358679 0.0544269 0.120161
-0.0356989 0.0536407 0.119243
-0.0355404 0.0529155 0.118595
-0.0353901 0.052238 0.118162
-0.0352446 0.051588 0.117852
-0.0350932 0.0509023 0.117361
-0.0349442 0.0502304 0.116928
-0.0347939 0.0495499 0.116443
-0.0346427 0.0488631 0.115917
-0.0344929 0.0481843 0.11542
-0.0343519 0.0475575 0.115174
-0.0342099 0.0469244 0.114889
-0.0340683 0.0462926 0.114605
-0.0339261 0.0456574 0.114295
-0.0337842 0.0450233 0.113983
-0.0336436 0.0443963 0.113702
-0.0335042 0.0437758 0.113447
-0.0333671 0.0431699 0.113264
-0.0332341 0.0425886 0.113209
-0.0331062 0.042039 0.113323
-0.0329777 0.0414855 0.113417
-0.0328518 0.0409488 0.113602
-0.0327265 0.0404156 0.113809
-0.0326014 0.0398839 0.114026
-0.0324748 0.0393429 0.114192
-0.0323515 0.0388228 0.114479
-0.0322262 0.0382906 0.1147
-0.0321034 0.0377746 0.115018
-0.0319807 0.0372597 0.115346
-0.031859 0.0367515 0.115719
-0.0317376 0.0362455 0.11611
-0.0316164 0.0357421 0.116524
-0.031495 0.0352373 0.116934
-0.0313729 0.0347283 0.117324
-0.0312499 0.0342137 0.117685
-0.0311251 0.0336872 0.117975
-0.0310004 0.0331628 0.118282
-0.030876 0.0326392 0.118598
-0.030753 0.032127 0.118994
-0.0301688 0.0301727 0.129451
-0.0300357 0.0296005 0.12956
-0.0299007 0.0290135 0.12956
-0.0297675 0.0284397 0.129655
-0.0296347 0.027869 0.129772
-0.0295011 0.0272927 0.129846
-0.0293661 0.0267046 0.12983
-0.0292311 0.0261169 0.129812
-0.0290967 0.0255332 0.129822
-0.0289619 0.024946 0.129802
-0.0288273 0.02436 0.129787
-0.0286943 0.0237869 0.129875
-0.028562 0.0232188 0.130002
-0.0284297 0.0226512 0.130133
-0.0282992 0.0220986 0.130393
-0.0281692 0.0215502 0.130692
-0.0280387 0.0209984 0.130967
-0.0279077 0.0204422 0.131207
-0.0277772 0.0198913 0.131499
-0.0276454 0.019329 0.13169
-0.0275128 0.0187603 0.131825
-0.0273802 0.0181908 0.131953
-0.0272474 0.0176203 0.132071
-0.0271143 0.0170459 0.132152
-0.0269808 0.0164685 0.1322
-0.0268485 0.0159022 0.132359
-0.0267162 0.0153362 0.13252
-0.0265842 0.014774 0.132725
-0.0264531 0.014221 0.133027
-0.0263231 0.0136807 0.133474
-0.0261932 0.0131444 0.133973
-0.0260637 0.0126132 0.134549
-0.0259347 0.012092 0.135249
-0.0258043 0.0115568 0.135814
-0.025673 0.0110115 0.136272
-0.0255411 0.0104611 0.136683
-0.0254089 0.00990923 0.13709
-0.0252762 0.00935183 0.137439
-0.0251434 0.00879459 0.137797
-0.0250112 0.00824914 0.138318
-0.024879 0.00770808 0.138919
-0.024747 0.00717504 0.139646
-0.0246147 0.00664401 0.140431
-0.0244825 0.0061231 0.141389
-0.024349 0.00558237 0.142099
-0.0242152 0.00504303 0.14286
-0.0363878 0.0595823 0.124015
-0.036247 0.058964 0.123932
-0.0361011 0.0583147 0.123708
-0.035954 0.0576575 0.123444
-0.0357989 0.0569506 0.122948
-0.0356402 0.0562209 0.122339
-0.0354741 0.055445 0.121507
-0.0353041 0.0546436 0.12054
-0.0351328 0.0538326 0.119512
-0.0349708 0.0530776 0.118728
-0.034818 0.0523783 0.118195
-0.0346722 0.0517216 0.117853
-0.034524 0.0510496 0.117431
-0.0343783 0.0503926 0.117072
-0.0342313 0.0497263 0.116659
-0.0340833 0.049053 0.116203
-0.0339353 0.0483791 0.115734
-0.0337946 0.0477501 0.11548
-0.033653 0.0471151 0.115191
-0.0335118 0.0464821 0.114904
-0.0333702 0.0458458 0.114592
-0.033228 0.0452052 0.114251
-0.0330869 0.0445705 0.113932
-0.0329469 0.0439427 0.113641
-0.0328095 0.0433306 0.113428
-0.0326778 0.0427562 0.113412
-0.0325517 0.0422194 0.113599
-0.032425 0.0416778 0.11376
-0.0323007 0.0411525 0.114013
-0.0321767 0.04063 0.114284
-0.0320515 0.0400991 0.11451
-0.0319247 0.0395579 0.114679
-0.0318009 0.0390367 0.114966
-0.0316759 0.0385084 0.115213
-0.0315531 0.0379955 0.115555
-0.0314298 0.037479 0.115878
-0.0313071 0.0369677 0.116238
-0.0311833 0.0364492 0.116559
-0.0310592 0.0359285 0.11687
-0.0309343 0.0354026 0.117153
-0.0308095 0.0348781 0.117449
-0.0306839 0.0343482 0.117714
-0.0305581 0.0338165 0.11797
-0.0304319 0.0332824 0.118215
-0.0303062 0.0327531 0.118493
-0.030182 0.0322348 0.118847
-0.0295897 0.030347 0.12974
-0.0294559 0.0297688 0.12981
-0.0293208 0.0291805 0.129805
-0.0291871 0.0286023 0.12987
-0.0290542 0.0280315 0.129989
-0.0289207 0.0274551 0.130067
-0.0287858 0.0268667 0.130051
-0.028651 0.0262789 0.130037
-0.0285172 0.025699 0.130081
-0.028383 0.0251156 0.130095
-0.0282484 0.0245289 0.130079
-0.0281154 0.0239545 0.13016
-0.0279828 0.0233848 0.130279
-0.0278503 0.0228159 0.130404
-0.0277191 0.0222594 0.130634
-0.0275887 0.0217106 0.130934
-0.0274576 0.0211553 0.131181
-0.0273259 0.020595 0.131389
-0.0271947 0.0200403 0.131649
-0.0270626 0.0194775 0.131839
-0.0269299 0.0189079 0.131968
-0.0267972 0.0183381 0.132096
-0.0266644 0.0177676 0.132216
-0.0265313 0.0171934 0.132302
-0.0263979 0.0166162 0.132356
-0.0262658 0.0160525 0.132543
-0.0261336 0.0154893 0.132737
-0.0260016 0.0149294 0.132969
-0.0258701 0.0143759 0.133271
-0.0257396 0.013838 0.133746
-0.025609 0.0133012 0.134246
-0.0254784 0.0127671 0.134791
-0.025348 0.0122398 0.135426
-0.0252166 0.0117013 0.135955
-0.0250845 0.0111522 0.136371
-0.0249519 0.0105992 0.136752
-0.0248193 0.0100478 0.137164
-0.0246863 0.00949389 0.137556
-0.0245532 0.008939 0.137946
-0.0244202 0.00839313 0.13847
-0.0242874 0.00785502 0.139105
-0.0241543 0.00732436 0.139871
-0.0240209 0.00679603 0.140695
-0.0238873 0.00627522 0.141656
-0.0237527 0.00573399 0.142364
-0.0236177 0.00518997 0.143053
-0.0358008 0.0597073 0.123962
-0.0356618 0.0590981 0.12392
-0.0355194 0.058467 0.123778
-0.0353763 0.0578314 0.123612
-0.0352256 0.0571464 0.123218
-0.0350717 0.0564392 0.122715
-0.0349095 0.0556784 0.121956
-0.0347401 0.0548687 0.120958
-0.0345682 0.054041 0.119857
-0.0344039 0.0532608 0.11896
-0.0342478 0.0525328 0.118293
-0.0341006 0.0518615 0.117885
-0.0339551 0.0512017 0.117522
-0.0338114 0.0505519 0.1172
-0.0336664 0.0498935 0.116829
-0.0335212 0.0492322 0.116435
-0.0333742 0.0485581 0.115968
-0.033233 0.0479219 0.115682
-0.0330919 0.0472858 0.115389
-0.0329513 0.0466524 0.115103
-0.0328104 0.0460159 0.114793
-0.0326689 0.0453744 0.11445
-0.0325291 0.0447438 0.114156
-0.0323905 0.044121 0.113895
-0.0322551 0.0435198 0.113743
-0.0321247 0.0429527 0.11377
-0.0320002 0.0424284 0.114028
-0.0318746 0.0418956 0.114242
-0.0317499 0.0413704 0.1145
-0.0316256 0.0408477 0.114774
-0.0315005 0.0403195 0.115021
-0.0313742 0.039783 0.115222
-0.0312498 0.0392608 0.115508
-0.0311244 0.0387316 0.115756
-0.0310002 0.0382117 0.116061
-0.0308755 0.0376879 0.116347
-0.03075 0.0371593 0.116607
-0.0306243 0.0366288 0.116859
-0.0304982 0.0360964 0.117101
-0.0303715 0.0355591 0.117317
-0.030245 0.0350234 0.117544
-0.0301191 0.0344931 0.117807
-0.0299923 0.0339563 0.118032
-0.0298647 0.0334126 0.118215
-0.0297376 0.0328731 0.118427
-0.0296112 0.0323399 0.118682
-0.0300622 0.0317502 0.119431
-0.0294849 0.0318082 0.11895
-0.0290111 0.0305356 0.130128
-0.0288762 0.0299468 0.130128
-0.028741 0.0293567 0.130114
-0.0286068 0.0287736 0.130148
-0.0284738 0.0282024 0.130269
-0.0283399 0.027622 0.13032
-0.0282051 0.0270328 0.130303
-0.0280704 0.0264444 0.130287
-0.0279367 0.0258646 0.130336
-0.0278026 0.0252812 0.130354
-0.0276686 0.0246978 0.130369
-0.0275353 0.024122 0.130444
-0.0274022 0.0235473 0.130525
-0.0272692 0.0229738 0.130615
-0.0271374 0.0224129 0.130812
-0.0270063 0.0218602 0.13108
-0.0268749 0.0213041 0.131324
-0.0267429 0.0207434 0.131529
-0.0266111 0.0201847 0.131755
-0.0264786 0.0196178 0.13191
-0.0263458 0.0190474 0.132034
-0.0262133 0.0184807 0.132193
-0.0260805 0.0179105 0.132319
-0.0259479 0.0173434 0.132474
-0.0258151 0.0167729 0.132598
-0.0256829 0.0162123 0.13282
-0.0255505 0.0156492 0.133021
-0.0254185 0.0150924 0.133287
-0.0252867 0.0145412 0.133622
-0.0251555 0.0140026 0.134096
-0.025024 0.0134624 0.134561
-0.0248924 0.0129244 0.135066
-0.0247608 0.0123906 0.135633
-0.0246283 0.0118427 0.136057
-0.0244954 0.0112909 0.136442
-0.0243623 0.0107375 0.136824
-0.0242291 0.0101839 0.137209
-0.0240958 0.00963284 0.137636
-0.0239623 0.00908335 0.138096
-0.0238287 0.00854085 0.138663
-0.0236949 0.00800299 0.139308
-0.0235607 0.00747525 0.140113
-0.0234262 0.0069489 0.140965
-0.023291 0.00642743 0.141923
-0.0231554 0.00588392 0.142597
-0.0350725 0.0592059 0.123792
-0.0349329 0.0585903 0.123719
-0.0347926 0.0579696 0.12362
-0.0346453 0.0573014 0.123303
-0.0344958 0.0566176 0.122908
-0.0343387 0.0558808 0.122263
-0.0341721 0.0550771 0.121296
-0.0340017 0.0542453 0.120182
-0.0338365 0.0534465 0.119203
-0.0336781 0.0526938 0.118423
-0.0335296 0.0520074 0.117944
-0.033384 0.0513407 0.117551
-0.0332401 0.0506843 0.117198
-0.0330968 0.0500316 0.116856
-0.0329516 0.0493641 0.116432
-0.0328047 0.0486836 0.115935
-0.032665 0.0480533 0.11568
-0.0325256 0.0474242 0.115423
-0.0323858 0.0467911 0.11514
-0.0322472 0.0461661 0.114891
-0.0321073 0.0455309 0.114582
-0.0319682 0.0449009 0.114294
-0.0318311 0.044284 0.114067
-0.0316969 0.0436885 0.113948
-0.0315674 0.0431279 0.114012
-0.0314428 0.0426043 0.114276
-0.0313184 0.0420826 0.114553
-0.0311941 0.0415623 0.114841
-0.0310701 0.0410452 0.11515
-0.0309453 0.0405216 0.115426
-0.0308199 0.039994 0.115682
-0.030695 0.0394707 0.115966
-0.0305693 0.0389414 0.116218
-0.0304434 0.0384111 0.116467
-0.030317 0.0378766 0.116693
-0.0301898 0.0373362 0.116886
-0.0300624 0.0367945 0.117073
-0.0299348 0.036251 0.117251
-0.0298072 0.0357079 0.117431
-0.0296803 0.0351706 0.11765
-0.029554 0.0346391 0.117907
-0.0294265 0.0340973 0.118101
-0.0292981 0.0335487 0.118254
-0.0291701 0.0330034 0.118428
-0.0290423 0.0324598 0.118615
-0.0289224 0.0319889 0.119287
-0.0284299 0.0307121 0.130429
-0.0282944 0.0301169 0.130387
-0.0281589 0.0295211 0.130336
-0.0280246 0.0289371 0.130368
-0.0278917 0.028366 0.130492
-0.0277581 0.0277889 0.130571
-0.0276238 0.0272033 0.130585
-0.0274896 0.0266181 0.130599
-0.0273558 0.0260379 0.130649
-0.0272218 0.0254542 0.13067
-0.0270876 0.0248666 0.130656
-0.026954 0.0242865 0.130701
-0.0268205 0.0237068 0.130746
-0.0266871 0.0231293 0.130806
-0.0265548 0.022564 0.130968
-0.0264231 0.0220068 0.1312
-0.0262909 0.0214454 0.131399
-0.0261588 0.0208834 0.131595
-0.0260265 0.0203205 0.131785
-0.0258937 0.0197501 0.131909
-0.0257611 0.0191831 0.132065
-0.0256287 0.0186201 0.132258
-0.0254961 0.0180536 0.132421
-0.0253636 0.0174903 0.132616
-0.0252311 0.0169266 0.132809
-0.0250989 0.0163698 0.133072
-0.0249665 0.0158103 0.133314
-0.0248341 0.0152544 0.133595
-0.024702 0.0147063 0.133967
-0.02457 0.0141645 0.13441
-0.0244376 0.0136197 0.134834
-0.0243051 0.0130776 0.1353
-0.0241726 0.012537 0.135792
-0.0240394 0.0119854 0.136172
-0.0239061 0.0114327 0.136551
-0.0237725 0.0108793 0.136932
-0.0236389 0.0103262 0.137323
-0.023505 0.00977998 0.137814
-0.0233709 0.00923342 0.138314
-0.0232365 0.00869402 0.138924
-0.0231017 0.00815936 0.139612
-0.0229663 0.00763129 0.140419
-0.0228305 0.00710215 0.141236
-0.0226939 0.00657765 0.142156
-0.0225573 0.00603105 0.142794
-0.0344836 0.0593136 0.123664
-0.0343452 0.058704 0.123617
-0.0342064 0.0580915 0.123554
-0.0340621 0.0574387 0.123307
-0.0339157 0.0567708 0.122986
-0.0337632 0.0560575 0.12245
-0.0335998 0.0552639 0.121534
-0.0334323 0.0544374 0.120449
-0.0332681 0.0536332 0.119449
-0.0331091 0.0528637 0.118593
-0.0329584 0.0521545 0.11801
-0.0328127 0.0514798 0.117579
-0.0326685 0.0508159 0.117191
-0.0325251 0.0501557 0.116814
-0.0323806 0.0494869 0.116385
-0.0322347 0.0488051 0.115883
-0.0320965 0.0481813 0.11566
-0.0319578 0.0475532 0.11541
-0.0318189 0.0469217 0.115135
-0.0316818 0.0463037 0.114924
-0.0315434 0.0456741 0.114646
-0.0314051 0.0450453 0.114365
-0.0312694 0.044435 0.114174
-0.0311365 0.0438465 0.114094
-0.0310077 0.043291 0.114187
-0.0308833 0.0427716 0.114476
-0.0307596 0.0422584 0.114801
-0.0306349 0.041738 0.115091
-0.0305112 0.0412256 0.115428
-0.0303861 0.0407024 0.11571
-0.0302604 0.0401751 0.11597
-0.0301347 0.0396478 0.116234
-0.0300093 0.0391236 0.116518
-0.0298825 0.038588 0.116738
-0.0297551 0.0380468 0.116928
-0.0296271 0.0375005 0.117088
-0.0294989 0.0369534 0.117245
-0.02937 0.0363993 0.117361
-0.0292422 0.0358551 0.117536
-0.029115 0.0353173 0.117752
-0.0289885 0.034786 0.118012
-0.0288603 0.03424 0.118181
-0.0287318 0.0336906 0.118329
-0.0286026 0.0331343 0.118434
-0.0284806 0.0326504 0.119013
-0.0278466 0.0308783 0.130656
-0.0277104 0.0302735 0.130549
-0.0275751 0.029677 0.130496
-0.0274409 0.0290918 0.130521
-0.0273078 0.0285204 0.130645
-0.0271743 0.0279434 0.130728
-0.0270404 0.0273616 0.130774
-0.0269066 0.0267799 0.130818
-0.0267733 0.0262036 0.130901
-0.0266397 0.0256239 0.130958
-0.0265058 0.02504 0.130978
-0.0263719 0.0244556 0.130993
-0.0262382 0.0238714 0.131006
-0.0261045 0.0232884 0.131026
-0.0259715 0.0227142 0.131116
-0.025839 0.0221483 0.131276
-0.0257064 0.0215822 0.131436
-0.0255739 0.0210157 0.131594
-0.0254413 0.020449 0.131749
-0.0253084 0.0198786 0.131873
-0.025176 0.0193154 0.132064
-0.0250436 0.0187565 0.132296
-0.0249111 0.0181943 0.132501
-0.0247788 0.0176388 0.132771
-0.0246464 0.0170817 0.133031
-0.024514 0.0165288 0.133338
-0.0243814 0.0159729 0.133619
-0.0242488 0.0154234 0.133971
-0.0241162 0.0148758 0.134351
-0.0239834 0.0143305 0.134766
-0.0238504 0.0137818 0.135155
-0.0237172 0.0132323 0.135541
-0.0235837 0.0126807 0.135917
-0.0234501 0.0121252 0.136253
-0.0233163 0.011572 0.136628
-0.0231822 0.0110158 0.136979
-0.0230481 0.0104654 0.137402
-0.0229135 0.00992458 0.137961
-0.0227787 0.00938113 0.138499
-0.0226433 0.00884766 0.139186
-0.0225072 0.00831831 0.139954
-0.0223705 0.0077926 0.140793
-0.0222334 0.00726255 0.141605
-0.0220955 0.00673509 0.142488
-0.0219582 0.00618348 0.143056
-0.0337592 0.0588293 0.123567
-0.0336219 0.0582253 0.123542
-0.0334807 0.0575916 0.123382
-0.0333362 0.0569315 0.123097
-0.033186 0.0562273 0.122606
-0.0330264 0.0554493 0.121765
-0.032862 0.0546311 0.120722
-0.0326989 0.0538203 0.119695
-0.0325402 0.0530412 0.118799
-0.0323888 0.0523166 0.118145
-0.0322429 0.0516334 0.117676
-0.0320987 0.0509615 0.117253
-0.0319543 0.0502872 0.116808
-0.0318098 0.0496103 0.116341
-0.0316648 0.0489273 0.115834
-0.0315264 0.0482972 0.11558
-0.0313879 0.0476644 0.115306
-0.0312503 0.0470392 0.115064
-0.0311146 0.0464271 0.114883
-0.0309782 0.0458098 0.114669
-0.0308422 0.0451939 0.114457
-0.0307091 0.0446017 0.114364
-0.0305777 0.0440247 0.114347
-0.0304481 0.0434621 0.114405
-0.030322 0.0429298 0.114626
-0.030197 0.0424088 0.11491
-0.0300719 0.0418877 0.115197
-0.0299474 0.041372 0.115517
-0.0298228 0.040856 0.115839
-0.0296975 0.0403345 0.116134
-0.0295715 0.0398072 0.116398
-0.0294452 0.0392775 0.116653
-0.0293186 0.0387461 0.1169
-0.0291915 0.0382094 0.117117
-0.0290633 0.0376623 0.117276
-0.0289349 0.0371141 0.117428
-0.0288059 0.0365596 0.117543
-0.0286775 0.0360104 0.117689
-0.0285496 0.0354682 0.11788
-0.0284229 0.0349375 0.118145
-0.0282942 0.0343868 0.118286
-0.0281651 0.0338318 0.1184
-0.0280353 0.0332692 0.118464
-0.0279184 0.0328514 0.119475
-0.0272637 0.0310617 0.131001
-0.0271275 0.0304514 0.130861
-0.0269919 0.029849 0.130771
-0.0268574 0.0292584 0.13076
-0.0267242 0.0286865 0.130884
-0.0265904 0.0281057 0.130942
-0.0264567 0.0275242 0.130993
-0.0263232 0.0269469 0.131074
-0.0261898 0.0263703 0.13116
-0.0260565 0.0257949 0.131253
-0.0259229 0.0252152 0.131312
-0.0257893 0.0246339 0.131356
-0.0256555 0.0240478 0.13136
-0.0255216 0.0234591 0.131338
-0.0253881 0.0228755 0.131355
-0.025255 0.0223006 0.131443
-0.025122 0.0217262 0.131534
-0.024989 0.0211519 0.131624
-0.0248561 0.0205811 0.131746
-0.0247233 0.0200106 0.131869
-0.0245909 0.0194516 0.132098
-0.0244586 0.0189005 0.132403
-0.0243261 0.0183465 0.132686
-0.0241937 0.0177981 0.133028
-0.024061 0.0172451 0.133332
-0.0239283 0.0166981 0.133701
-0.0237953 0.0161449 0.134017
-0.0236623 0.0155982 0.134404
-0.023529 0.0150503 0.134788
-0.0233956 0.0145042 0.1352
-0.0232619 0.0139484 0.135518
-0.0231281 0.0133911 0.135829
-0.0229943 0.0128294 0.136096
-0.0228602 0.0122699 0.136392
-0.022726 0.0117138 0.136733
-0.0225917 0.0111552 0.137057
-0.0224569 0.0106043 0.13748
-0.0223216 0.0100668 0.138074
-0.0221858 0.00952605 0.138653
-0.0220493 0.00899641 0.139386
-0.0219119 0.00847003 0.140191
-0.0217738 0.00794633 0.141065
-0.0216353 0.00741867 0.141912
-0.021496 0.006891 0.142792
-0.0213581 0.0063363 0.143324
-0.0331718 0.0589428 0.123464
-0.0330348 0.0583387 0.123439
-0.0328939 0.0577031 0.12327
-0.0327497 0.0570405 0.122975
-0.0326024 0.0563505 0.122548
-0.0324491 0.0556102 0.121882
-0.0322895 0.054816 0.120954
-0.0321302 0.0540203 0.120002
-0.0319732 0.0532405 0.119107
-0.0318213 0.0525007 0.118385
-0.0316737 0.051795 0.117812
-0.0315287 0.0511092 0.117324
-0.0313851 0.0504336 0.116875
-0.0312416 0.0497567 0.11641
-0.0310976 0.0490729 0.115901
-0.0309591 0.0484364 0.115617
-0.030821 0.0478012 0.115332
-0.0306833 0.0471688 0.115055
-0.0305479 0.0465556 0.114869
-0.0304135 0.0459512 0.114723
-0.0302801 0.0453542 0.11461
-0.0301487 0.0447753 0.114588
-0.0300187 0.0442094 0.114633
-0.0298884 0.0436402 0.114659
-0.0297613 0.0431002 0.114841
-0.0296347 0.0425671 0.115061
-0.0295089 0.0420412 0.115323
-0.0293835 0.0415207 0.115617
-0.029259 0.0410102 0.115971
-0.0291339 0.0404941 0.116298
-0.0290075 0.039966 0.11656
-0.0288804 0.0394304 0.116781
-0.028753 0.038893 0.116994
-0.0286261 0.0383604 0.117237
-0.0284978 0.0378137 0.1174
-0.0283698 0.0372712 0.117587
-0.0282417 0.0367269 0.117766
-0.0281144 0.036192 0.118003
-0.0279868 0.035655 0.11823
-0.0278602 0.0351297 0.118532
-0.0277317 0.0345828 0.118701
-0.0276028 0.0340315 0.118844
-0.0274771 0.0335211 0.119251
-0.026679 0.031236 0.131282
-0.0265428 0.0306208 0.131111
-0.0264075 0.0300171 0.131015
-0.026273 0.0294253 0.131
-0.0261397 0.0288529 0.131124
-0.026006 0.0282724 0.131188
-0.0258725 0.0276956 0.131278
-0.0257392 0.0271225 0.131395
-0.0256058 0.0265459 0.131485
-0.0254724 0.0259704 0.131583
-0.0253388 0.0253904 0.131644
-0.025205 0.0248044 0.131656
-0.0250711 0.0242133 0.131623
-0.024937 0.0236146 0.131524
-0.0248034 0.0230256 0.1315
-0.02467 0.0224423 0.131518
-0.0245369 0.0218634 0.131572
-0.0244038 0.0212847 0.131626
-0.024271 0.0207135 0.131744
-0.0241381 0.0201429 0.131868
-0.0240055 0.0195881 0.132135
-0.023873 0.0190448 0.132512
-0.0237403 0.0184987 0.132871
-0.0236075 0.0179577 0.133287
-0.0234745 0.0174115 0.133661
-0.0233412 0.0168679 0.134069
-0.0232078 0.0163142 0.134384
-0.0230742 0.0157663 0.134765
-0.0229404 0.0152173 0.135143
-0.0228063 0.0146642 0.13549
-0.0226723 0.0141038 0.135765
-0.0225384 0.01354 0.136003
-0.0224043 0.0129712 0.136196
-0.02227 0.0124084 0.136459
-0.0221355 0.0118493 0.136769
-0.022001 0.0112883 0.137062
-0.0218656 0.0107406 0.137518
-0.021729 0.0102083 0.138182
-0.0215922 0.00967402 0.138836
-0.0214538 0.00915545 0.139717
-0.0213145 0.00863742 0.140636
-0.0211746 0.00811955 0.14159
-0.0210345 0.00759393 0.142471
-0.0208939 0.00706307 0.143322
-0.0321604 0.0571218 0.122727
-0.0320145 0.0564363 0.122321
-0.0318673 0.055737 0.121842
-0.0317139 0.0549808 0.121091
-0.0315591 0.0542095 0.120256
-0.0314053 0.0534432 0.119429
-0.0312551 0.052706 0.118724
-0.0311062 0.0519781 0.11805
-0.0309606 0.0512774 0.117493
-0.0308173 0.0505961 0.117019
-0.0306747 0.0499186 0.116554
-0.0305318 0.0492349 0.116048
-0.0303932 0.0485913 0.115731
-0.0302549 0.0479477 0.115406
-0.0301175 0.0473124 0.115116
-0.0299825 0.046698 0.114925
-0.0298493 0.0461008 0.114817
-0.0297177 0.0455177 0.114779
-0.0295873 0.0449471 0.114803
-0.0294574 0.0443816 0.114852
-0.0293271 0.0438111 0.114874
-0.0291991 0.0432644 0.115021
-0.0290718 0.0427251 0.115209
-0.0289456 0.0421983 0.115468
-0.0288198 0.0416773 0.115761
-0.0286948 0.0411664 0.116113
-0.0285692 0.040649 0.116434
-0.0284425 0.0401199 0.116692
-0.0283151 0.0395835 0.11691
-0.0281879 0.0390506 0.117151
-0.0280607 0.0385191 0.117402
-0.0279329 0.0379789 0.117604
-0.0278053 0.0374427 0.117832
-0.0276777 0.0369086 0.118075
-0.0275506 0.0363797 0.118352
-0.0274231 0.0358475 0.118613
-0.027296 0.0353219 0.118916
-0.0271676 0.0347788 0.119114
-0.0270385 0.0342272 0.119259
-0.0269165 0.0337797 0.120076
-0.0262292 0.0320258 0.131723
-0.0260931 0.0314087 0.131549
-0.0259572 0.0307926 0.131376
-0.0258222 0.0301882 0.13128
-0.0256877 0.0295948 0.131257
-0.0255541 0.029017 0.131345
-0.0254204 0.0284361 0.131409
-0.0252869 0.0278592 0.131502
-0.0251537 0.0272899 0.131651
-0.0250203 0.0267172 0.131775
-0.0248871 0.0261459 0.13191
-0.0247535 0.0255654 0.131972
-0.0246196 0.0249748 0.131952
-0.0244857 0.0243783 0.131881
-0.0243517 0.0237747 0.131746
-0.0242182 0.023181 0.131686
-0.0240849 0.0225926 0.131666
-0.0239518 0.0220132 0.131719
-0.0238187 0.0214334 0.131765
-0.0236857 0.0208579 0.131849
-0.0235528 0.0202868 0.13197
-0.02342 0.019732 0.132238
-0.023287 0.0191895 0.132625
-0.0231539 0.0186472 0.13302
-0.0230205 0.0181104 0.133477
-0.0228869 0.0175677 0.133888
-0.022753 0.0170241 0.134298
-0.0226192 0.0164699 0.134613
-0.0224851 0.0159187 0.134964
-0.0223509 0.0153656 0.135303
-0.0222167 0.0148048 0.135572
-0.0220824 0.0142438 0.135839
-0.0219482 0.0136792 0.136073
-0.0218141 0.0131105 0.136269
-0.0216794 0.012551 0.136566
-0.0215443 0.0119943 0.136908
-0.0214094 0.0114329 0.137198
-0.0212731 0.0108902 0.137721
-0.0211351 0.0103643 0.13846
-0.0209967 0.00983616 0.139197
-0.0208561 0.00932678 0.140197
-0.0207146 0.00881762 0.141235
-0.0205726 0.00830268 0.142237
-0.020431 0.0077768 0.143129
-0.0315711 0.0571964 0.122451
-0.0314275 0.0565237 0.122101
-0.0312849 0.0558573 0.121772
-0.0311371 0.0551399 0.121202
-0.0309866 0.054394 0.120487
-0.0308356 0.0536403 0.119723
-0.0306871 0.0529066 0.119039
-0.0305378 0.0521617 0.118288
-0.0303924 0.0514521 0.117692
-0.0302496 0.0507647 0.117192
-0.0301091 0.0500995 0.11679
-0.0299673 0.0494174 0.116295
-0.0298293 0.048772 0.115973
-0.0296904 0.0481149 0.115584
-0.0295534 0.0474764 0.11528
-0.0294177 0.0468495 0.115028
-0.0292855 0.0462587 0.114954
-0.0291548 0.0456839 0.114961
-0.0290256 0.0451258 0.115052
-0.0288963 0.0445663 0.115136
-0.0287665 0.0440003 0.115184
-0.0286383 0.0434525 0.115329
-0.0285102 0.0429066 0.115485
-0.0283831 0.0423737 0.115712
-0.0282564 0.0418452 0.115966
-0.0281304 0.041327 0.11628
-0.0280035 0.0407985 0.116539
-0.0278765 0.040269 0.116796
-0.0277485 0.0397278 0.116988
-0.0276214 0.0391998 0.117258
-0.0274945 0.0386743 0.117545
-0.0273672 0.0381453 0.117815
-0.0272403 0.0376219 0.118122
-0.0271136 0.0371047 0.118469
-0.0269864 0.0365815 0.118786
-0.0268586 0.0360494 0.119051
-0.026731 0.0355225 0.119351
-0.0266025 0.0349834 0.119579
-0.0264735 0.0344365 0.11976
-0.0255068 0.0315957 0.131914
-0.0253711 0.0309746 0.131712
-0.0252363 0.0303699 0.131618
-0.025102 0.0297757 0.131595
-0.0249682 0.0291967 0.131679
-0.0248344 0.0286143 0.131736
-0.0247008 0.0280363 0.131825
-0.0245675 0.0274669 0.131979
-0.0244339 0.0268895 0.132071
-0.0243004 0.0263126 0.132166
-0.0241668 0.0257308 0.132222
-0.024033 0.0251394 0.132201
-0.0238993 0.0245429 0.132134
-0.0237657 0.023939 0.132001
-0.0236323 0.0233445 0.131939
-0.0234991 0.0227513 0.131883
-0.023366 0.0221674 0.131901
-0.023233 0.0215833 0.131915
-0.0231001 0.0210073 0.131996
-0.0229671 0.0204359 0.132116
-0.0228339 0.0198804 0.132381
-0.0227005 0.0193377 0.132768
-0.0225668 0.0187952 0.133163
-0.0224327 0.0182619 0.133654
-0.0222985 0.0177227 0.134101
-0.022164 0.0171794 0.134518
-0.0220296 0.0166287 0.134871
-0.0218951 0.0160766 0.135215
-0.0217607 0.0155162 0.135486
-0.0216264 0.0149515 0.135713
-0.0214919 0.0143898 0.135978
-0.0213575 0.0138218 0.136182
-0.0212231 0.0132543 0.136389
-0.0210881 0.012694 0.136684
-0.0209527 0.0121374 0.137024
-0.020817 0.0115811 0.137378
-0.0206791 0.0110476 0.138011
-0.0205391 0.0105313 0.13887
-0.020398 0.010018 0.139797
-0.0202544 0.00952038 0.140953
-0.0201106 0.00901425 0.142043
-0.0199665 0.00850193 0.143092
-0.0309841 0.0572869 0.122247
-0.0308424 0.056624 0.121941
-0.0307034 0.0559862 0.121743
-0.0305601 0.0553032 0.121331
-0.0304128 0.0545753 0.120703
-0.0302654 0.0538437 0.120046
-0.0301186 0.0531142 0.119386
-0.0299697 0.0523582 0.118587
-0.0298242 0.0516345 0.117928
-0.0296821 0.050945 0.117421
-0.0295426 0.0502807 0.117026
-0.0294022 0.049603 0.116557
-0.0292649 0.0489584 0.116241
-0.0291267 0.0483005 0.115852
-0.0289898 0.0476552 0.115517
-0.0288541 0.0470215 0.115234
-0.0287221 0.0464296 0.115157
-0.0285914 0.0458539 0.115161
-0.0284627 0.0453014 0.115285
-0.0283343 0.0447534 0.115431
-0.0282055 0.0441993 0.115546
-0.0280767 0.0436462 0.115666
-0.0279479 0.0430937 0.115789
-0.0278204 0.0425577 0.116003
-0.0276921 0.0420113 0.11616
-0.0275645 0.0414761 0.116381
-0.0274369 0.0409411 0.116605
-0.0273093 0.0404065 0.116833
-0.0271804 0.0398546 0.116965
-0.0270539 0.0393383 0.117302
-0.0269273 0.0388239 0.117655
-0.0268008 0.0383123 0.118029
-0.0266744 0.0378047 0.118431
-0.0265484 0.0373089 0.118911
-0.0264211 0.0367917 0.119268
-0.0262931 0.0362648 0.11957
-0.026165 0.0357362 0.119866
-0.0260364 0.0352008 0.120122
-0.0259103 0.0347186 0.120718
-0.0250546 0.0324014 0.132451
-0.0249193 0.0317871 0.132308
-0.024784 0.0311661 0.132112
-0.0246494 0.030561 0.132021
-0.024515 0.0299616 0.131966
-0.0243812 0.0293809 0.132042
-0.0242473 0.0287931 0.132066
-0.0241136 0.0282144 0.132154
-0.0239801 0.0276444 0.132307
-0.0238463 0.0270618 0.132365
-0.0237127 0.026479 0.132419
-0.023579 0.0258916 0.132435
-0.0234455 0.0252992 0.13241
-0.023312 0.0247032 0.13235
-0.0231787 0.0241034 0.132255
-0.0230455 0.0235124 0.132227
-0.0229124 0.0229227 0.132205
-0.0227793 0.022338 0.132221
-0.0226464 0.0217539 0.13224
-0.0225134 0.0211738 0.132291
-0.0223804 0.0206014 0.132407
-0.022247 0.020041 0.132633
-0.0221131 0.0194937 0.13298
-0.0219789 0.0189504 0.133372
-0.0218441 0.0184167 0.133862
-0.0217093 0.0178743 0.13428
-0.0215744 0.0173306 0.134695
-0.0214393 0.016783 0.135081
-0.0213047 0.0162242 0.135363
-0.0211702 0.01566 0.135597
-0.0210358 0.0150947 0.135819
-0.0209009 0.0145326 0.136083
-0.0207666 0.0139625 0.136262
-0.0206317 0.0133981 0.13651
-0.0204963 0.0128384 0.13681
-0.0203602 0.0122839 0.13718
-0.0202226 0.0117424 0.137705
-0.0200823 0.0112226 0.138504
-0.0199393 0.0107199 0.139532
-0.0197944 0.0102243 0.140688
-0.019648 0.00973165 0.141921
-0.019503 0.0092191 0.142947
-0.0193574 0.00870246 0.143957
-0.0303959 0.0573568 0.12195
-0.0302574 0.0567199 0.121761
-0.0301212 0.0561067 0.121674
-0.0299813 0.0554514 0.121391
-0.0298372 0.0547464 0.120871
-0.0296919 0.0540238 0.120259
-0.0295475 0.0533067 0.11966
-0.0293994 0.052543 0.11883
-0.029255 0.0518172 0.118164
-0.0291143 0.0511324 0.117683
-0.0289761 0.0504741 0.117321
-0.0288371 0.0498021 0.116883
-0.0287015 0.0491706 0.116636
-0.0285644 0.0485177 0.116277
-0.0284283 0.0478728 0.115949
