ply
format ascii 1.0
element vertex 1581
property float x
property float y
property float z
end_header
-0.000613096 -0.0684975 0.813515
0.000290883 -0.0694046 0.813214
0.00119371 -0.0702969 0.812857
0.00209692 -0.0712061 0.812568
0.00300085 -0.0721329 0.812349
0.0039047 -0.07306 0.812133
0.00480848 -0.0739883 0.811922
0.00571332 -0.0749336 0.811777
0.0066181 -0.0758788 0.811632
0.00752294 -0.0768241 0.811487
0.0084307 -0.0778055 0.81148
0.00934074 -0.0788083 0.811553
0.0102515 -0.0798149 0.811637
0.0111627 -0.0808207 0.811717
0.0120778 -0.0818602 0.811919
0.0129921 -0.0828856 0.812067
0.0139117 -0.083954 0.81237
0.0148395 -0.0850879 0.81291
0.0157714 -0.0862453 0.81353
0.0167125 -0.0874659 0.814373
0.0176634 -0.0887493 0.815435
0.0186307 -0.0901438 0.816886
0.0196089 -0.0915959 0.818529
0.0206081 -0.0931774 0.820619
0.0216052 -0.0947103 0.822514
0.0226035 -0.0962211 0.824313
0.0235838 -0.0975838 0.825572
0.0245604 -0.0989002 0.826655
0.0255269 -0.100135 0.827441
0.0264967 -0.101376 0.82824
0.0274587 -0.102557 0.828825
0.0284347 -0.103819 0.82968
0.0294109 -0.105067 0.830478
0.0304014 -0.10639 0.831526
0.0313969 -0.107725 0.832603
-0.0323494 -0.0412149 0.851734
-0.0313821 -0.0420415 0.850801
-0.0304198 -0.0428896 0.849982
-0.029448 -0.0436504 0.848751
-0.0284702 -0.044337 0.847177
-0.0274906 -0.0449765 0.845397
-0.0265166 -0.045627 0.843687
-0.0255449 -0.0462624 0.841926
-0.0245821 -0.0469446 0.840403
-0.0236274 -0.0476767 0.839128
-0.0226783 -0.0484402 0.838011
-0.0217357 -0.0492565 0.837148
-0.0207962 -0.0500897 0.83637
-0.0198583 -0.0509233 0.835602
-0.0189227 -0.0517674 0.834888
-0.0179867 -0.0525784 0.834032
-0.0170464 -0.0532708 0.832655
-0.0161062 -0.0538983 0.831004
-0.0151679 -0.0544795 0.829166
-0.0142331 -0.055041 0.82726
-0.0133037 -0.0556438 0.825554
-0.0123807 -0.0563533 0.824329
-0.0114609 -0.0571006 0.823278
-0.0105434 -0.0578601 0.822289
-0.00962798 -0.0586127 0.82128
-0.00871439 -0.0593304 0.820133
-0.00780325 -0.0600481 0.818996
-0.00689404 -0.0608159 0.818081
-0.00598662 -0.0615855 0.817181
-0.00508094 -0.0623556 0.816291
-0.00417601 -0.063172 0.815601
-0.00327138 -0.0640213 0.815051
-0.00236752 -0.0648777 0.814534
-0.00146258 -0.0657884 0.814243
-0.000557107 -0.0667186 0.814031
0.000348098 -0.0676472 0.813814
0.00125305 -0.0685751 0.813594
0.00215791 -0.0695034 0.813378
0.00306272 -0.0704328 0.813166
0.00396838 -0.0713789 0.813021
0.00487409 -0.0723252 0.812876
0.00577975 -0.0732713 0.812731
0.00668547 -0.0742175 0.812586
0.00759112 -0.0751636 0.812441
0.00849678 -0.0761098 0.812295
0.00940403 -0.0770734 0.812217
0.0103115 -0.0780385 0.812144
0.0112209 -0.0790221 0.81214
0.0121308 -0.0800067 0.812138
0.0130451 -0.0810299 0.81228
0.0139605 -0.0820594 0.812443
0.0148836 -0.0831502 0.81283
0.0158149 -0.0843037 0.813444
0.0167513 -0.0854843 0.81415
0.0176972 -0.0867284 0.815081
0.0186508 -0.0880147 0.816155
0.0196153 -0.0893651 0.81745
0.0205813 -0.0907045 0.818693
0.0215677 -0.09217 0.820375
0.0225538 -0.0936079 0.821942
0.0235414 -0.095032 0.823443
0.0245196 -0.0963721 0.824632
0.0254962 -0.097683 0.825704
0.0264622 -0.0989108 0.826475
0.0274278 -0.100126 0.827192
0.0283887 -0.101301 0.827763
0.0293651 -0.102562 0.828628
0.0303525 -0.103873 0.82965
0.0313562 -0.105266 0.830948
0.0323686 -0.106695 0.832353
0.0324065 -0.109131 0.833909
0.0333925 -0.108167 0.833891
-0.031333 -0.0401546 0.851244
-0.0303666 -0.0409756 0.850283
-0.0294032 -0.0418038 0.849366
-0.0284306 -0.0425398 0.848012
-0.0274501 -0.0431817 0.84622
-0.0264702 -0.0437884 0.844279
-0.0254961 -0.0444066 0.842415
-0.0245265 -0.0450254 0.840574
-0.0235655 -0.0456903 0.83897
-0.0226137 -0.0464194 0.837685
-0.0216691 -0.0472014 0.836657
-0.0207303 -0.0480333 0.83587
-0.0197946 -0.0488842 0.835178
-0.018861 -0.0497494 0.834558
-0.0179285 -0.050613 0.833936
-0.0169955 -0.0514441 0.833173
-0.0160587 -0.0521564 0.831883
-0.0151229 -0.0528204 0.830392
-0.0141881 -0.0534186 0.828624
-0.0132567 -0.0539998 0.8268
-0.0123307 -0.0546368 0.825239
-0.0114098 -0.0553657 0.824094
-0.0104918 -0.0561306 0.823116
-0.00957566 -0.0568901 0.822124
-0.00866156 -0.0576602 0.821188
-0.00774948 -0.0583784 0.820039
-0.00683962 -0.0591149 0.818977
-0.00593152 -0.0598832 0.81806
-0.00502453 -0.0606873 0.817302
-0.00411931 -0.0614758 0.816485
-0.00321487 -0.0622943 0.8158
-0.00231055 -0.0631464 0.815259
-0.00140709 -0.0640029 0.81474
-0.000502816 -0.064898 0.814383
0.000402617 -0.0658282 0.814171
0.00130871 -0.0667748 0.814026
0.0022148 -0.0677214 0.813881
0.0031209 -0.068668 0.813736
0.004027 -0.0696146 0.813591
0.00493309 -0.0705612 0.813445
0.00583925 -0.0715079 0.8133
0.00674528 -0.0724544 0.813155
0.00765137 -0.073401 0.81301
0.00855747 -0.0743476 0.812865
0.00946356 -0.0752942 0.81272
0.0103697 -0.0762408 0.812575
0.0112775 -0.077205 0.812497
0.0121876 -0.0781896 0.812496
0.0130982 -0.0791771 0.812504
0.0140136 -0.0802044 0.812662
0.0149319 -0.0812526 0.812894
0.0158562 -0.0823445 0.813286
0.0167914 -0.0835164 0.81397
0.0177322 -0.0847194 0.814761
0.0186828 -0.0859842 0.81577
0.0196362 -0.0872506 0.816774
0.0205947 -0.0885378 0.817843
0.0215505 -0.0897887 0.818768
0.0225236 -0.091144 0.820062
0.0234927 -0.092453 0.821174
0.0244714 -0.0938094 0.822445
0.0254462 -0.095121 0.823544
0.0264202 -0.0964103 0.82455
0.0273857 -0.097637 0.825327
0.0283503 -0.098846 0.826034
0.029311 -0.100019 0.826602
0.0302862 -0.101272 0.827451
0.0312811 -0.102623 0.828621
0.0322938 -0.104061 0.830085
0.03332 -0.105556 0.831729
0.0343576 -0.107092 0.833495
-0.0293502 -0.0398927 0.849672
-0.0283886 -0.0407201 0.848752
-0.027415 -0.0414303 0.847269
-0.0264376 -0.0420728 0.845476
-0.0254574 -0.0426484 0.84338
-0.0244848 -0.0432482 0.841424
-0.0235152 -0.0438326 0.839416
-0.0225561 -0.0444803 0.837731
-0.021605 -0.0451807 0.836311
-0.0206645 -0.0459796 0.835366
-0.0197285 -0.0468145 0.834598
-0.0187951 -0.0476667 0.833917
-0.0178636 -0.0485292 0.83329
-0.016934 -0.0494065 0.832735
-0.0160041 -0.0502534 0.832047
-0.0150716 -0.0510018 0.830922
-0.0141409 -0.0517338 0.829734
-0.0132102 -0.0523709 0.828134
-0.0122828 -0.0530058 0.826543
-0.0113596 -0.0536798 0.825139
-0.0104403 -0.0544283 0.824076
-0.00952343 -0.0551965 0.823109
-0.00860847 -0.0559577 0.82212
-0.00769552 -0.056728 0.821181
-0.00678472 -0.0574464 0.820028
-0.00587617 -0.0581849 0.81897
-0.0049691 -0.0589546 0.818056
-0.00406255 -0.0597761 0.817369
-0.00315781 -0.0605831 0.816626
-0.00225381 -0.0614054 0.815953
-0.00134995 -0.0622591 0.815417
-0.000446772 -0.0631152 0.814894
0.000457253 -0.0640088 0.814529
0.00136179 -0.0649214 0.814245
0.00226788 -0.065868 0.814099
0.00317397 -0.0668146 0.813954
0.00408007 -0.0677612 0.813809
0.00498617 -0.0687078 0.813664
0.00589226 -0.0696544 0.813519
0.00679842 -0.0706011 0.813374
0.00770445 -0.0715476 0.813229
0.00861054 -0.0724942 0.813084
0.00951664 -0.0734408 0.812939
0.0104227 -0.0743874 0.812793
0.0113288 -0.075334 0.812648
0.0122386 -0.0763169 0.812643
0.0131512 -0.0773228 0.812723
0.0140649 -0.0783336 0.812821
0.0149835 -0.0793829 0.813062
0.0159026 -0.0804303 0.813291
0.0168274 -0.0815171 0.813664
0.0177637 -0.0826869 0.814343
0.0187061 -0.0838892 0.815134
0.0196563 -0.0851364 0.816082
0.0206109 -0.0863988 0.817075
0.0215652 -0.0876425 0.817989
0.0225134 -0.0888297 0.818688
0.0234756 -0.0900993 0.819677
0.0244352 -0.0913374 0.820541
0.0254013 -0.0926034 0.821497
0.0263695 -0.0938703 0.822446
0.0273363 -0.0951145 0.823304
0.0283025 -0.0963427 0.824095
0.0292708 -0.0975716 0.82488
0.0302338 -0.0987625 0.825524
0.0312093 -0.100013 0.826367
0.0322113 -0.101398 0.827672
0.0332245 -0.102831 0.829127
0.0342565 -0.104348 0.830861
0.0353004 -0.105908 0.83272
0.0353893 -0.108579 0.835079
0.0363429 -0.10744 0.83447
-0.0283263 -0.0387375 0.848695
-0.0273662 -0.0395597 0.847751
-0.026396 -0.0402724 0.84628
-0.0254219 -0.040916 0.844489
-0.0244438 -0.0414766 0.842315
-0.0234733 -0.0420617 0.840285
-0.0225059 -0.042629 0.838193
-0.0215503 -0.0432771 0.836508
-0.0206013 -0.0439629 0.83502
-0.0196624 -0.0447478 0.834013
-0.018727 -0.0455524 0.833108
-0.017796 -0.0464009 0.832416
-0.0168662 -0.0472466 0.831718
-0.015939 -0.0481206 0.831156
-0.0150124 -0.048982 0.830541
-0.0140841 -0.0497633 0.829568
-0.0131579 -0.0505465 0.828614
-0.0122316 -0.051242 0.827276
-0.0113086 -0.0519505 0.826009
-0.0103883 -0.0526803 0.824849
-0.00947094 -0.0534653 0.823944
-0.0085554 -0.0542506 0.823048
-0.00764152 -0.0550284 0.822129
-0.00672957 -0.0557996 0.82119
-0.0058204 -0.0565051 0.819976
-0.00491282 -0.0572587 0.81898
-0.00400681 -0.0580293 0.818065
-0.00310101 -0.0588531 0.817385
-0.00219637 -0.0596801 0.816724
-0.00129235 -0.0605225 0.816132
-0.000388726 -0.0613774 0.815599
0.000513836 -0.06223 0.815059
0.00141745 -0.0631199 0.814677
0.00232089 -0.0640146 0.814318
0.00322698 -0.0649612 0.814173
0.00413307 -0.0659078 0.814028
0.00503917 -0.0668544 0.813883
0.00594527 -0.067801 0.813738
0.00685136 -0.0687476 0.813593
0.00775881 -0.0697111 0.813515
0.00866521 -0.0706591 0.813375
0.00957136 -0.0716063 0.813231
0.0104791 -0.0725696 0.813152
0.0113872 -0.0735335 0.813073
0.0122937 -0.0744823 0.812935
0.0132063 -0.0754858 0.813009
0.0141216 -0.0765117 0.813166
0.0150365 -0.0775271 0.813281
0.0159538 -0.0785579 0.81345
0.0168735 -0.0796025 0.81367
0.0177988 -0.0806854 0.81403
0.0187364 -0.0818533 0.814703
0.0196778 -0.0830369 0.815427
0.0206268 -0.084262 0.816297
0.0215771 -0.0854826 0.81714
0.0225264 -0.0866821 0.817897
0.0234665 -0.0878088 0.818378
0.0244198 -0.0890126 0.819135
0.02537 -0.0901854 0.819771
0.0263277 -0.0913964 0.820537
0.0272922 -0.0926342 0.821389
0.0282557 -0.0938574 0.822181
0.0292252 -0.0951046 0.823051
0.0302004 -0.0963726 0.823984
0.031164 -0.0975649 0.824641
0.0321363 -0.0987939 0.825418
0.0331381 -0.100173 0.826712
0.0341514 -0.101599 0.828155
0.0351849 -0.103114 0.829893
0.0362346 -0.104693 0.831834
0.0372837 -0.106248 0.833673
0.0373636 -0.108844 0.835765
0.0383099 -0.107673 0.83505
-0.0282587 -0.0367139 0.848425
-0.0273009 -0.0375509 0.847549
-0.0263431 -0.0383708 0.846597
-0.0253775 -0.0390985 0.845199
-0.0244057 -0.0397309 0.843351
-0.0234317 -0.0402944 0.841187
-0.0224652 -0.0408817 0.839164
-0.0215018 -0.0414508 0.837076
-0.0205494 -0.0421002 0.835396
-0.0196035 -0.0427852 0.833903
-0.0186661 -0.043553 0.832818
-0.017732 -0.0443368 0.831819
-0.0168023 -0.0451655 0.83104
-0.015874 -0.0459928 0.830262
-0.0149486 -0.0468507 0.829632
-0.0140245 -0.0477115 0.829021
-0.0131001 -0.0485248 0.8282
-0.012178 -0.0493624 0.827495
-0.0112559 -0.0501309 0.826486
-0.0103361 -0.0509134 0.82555
-0.00941825 -0.0517135 0.824701
-0.00850206 -0.0525498 0.824021
-0.0075874 -0.0533532 0.823201
-0.00667448 -0.0541342 0.82229
-0.00576343 -0.0549042 0.821342
-0.00485552 -0.05561 0.820123
-0.00394936 -0.0563486 0.819057
-0.00304413 -0.0571219 0.818151
-0.00213854 -0.0579616 0.817535
-0.00123376 -0.0588079 0.816952
-0.000330014 -0.0596533 0.816371
0.000573298 -0.0605087 0.815836
0.00147546 -0.0613593 0.815285
0.00237786 -0.0622302 0.814823
0.00327999 -0.0631078 0.814392
0.00418608 -0.0640544 0.814247
0.00509217 -0.065001 0.814102
0.00599827 -0.0659476 0.813956
0.00690437 -0.0668942 0.813811
0.00781046 -0.0678408 0.813666
0.00871816 -0.0688055 0.813593
0.00962458 -0.0697542 0.813456
0.0105308 -0.0707019 0.813315
0.0114388 -0.0716658 0.813238
0.0123488 -0.0726482 0.813232
0.0132576 -0.0736167 0.813171
0.014173 -0.0746414 0.813326
0.0150914 -0.075686 0.813556
0.0160088 -0.0767168 0.813729
0.0169244 -0.0777275 0.813822
0.0178446 -0.0787703 0.814034
0.0187684 -0.0798339 0.814322
0.0197048 -0.0809832 0.814928
0.0206423 -0.0821288 0.815514
0.0215891 -0.0833291 0.816296
0.0225343 -0.0845061 0.816982
0.0234779 -0.0856612 0.81758
0.0244122 -0.0867474 0.817917
0.0253591 -0.0879069 0.818518
0.0263021 -0.0890323 0.818988
0.0272499 -0.09018 0.819532
0.0282097 -0.0913889 0.82029
0.0291719 -0.0926045 0.821066
0.030145 -0.0938697 0.822009
0.0311284 -0.0951796 0.823101
0.0321001 -0.0964131 0.823911
0.0330731 -0.0976434 0.824701
0.0340711 -0.0989955 0.82591
0.0350803 -0.100391 0.827259
0.0361095 -0.101876 0.828902
0.0371606 -0.103451 0.830844
0.0382155 -0.105026 0.832766
0.0392421 -0.106446 0.834138
-0.0272303 -0.0354996 0.847121
-0.0262775 -0.0363574 0.846353
-0.0253241 -0.037195 0.845493
-0.0243592 -0.0379 0.843982
-0.0233909 -0.0385319 0.842129
-0.0224239 -0.0391281 0.840122
-0.0214625 -0.0397351 0.838191
-0.0205044 -0.0403265 0.836206
-0.0195562 -0.0409927 0.834604
-0.018613 -0.0416779 0.83311
-0.0176758 -0.0424115 0.831861
-0.0167428 -0.0431737 0.830762
-0.0158143 -0.0439823 0.829892
-0.0148877 -0.044792 0.829036
-0.0139641 -0.0456369 0.82835
-0.0130421 -0.0464975 0.827744
-0.0121205 -0.0473259 0.826996
-0.0112011 -0.0481971 0.826449
-0.0102822 -0.0490208 0.825692
-0.0093649 -0.049877 0.825088
-0.0084487 -0.0507463 0.824549
-0.00753332 -0.051618 0.824024
-0.0066196 -0.0524236 0.823211
-0.00570764 -0.0532029 0.82229
-0.0047977 -0.0539746 0.821344
-0.00389132 -0.0546813 0.820124
-0.00298626 -0.0554211 0.81906
-0.00208171 -0.0562092 0.818213
-0.00117599 -0.0570668 0.817672
-0.000270959 -0.0579311 0.817163
0.00063258 -0.0587795 0.816591
0.00153555 -0.0596356 0.816057
0.00243732 -0.0604851 0.815499
0.00333841 -0.0613392 0.814964
0.00423909 -0.062201 0.814465
0.00514518 -0.0631476 0.81432
0.00605127 -0.0640942 0.814175
0.00695737 -0.0650408 0.81403
0.00786347 -0.0659874 0.813885
0.00876956 -0.066934 0.81374
0.00967751 -0.0678992 0.813669
0.0105839 -0.0688483 0.813533
0.0114903 -0.0697978 0.8134
0.0123983 -0.0707606 0.813318
0.0133087 -0.0717446 0.81332
0.0142181 -0.0727174 0.813275
0.0151341 -0.0737434 0.813437
0.0160529 -0.0747871 0.813665
0.0169703 -0.0758135 0.813822
0.0178858 -0.0768207 0.813903
0.0188065 -0.077863 0.814115
0.0197285 -0.0789098 0.814342
0.0206634 -0.0800413 0.814884
0.0215982 -0.0811621 0.81538
0.0225398 -0.0823202 0.816009
0.023479 -0.0834527 0.816535
0.0244163 -0.0845649 0.816979
0.0253461 -0.0856234 0.81722
0.026287 -0.0867438 0.817684
0.0272259 -0.087846 0.818076
0.0281697 -0.0889691 0.818539
0.0291285 -0.0901718 0.819284
0.0300878 -0.0913682 0.819999
0.0310642 -0.0926497 0.821012
0.0320526 -0.0939805 0.822187
0.0330288 -0.0952352 0.823081
0.034006 -0.0964845 0.823946
0.0350034 -0.0978272 0.825131
0.0360077 -0.0991935 0.826389
0.0370325 -0.100647 0.827935
0.0380803 -0.102195 0.829797
0.0391315 -0.103741 0.831631
0.0401535 -0.105133 0.83292
-0.0262075 -0.0343076 0.845913
-0.0252595 -0.0351884 0.845266
-0.0243109 -0.0360495 0.844526
-0.0233484 -0.0367488 0.842986
-0.0223848 -0.0373971 0.841211
-0.0214241 -0.0380271 0.839366
-0.0204684 -0.038668 0.837595
-0.0195149 -0.0392824 0.835716
-0.0185694 -0.0399537 0.834133
-0.0176276 -0.0406257 0.832572
-0.0166909 -0.0413256 0.83116
-0.0157577 -0.0420395 0.82983
-0.01483 -0.0428139 0.8288
-0.0139052 -0.0436095 0.82788
-0.0129837 -0.0444543 0.827199
-0.0120641 -0.0453298 0.826667
-0.0111454 -0.0462018 0.826123
-0.0102281 -0.0471049 0.825725
-0.00931114 -0.0479803 0.825205
-0.00839509 -0.0488722 0.824764
-0.00747969 -0.0497781 0.82439
-0.00656495 -0.0506674 0.823943
-0.00565219 -0.0514746 0.823135
-0.00474145 -0.0522553 0.822216
-0.00383233 -0.0530412 0.821329
-0.00292729 -0.053749 0.820109
-0.00202353 -0.0544917 0.819053
-0.00111924 -0.055297 0.818277
-0.00021408 -0.0561555 0.817738
0.000690676 -0.0570207 0.817232
0.00159361 -0.0578709 0.816665
0.00249611 -0.0587274 0.81613
0.00339735 -0.0595774 0.815572
0.00429797 -0.060432 0.815038
0.00519825 -0.0612942 0.814539
0.00610435 -0.0622408 0.814394
0.00701044 -0.0631874 0.814249
0.00791654 -0.064134 0.814104
0.00882264 -0.0650806 0.813958
0.00972873 -0.0660272 0.813813
0.0106366 -0.0669917 0.813741
0.011543 -0.0679404 0.813604
0.0124493 -0.0688881 0.813462
0.0133574 -0.0698519 0.813385
0.014268 -0.0708357 0.813386
0.0151774 -0.0718072 0.813337
0.0160917 -0.0728161 0.813434
0.0170084 -0.0738407 0.81359
0.0179235 -0.0748475 0.813673
0.0188389 -0.0758533 0.813751
0.0197601 -0.076897 0.813971
0.0206826 -0.0779449 0.814204
0.0216151 -0.0790552 0.81467
0.0225466 -0.0801506 0.815074
0.0234794 -0.0812474 0.815478
0.0244119 -0.0823348 0.815841
0.0253458 -0.0834255 0.816212
0.0262717 -0.0844628 0.81638
0.0272117 -0.0855776 0.816831
0.0281533 -0.086696 0.817289
0.0290975 -0.0878211 0.817765
0.0300565 -0.089024 0.818521
0.0310192 -0.0902354 0.819297
0.0319969 -0.0915172 0.820319
0.0329898 -0.0928671 0.821573
0.033971 -0.0941418 0.822546
0.0349526 -0.0954099 0.823487
0.0359511 -0.0967503 0.824672
0.0369564 -0.0981106 0.825914
0.0379731 -0.0995153 0.8273
0.0390123 -0.101011 0.82899
0.04005 -0.102486 0.830592
0.0410627 -0.103831 0.831726
-0.0261243 -0.0321466 0.844883
-0.0251848 -0.0330907 0.844561
-0.0242421 -0.0339981 0.844056
-0.0232955 -0.0348555 0.843302
-0.0223381 -0.0355767 0.841872
-0.0213807 -0.0362573 0.840256
-0.0204256 -0.0369194 0.838566
-0.0194744 -0.0375809 0.836893
-0.0185261 -0.0382301 0.835179
-0.0175834 -0.0389054 0.833611
-0.016644 -0.0395769 0.832042
-0.0157087 -0.0402601 0.830547
-0.0147766 -0.0409435 0.829069
-0.0138504 -0.0417025 0.827966
-0.0129281 -0.0425124 0.827115
-0.0120082 -0.0433575 0.826437
-0.0110899 -0.044219 0.825842
-0.010173 -0.0451056 0.825368
-0.00925694 -0.0460081 0.824972
-0.0083414 -0.0469002 0.824531
-0.00742656 -0.0478092 0.824171
-0.00651204 -0.0487326 0.823878
-0.00559841 -0.0496214 0.823431
-0.00468684 -0.0504419 0.822682
-0.00377774 -0.051221 0.821755
-0.0028702 -0.0520095 0.820879
-0.00196641 -0.0527373 0.819744
-0.00106293 -0.0535133 0.818831
-0.000159681 -0.054322 0.818069
0.000745496 -0.0551967 0.817599
0.00165044 -0.0560786 0.817164
0.00255371 -0.0569453 0.816666
0.00345567 -0.0578034 0.816137
0.00435738 -0.0586698 0.815646
0.00525754 -0.0595248 0.815111
0.00615735 -0.0603874 0.814612
0.00706345 -0.061334 0.814467
0.00796954 -0.0622806 0.814322
0.00887564 -0.0632272 0.814177
0.00978174 -0.0641738 0.814032
0.0106878 -0.0651204 0.813887
0.0115957 -0.0660835 0.813809
0.012502 -0.0670316 0.813669
0.0134064 -0.0679622 0.81346
0.0143142 -0.0689238 0.813374
0.0152246 -0.069905 0.813366
0.0161338 -0.0708744 0.81331
0.0170456 -0.0718625 0.813327
0.0179621 -0.0728831 0.813469
0.0188747 -0.0738708 0.81348
0.0197879 -0.0748618 0.813502
0.0207093 -0.0759057 0.813727
0.0216296 -0.0769365 0.813898
0.0225588 -0.0780223 0.814275
0.0234866 -0.0790928 0.81459
0.0244155 -0.0801634 0.814899
0.025339 -0.0811967 0.815065
0.0262719 -0.0822815 0.81542
0.0271973 -0.0833169 0.815587
0.0281338 -0.0844128 0.815974
0.0290757 -0.0855328 0.816445
0.0300227 -0.0866738 0.816988
0.0309829 -0.0878795 0.817762
0.0319499 -0.0891102 0.818616
0.0329359 -0.0904283 0.819777
0.0339335 -0.0917939 0.821096
0.0349197 -0.0930891 0.822151
0.0359061 -0.0943748 0.823161
0.0369029 -0.0956988 0.824296
0.0379047 -0.0970362 0.825466
0.0389134 -0.0983942 0.826697
0.039948 -0.0998591 0.828289
0.040977 -0.101284 0.829725
0.0419838 -0.102597 0.830762
-0.0260413 -0.0299908 0.843848
-0.0251069 -0.0309674 0.843701
-0.0241678 -0.0318964 0.843309
-0.0232271 -0.0328038 0.84281
-0.0222833 -0.0336664 0.842087
-0.0213318 -0.0344199 0.840821
-0.0203805 -0.0351382 0.839392
-0.0194318 -0.0358482 0.837938
-0.0184862 -0.0365569 0.836494
-0.0175415 -0.037224 0.834862
-0.0166011 -0.037902 0.833301
-0.0156638 -0.0385713 0.831716
-0.0147299 -0.0392383 0.830137
-0.0137996 -0.0399065 0.828582
-0.0128753 -0.0406678 0.827487
-0.0119548 -0.0414922 0.826704
-0.0110359 -0.0423245 0.825966
-0.0101188 -0.0431847 0.825366
-0.00920284 -0.0440579 0.824831
-0.00828783 -0.0449299 0.824296
-0.00737371 -0.0458055 0.823781
-0.00646013 -0.0467118 0.823412
-0.00554677 -0.0476333 0.823115
-0.00463452 -0.0485195 0.822659
-0.00372429 -0.0493556 0.821982
-0.00281663 -0.0501505 0.821126
-0.00191008 -0.0509571 0.820331
-0.00100688 -0.0517208 0.819353
-0.000103974 -0.052518 0.818531
0.00079899 -0.0533442 0.817844
0.00170345 -0.0542197 0.817378
0.00260762 -0.0551011 0.816941
0.0035102 -0.0559685 0.816446
0.00441259 -0.0568442 0.815992
0.00531498 -0.0577293 0.81558
0.00621579 -0.0586017 0.815118
0.00711517 -0.0594648 0.81462
0.00801964 -0.0603941 0.814402
0.00892387 -0.0613227 0.814183
0.00982799 -0.0622517 0.813966
0.0107321 -0.0631818 0.813754
0.0116378 -0.0641279 0.813609
0.0125435 -0.0650741 0.813464
0.0134492 -0.0660203 0.813319
0.0143527 -0.0669487 0.813102
0.0152581 -0.0678927 0.812949
0.0161657 -0.0688546 0.812868
0.0170738 -0.06982 0.812799
0.0179847 -0.0708039 0.812803
0.0189009 -0.0718235 0.812945
0.0198153 -0.0728266 0.81302
0.0207306 -0.0738328 0.813106
0.0216518 -0.0748757 0.81333
0.0225691 -0.0758878 0.813433
0.0234922 -0.0769336 0.813662
0.0244162 -0.0779803 0.813891
0.0253409 -0.0790266 0.814115
0.0262637 -0.0800576 0.814277
0.0271966 -0.081143 0.814641
0.0281251 -0.0821986 0.814888
0.0290647 -0.0833111 0.815344
0.0300101 -0.0844485 0.815886
0.0309616 -0.0856102 0.81651
0.0319223 -0.0868143 0.817285
0.0328939 -0.0880632 0.818212
0.0338808 -0.0893795 0.819375
0.0348797 -0.0907429 0.820697
0.0358708 -0.0920558 0.821823
0.0368676 -0.0933836 0.82299
0.0378662 -0.0947091 0.824137
0.0388656 -0.0960256 0.825239
0.0398654 -0.0973357 0.826309
0.0408911 -0.09875 0.827731
0.0419057 -0.100104 0.828929
0.0429034 -0.101373 0.82982
0.0429674 -0.103801 0.831408
0.0438809 -0.102548 0.830375
-0.0250387 -0.0289344 0.843287
-0.0241023 -0.0298826 0.842996
-0.0231624 -0.0307914 0.842503
-0.0222212 -0.0316754 0.841886
-0.0212793 -0.0325377 0.841165
-0.0203341 -0.033339 0.840142
-0.0193887 -0.0341063 0.838957
-0.0184444 -0.0348511 0.837673
-0.0175029 -0.0355939 0.836394
-0.0165603 -0.0362636 0.834767
-0.0156204 -0.0369129 0.833058
-0.0146845 -0.0375654 0.831383
-0.0137528 -0.0382298 0.829786
-0.0128243 -0.0388865 0.828169
-0.0119016 -0.0396362 0.827017
-0.0109825 -0.0404615 0.826237
-0.010065 -0.0412923 0.825492
-0.00914904 -0.0421377 0.824823
-0.00823435 -0.0429945 0.824213
-0.00732067 -0.0438471 0.823589
-0.006408 -0.0447169 0.823051
-0.00549611 -0.0455909 0.822536
-0.00458444 -0.0464948 0.822163
-0.00367426 -0.0473659 0.821643
-0.00276605 -0.0481988 0.820955
-0.00186036 -0.0489969 0.820115
-0.000955138 -0.0498234 0.819412
-5.2434e-05 -0.0506218 0.818589
0.000850476 -0.0514541 0.817924
0.00175391 -0.0523145 0.817389
0.00265837 -0.0532065 0.816996
0.00356258 -0.0541015 0.816619
0.0044655 -0.0549859 0.816198
0.00536849 -0.0558808 0.815826
0.00627195 -0.056786 0.815501
0.00717245 -0.0576618 0.815052
0.00807111 -0.0585241 0.814549
0.00897347 -0.0594339 0.81425
0.00987552 -0.0603428 0.81395
0.0107773 -0.0612535 0.813658
0.0116807 -0.0621819 0.813441
0.0125859 -0.0631277 0.813296
0.0134893 -0.0640571 0.813084
0.0143943 -0.0650014 0.812935
0.015295 -0.0659119 0.812647
0.0161995 -0.0668542 0.812489
0.0171042 -0.0677975 0.812336
0.0180119 -0.0687629 0.812271
0.01892 -0.0697302 0.812213
0.0198357 -0.0707484 0.812354
0.0207471 -0.071734 0.812366
0.0216617 -0.0727379 0.812446
0.0225823 -0.073778 0.812665
0.0234984 -0.074785 0.812753
0.0244182 -0.0758116 0.812914
0.025344 -0.0768709 0.813197
0.0262686 -0.0779181 0.81343
0.0271911 -0.0789491 0.813597
0.0281275 -0.0800536 0.814039
0.0290622 -0.0811436 0.814421
0.0300029 -0.0822597 0.814896
0.0309523 -0.0834151 0.81551
0.0319109 -0.0846107 0.816266
0.0328726 -0.0858143 0.817045
0.033845 -0.087061 0.81797
0.0348331 -0.088374 0.819128
0.0358337 -0.0897368 0.820456
0.0368305 -0.0910684 0.821656
0.0378338 -0.0924188 0.822912
0.0388346 -0.0937442 0.824063
0.039834 -0.0950553 0.825155
0.0408291 -0.0963339 0.826115
0.0418412 -0.0976802 0.827308
0.0428422 -0.0989681 0.828283
0.0438301 -0.100192 0.829021
0.0447925 -0.101301 0.829352
-0.0240378 -0.02788 0.842728
-0.023101 -0.028814 0.842366
-0.0221608 -0.0297053 0.841784
-0.0212196 -0.0305705 0.841073
-0.0202804 -0.0314453 0.840418
-0.0193386 -0.0322648 0.839488
-0.0183985 -0.0330803 0.838546
-0.0174583 -0.0338602 0.837436
-0.0165202 -0.0346361 0.836317
-0.0155797 -0.0353082 0.834694
-0.0146412 -0.0359423 0.832901
-0.0137069 -0.0365771 0.831133
-0.0127769 -0.0372272 0.829459
-0.0118505 -0.0378718 0.827777
-0.0109293 -0.0386083 0.826558
-0.0100114 -0.0394202 0.825714
-0.00909532 -0.0402326 0.824882
-0.00818083 -0.0410603 0.824129
-0.00726767 -0.041898 0.823431
-0.0063558 -0.0427344 0.822734
-0.00544483 -0.0435983 0.822171
-0.00453492 -0.0444534 0.821573
-0.00362526 -0.0453397 0.821123
-0.00271729 -0.0461956 0.820538
-0.00181052 -0.0470454 0.81993
-0.000906348 -0.0478587 0.819163
-2.05779e-06 -0.0487028 0.818541
0.000900526 -0.0495367 0.817879
0.00180382 -0.0504026 0.817365
0.00270723 -0.0512821 0.816916
0.00361192 -0.0521898 0.816594
0.00451648 -0.0531019 0.816293
0.00541967 -0.054001 0.815937
0.00632361 -0.0549148 0.815647
0.00722848 -0.0558418 0.815415
0.00812866 -0.0567206 0.814979
0.00902651 -0.0575813 0.814469
0.00992636 -0.0584703 0.814082
0.0108256 -0.0593575 0.81369
0.0117266 -0.0602657 0.813389
0.0126296 -0.0611946 0.813176
0.0135327 -0.0621243 0.812966
0.0144331 -0.0630342 0.812676
0.0153349 -0.0639581 0.812445
0.0162302 -0.0648328 0.812014
0.017134 -0.0657746 0.811858
0.0180383 -0.0667202 0.811717
0.0189452 -0.0676852 0.811655
0.0198551 -0.0686683 0.811664
0.0207708 -0.0696871 0.811813
0.0216796 -0.0706582 0.811769
0.0225934 -0.07166 0.811847
0.0235161 -0.0727137 0.812124
0.0244318 -0.0737197 0.812213
0.0253511 -0.0747451 0.812373
0.0262804 -0.0758236 0.812735
0.0272082 -0.0768886 0.81304
0.0281313 -0.0779227 0.813223
0.0290717 -0.0790468 0.813745
0.0300105 -0.0801561 0.814204
0.0309554 -0.0812906 0.814751
0.0319059 -0.0824468 0.815373
0.0328698 -0.0836623 0.816208
0.0338286 -0.0848445 0.816911
0.0348054 -0.0861074 0.817904
0.0357904 -0.0873974 0.818984
0.0367967 -0.0887763 0.820378
0.0377956 -0.0901085 0.821587
0.0388054 -0.0914786 0.82292
0.0398033 -0.0927837 0.824005
0.0407987 -0.0940691 0.825011
0.0417836 -0.0952986 0.825804
0.042786 -0.0965949 0.826826
0.0437724 -0.0978153 0.827568
0.0447497 -0.0989921 0.828151
0.0457053 -0.100074 0.828393
0.0457435 -0.102358 0.8295
0.0466496 -0.101105 0.828454
0.0466734 -0.103328 0.829346
0.047573 -0.102052 0.828222
-0.0239751 -0.0258954 0.842543
-0.0230396 -0.026837 0.842222
-0.0221028 -0.0277612 0.84181
-0.0211626 -0.0286373 0.84115
-0.0202239 -0.0295146 0.840503
-0.0192863 -0.0303915 0.839861
-0.0183474 -0.0312287 0.83902
-0.0174107 -0.0320757 0.838239
-0.0164747 -0.0329034 0.837368
-0.0155388 -0.0336971 0.836334
-0.0146003 -0.0343715 0.834714
-0.0136638 -0.0350049 0.832908
-0.0127314 -0.0356379 0.831121
-0.0118028 -0.0362597 0.8293
-0.0108785 -0.0369063 0.82762
-0.00995894 -0.0376439 0.826402
-0.00904219 -0.0384384 0.825471
-0.00812733 -0.0392162 0.82447
-0.00721424 -0.040025 0.823627
-0.00630301 -0.040819 0.822722
-0.00539332 -0.041624 0.821878
-0.00448428 -0.0424728 0.821248
-0.00357617 -0.0433236 0.820634
-0.00266851 -0.0441961 0.820124
-0.00176183 -0.0450645 0.819601
-0.000856096 -0.0459298 0.819068
4.69775e-05 -0.0467601 0.818379
0.000949626 -0.0476046 0.817762
0.00185248 -0.0484691 0.817239
0.0027556 -0.0493527 0.816807
0.00365927 -0.0502518 0.816446
0.00456344 -0.0511637 0.816145
0.00546834 -0.0520909 0.815912
0.00637086 -0.0529906 0.815561
0.00727556 -0.0539211 0.815345
0.00818157 -0.0548667 0.815195
0.00908289 -0.055763 0.814834
0.00997827 -0.0566073 0.814253
0.0108752 -0.0574737 0.813771
0.0117697 -0.058326 0.813232
0.012668 -0.0592172 0.812862
0.0135667 -0.0601161 0.812525
0.0144666 -0.0610276 0.812244
0.0153632 -0.0619156 0.811866
0.0162631 -0.0628324 0.811611
0.0171522 -0.0636713 0.811036
0.0180573 -0.0646303 0.810956
0.0189628 -0.0655917 0.810885
0.0198717 -0.0665746 0.810899
0.0207836 -0.0675744 0.81098
0.0217039 -0.0686258 0.811264
0.0226149 -0.0696129 0.811288
0.0235314 -0.0706326 0.81144
0.0244572 -0.0717032 0.811789
0.0253731 -0.0727109 0.811886
0.026293 -0.073739 0.812061
0.027226 -0.0748364 0.8125
0.0281578 -0.0759212 0.812886
0.029085 -0.0769758 0.81315
0.0300299 -0.0781186 0.813746
0.0309731 -0.0792461 0.814277
0.0319191 -0.0803811 0.81483
0.0328743 -0.0815552 0.815523
0.0338399 -0.0827726 0.816371
0.0347965 -0.0839366 0.817008
0.0357744 -0.0851961 0.817993
0.0367601 -0.0864806 0.819059
0.0377639 -0.0878388 0.820384
0.038765 -0.0891704 0.821596
0.0397804 -0.0905575 0.823
0.040776 -0.0918438 0.824022
0.0417633 -0.0930848 0.824871
0.0427382 -0.0942673 0.825502
0.0437304 -0.0955141 0.826353
0.0447061 -0.0966871 0.826935
0.0456772 -0.097837 0.827429
0.0466267 -0.0988939 0.827589
0.0475632 -0.0998971 0.827557
0.0484842 -0.100839 0.827314
-0.0239167 -0.0239529 0.842576
-0.0229805 -0.0248857 0.842206
-0.0220429 -0.0257975 0.841727
-0.0211057 -0.0267044 0.841226
-0.0201651 -0.0275574 0.840445
-0.0192268 -0.0284206 0.839726
-0.0182921 -0.0293141 0.839172
-0.0173575 -0.030195 0.838559
-0.016424 -0.0310733 0.837938
-0.0154914 -0.0319454 0.837292
-0.0145582 -0.0327723 0.836422
-0.0136215 -0.0334516 0.834817
-0.012687 -0.034084 0.832996
-0.0117566 -0.0347165 0.831197
-0.0108298 -0.035325 0.8293
-0.00990749 -0.0359743 0.827625
-0.00898934 -0.0367122 0.826402
-0.00807374 -0.0374892 0.825383
-0.00716022 -0.0382486 0.824289
-0.00624859 -0.0390386 0.823353
-0.00533896 -0.0398181 0.822377
-0.00443087 -0.0406117 0.821478
-0.00352335 -0.0414467 0.820783
-0.00261707 -0.0422815 0.820094
-0.0017107 -0.0431511 0.819573
-0.000805729 -0.0440081 0.818998
9.87466e-05 -0.044874 0.818469
0.00100115 -0.0457182 0.817845
0.00190345 -0.0465786 0.817301
0.00280526 -0.0474443 0.816785
0.00370872 -0.0483444 0.816428
0.00461272 -0.0492602 0.816143
0.00551509 -0.0501578 0.81578
0.00641814 -0.0510693 0.81548
0.0073196 -0.0519666 0.81512
0.00822367 -0.0528966 0.814904
0.00912926 -0.0538433 0.814763
0.0100313 -0.0547565 0.814476
0.0109256 -0.0555998 0.813891
0.0118195 -0.0564481 0.813331
0.0127108 -0.0572811 0.812712
0.013608 -0.0581711 0.812338
0.0145019 -0.059039 0.811874
0.0153987 -0.0599332 0.811524
0.0162909 -0.0607973 0.81105
0.0171909 -0.0617228 0.810834
0.0180786 -0.0625624 0.810265
0.0189881 -0.0635567 0.810334
0.0198963 -0.0645391 0.810352
0.0208072 -0.0655373 0.810433
0.0217183 -0.0665333 0.810502
0.0226387 -0.0675846 0.81079
0.0235497 -0.0685749 0.810831
0.0244696 -0.069614 0.811064
0.0253988 -0.0707027 0.811489
0.026318 -0.0717291 0.811663
0.0272385 -0.0727596 0.81185
0.0281754 -0.073875 0.812363
0.0291112 -0.0749769 0.812818
0.0300457 -0.0760676 0.813224
0.0309922 -0.0772128 0.813833
0.03194 -0.0783582 0.814436
0.0328905 -0.0795093 0.815052
0.0338507 -0.080701 0.815815
0.0348186 -0.0819195 0.816668
0.0357767 -0.0830846 0.817313
0.0367555 -0.0843408 0.818291
0.0377385 -0.0856034 0.819279
0.03874 -0.086939 0.820527
0.0397377 -0.0882491 0.821668
0.0407557 -0.0896347 0.82307
0.0417524 -0.0909176 0.824085
0.0427358 -0.0921377 0.824865
0.0437013 -0.0932765 0.825343
0.0446829 -0.0944744 0.826025
0.0456479 -0.0956015 0.826448
0.0466037 -0.0966866 0.826715
0.0475419 -0.0976999 0.826726
0.0484717 -0.09868 0.82662
0.0493858 -0.0995996 0.826302
0.0494067 -0.101787 0.827088
0.0503068 -0.100546 0.826078
0.0505847 -0.103715 0.830251
0.05136 -0.101988 0.827571
-0.0229183 -0.0229045 0.84202
-0.0219846 -0.023852 0.841733
-0.0210487 -0.0247716 0.841297
-0.0201117 -0.0256671 0.840736
-0.0191721 -0.0265143 0.839925
-0.0182354 -0.0273788 0.839213
-0.017302 -0.028275 0.838675
-0.0163703 -0.029186 0.838219
-0.0154394 -0.0300948 0.837756
-0.0145083 -0.030985 0.837201
-0.0135768 -0.0318302 0.836422
-0.0126429 -0.0325407 0.834967
-0.0117108 -0.0331905 0.833223
-0.0107822 -0.0338262 0.831429
-0.00985761 -0.0344507 0.8296
-0.00893702 -0.0351022 0.827926
-0.00801993 -0.0358273 0.826632
-0.00710542 -0.0365765 0.82547
-0.00619334 -0.0373201 0.824295
-0.00528329 -0.0380801 0.82321
-0.00437529 -0.0388446 0.822159
-0.00346898 -0.0396242 0.82119
-0.00256264 -0.040457 0.820484
-0.00165748 -0.041293 0.819799
-0.000752011 -0.0421626 0.819278
0.000152021 -0.0430199 0.818704
0.00105565 -0.0438866 0.818179
0.00195722 -0.044733 0.817566
0.00285853 -0.0455925 0.817016
0.0037594 -0.0464584 0.816502
0.00466327 -0.0473738 0.816215
0.00556691 -0.0482895 0.815931
0.0064685 -0.0491853 0.81556
0.00737066 -0.0500936 0.815246
0.00827107 -0.0509859 0.814865
0.00917311 -0.0519001 0.814582
0.0100781 -0.0528454 0.814436
0.0109782 -0.0537462 0.814096
0.0118714 -0.0545888 0.813508
0.0127641 -0.0554367 0.812948
0.013654 -0.0562673 0.812318
0.0145504 -0.0571578 0.811948
0.0154431 -0.0580229 0.811473
0.0163365 -0.0588979 0.811043
0.0172269 -0.0597567 0.810549
0.0181266 -0.0606845 0.810344
0.0190138 -0.0615283 0.809794
0.019929 -0.0625617 0.810028
0.0208397 -0.0635614 0.81012
0.0217532 -0.0645757 0.810268
0.0226645 -0.0655729 0.810344
0.0235853 -0.0666236 0.810634
0.0244937 -0.067598 0.810614
0.0254167 -0.068654 0.810917
0.026347 -0.069745 0.811354
0.0272701 -0.070791 0.811609
0.028194 -0.0718375 0.811861
0.0291349 -0.0729685 0.812439
0.0300712 -0.0740692 0.812892
0.0310103 -0.0751785 0.813372
0.0319583 -0.0763254 0.813991
0.0329115 -0.0774907 0.814673
0.0338627 -0.0786394 0.815283
0.0348281 -0.0798481 0.816113
0.0357933 -0.0810476 0.8169
0.0367528 -0.0822136 0.817551
0.0377294 -0.0834484 0.818451
0.0387128 -0.0847065 0.819429
0.0397115 -0.0860205 0.820601
0.0407111 -0.087328 0.821737
0.0417305 -0.0887106 0.823137
0.0427281 -0.0899912 0.82415
0.0437082 -0.0911905 0.824857
0.0446689 -0.092306 0.825253
0.0456403 -0.0934594 0.82578
0.0465944 -0.0945399 0.826039
0.0475394 -0.0955827 0.826162
0.0484714 -0.0965738 0.826099
0.049395 -0.0975325 0.82592
0.0503078 -0.0984492 0.825592
0.0512279 -0.0993961 0.825374
0.0521563 -0.100372 0.825256
-0.0219177 -0.0218165 0.841239
-0.020986 -0.0227738 0.84101
-0.0200515 -0.0236935 0.840578
-0.0191145 -0.0245699 0.839917
-0.0181778 -0.0254311 0.839183
-0.0172445 -0.026323 0.838618
-0.0163131 -0.0272345 0.838163
-0.0153828 -0.0281487 0.837726
-0.0144535 -0.0290723 0.837341
-0.0135241 -0.0299789 0.836872
-0.0125943 -0.0308415 0.836181
-0.0116631 -0.0315852 0.83489
-0.0107339 -0.0322823 0.833378
-0.00980761 -0.0329368 0.831668
-0.00888491 -0.0335799 0.82992
-0.00796586 -0.0342331 0.828244
-0.00704998 -0.0349603 0.826952
-0.0061366 -0.0356967 0.82572
-0.00522559 -0.0364421 0.824546
-0.00431684 -0.037189 0.823391
-0.00340994 -0.0379521 0.822327
-0.00250523 -0.0387147 0.821272
-0.00160013 -0.039533 0.820493
-0.000695923 -0.0403669 0.819796
0.000208989 -0.0412366 0.819274
0.00111164 -0.0420807 0.818636
0.00201459 -0.0429471 0.818108
0.00291623 -0.0438065 0.817553
0.003816 -0.0446538 0.816947
0.00471521 -0.0455058 0.816367
0.00561857 -0.04642 0.816075
0.00652023 -0.0473181 0.815712
0.00741956 -0.0481968 0.815264
0.00832077 -0.0491005 0.814931
0.0092203 -0.0499919 0.814546
0.0101198 -0.050888 0.814186
0.0110242 -0.0518326 0.814039
0.0119234 -0.0527311 0.813692
0.0128154 -0.0535747 0.813108
0.0137076 -0.0544259 0.812562
0.0145984 -0.0552729 0.812003
0.0154941 -0.0561628 0.811631
0.0163856 -0.0570259 0.811148
0.0172779 -0.0578996 0.810714
0.01817 -0.0587754 0.810291
0.0190723 -0.0597234 0.810173
0.0199646 -0.0606064 0.809784
0.0208841 -0.0616635 0.810118
0.0217981 -0.0626814 0.810286
0.0227122 -0.0636956 0.810435
0.0236233 -0.0646894 0.810498
0.0245446 -0.0657393 0.810786
0.0254533 -0.0667138 0.810766
0.0263802 -0.0677867 0.811139
0.0273112 -0.0688767 0.811575
0.0282346 -0.0699205 0.811821
0.029156 -0.0709504 0.812009
0.0300976 -0.0720793 0.812582
0.0310313 -0.0731615 0.812966
0.031975 -0.0742888 0.813519
0.0329245 -0.0754368 0.814145
0.033883 -0.0766212 0.814904
0.0348356 -0.0777702 0.815518
0.0358064 -0.0789963 0.816418
0.0367688 -0.0801766 0.817136
0.0377295 -0.081341 0.817783
0.0387029 -0.0825542 0.818605
0.0396874 -0.083809 0.819577
0.0406832 -0.0851018 0.820676
0.0416797 -0.0863891 0.821743
0.0427006 -0.0877681 0.823138
0.0436996 -0.0890469 0.824149
0.0446761 -0.0902266 0.824788
0.0456324 -0.091321 0.82511
0.0465978 -0.0924492 0.825551
0.0475406 -0.0934842 0.82565
0.0484792 -0.0945019 0.825685
0.0494101 -0.0954903 0.825615
0.050333 -0.0964485 0.825437
0.0512507 -0.0973869 0.825189
0.052176 -0.0983535 0.825041
0.0531033 -0.0993269 0.824915
-0.0264096 -0.0241158 0.876811
-0.0263494 -0.0221016 0.87689
-0.0252887 -0.0223611 0.872436
-0.0219274 -0.0205809 0.845182
-0.0209212 -0.0207546 0.840591
-0.0199898 -0.0217029 0.840317
-0.0190558 -0.0226112 0.839826
-0.0181206 -0.0234905 0.839184
-0.0171873 -0.0243807 0.838606
-0.0162563 -0.025289 0.838131
-0.0153267 -0.0262155 0.837758
-0.0143978 -0.027143 0.837392
-0.0134692 -0.0280665 0.837008
-0.0125408 -0.0289726 0.836538
-0.0116125 -0.0298495 0.835919
-0.0106834 -0.0306108 0.834714
-0.00975663 -0.0313438 0.833378
-0.00883235 -0.032021 0.831774
-0.00791159 -0.0326965 0.83018
-0.00699429 -0.0333501 0.828496
-0.00607938 -0.0340913 0.827266
-0.00516687 -0.0348437 0.826104
-0.00425631 -0.0356085 0.825017
-0.00334841 -0.0363561 0.823858
-0.00244221 -0.0371185 0.822782
-0.00153893 -0.0378653 0.821643
-0.000635822 -0.0386525 0.82071
0.000266382 -0.0394581 0.819874
0.00116996 -0.0403128 0.819278
0.00207179 -0.041155 0.81863
0.00297404 -0.0420216 0.818101
0.00387516 -0.0428821 0.817549
0.00477424 -0.0437293 0.81694
0.00567256 -0.0445795 0.81635
0.00657552 -0.0454923 0.816052
0.00747663 -0.0463892 0.815682
0.00837276 -0.0472396 0.815106
0.00927178 -0.0481268 0.8147
0.0101672 -0.0489866 0.814174
0.0110622 -0.049849 0.813665
0.0119623 -0.0507619 0.813382
0.0128618 -0.0516724 0.813089
0.0137529 -0.0525176 0.812515
0.0146457 -0.0533839 0.812036
0.0155381 -0.0542521 0.811569
0.016433 -0.0551425 0.811202
0.0173216 -0.0559917 0.81066
0.0182149 -0.0568788 0.810284
0.0191091 -0.0577749 0.809948
0.0200144 -0.0587441 0.809922
0.0209151 -0.0596831 0.809768
0.0218402 -0.0607712 0.810233
0.0227604 -0.0618229 0.810542
0.023678 -0.0628541 0.810762
0.0245925 -0.0638638 0.81089
0.025515 -0.0649146 0.811182
0.0264235 -0.0658859 0.811148
0.027351 -0.066956 0.81151
0.0282795 -0.0680268 0.81187
0.0292005 -0.0690541 0.812052
0.0301183 -0.0700634 0.812159
0.0310606 -0.0711896 0.812724
0.0319913 -0.0722539 0.813039
0.0329396 -0.0733975 0.81366
0.0338904 -0.0745461 0.814292
0.0348506 -0.0757319 0.81506
0.0358044 -0.0768807 0.815676
0.0367809 -0.0781244 0.816648
0.0377409 -0.0792859 0.817295
0.038702 -0.0804482 0.81794
0.0396762 -0.0816579 0.818753
0.0406621 -0.0829105 0.819719
0.0416548 -0.0841832 0.82075
0.0426528 -0.0854691 0.821818
0.0436709 -0.0868274 0.823143
0.044671 -0.0881032 0.824149
0.0456485 -0.0892816 0.824786
0.0466 -0.0903563 0.825041
0.0475609 -0.091463 0.825406
0.048502 -0.0924914 0.825485
0.0494334 -0.0934824 0.825425
0.0503586 -0.0944501 0.825283
0.0512771 -0.0953923 0.825048
0.0521891 -0.096312 0.824735
0.0531074 -0.0972559 0.82451
0.05415 -0.0986391 0.825827
0.0547189 -0.102759 0.83335
0.0557717 -0.102042 0.834193
-0.027365 -0.021419 0.878963
-0.0263197 -0.0203283 0.878366
-0.0253156 -0.0210828 0.876699
-0.0242453 -0.0212099 0.871459
-0.0241789 -0.0220757 0.864965
-0.0231424 -0.020898 0.863795
-0.0209415 -0.0196844 0.845476
-0.0199262 -0.0196901 0.839918
-0.0189946 -0.0206209 0.839552
-0.0180614 -0.0215197 0.839013
-0.0171281 -0.0224006 0.838382
-0.0161974 -0.023309 0.837906
-0.0152678 -0.0242223 0.837461
-0.01434 -0.0251633 0.837169
-0.0134126 -0.0261018 0.836864
-0.0124854 -0.0270357 0.836539
-0.011558 -0.0279393 0.836056
-0.0106311 -0.0288302 0.835512
-0.00970422 -0.0296218 0.83446
-0.00877938 -0.0303744 0.833219
-0.00785716 -0.0310708 0.831706
-0.00693818 -0.0317644 0.830196
-0.00602274 -0.0324331 0.828577
-0.00510891 -0.0331899 0.827419
-0.00419703 -0.0339587 0.826334
-0.00328701 -0.0347416 0.825329
-0.00237951 -0.0355072 0.82425
-0.00147354 -0.0362863 0.823249
-0.000571688 -0.0370185 0.822031
0.00032984 -0.0377912 0.821022
0.00123047 -0.0385787 0.820093
0.00213251 -0.0394165 0.819414
0.00303267 -0.0402442 0.818694
0.00393449 -0.0411118 0.818168
0.00483513 -0.0419733 0.817618
0.00573353 -0.0428205 0.817006
0.00663127 -0.0436698 0.81641
0.0075337 -0.04458 0.816098
0.00843464 -0.0454781 0.815733
0.00932869 -0.0463149 0.815093
0.0102242 -0.0471739 0.814558
0.0111167 -0.0480146 0.813947
0.0120069 -0.0488432 0.813285
0.0129021 -0.0497222 0.812854
0.0138004 -0.0506299 0.812553
0.0146924 -0.0514919 0.812052
0.0155868 -0.0523766 0.811655
0.0164833 -0.0532798 0.811341
0.0173802 -0.0541884 0.811052
0.0182728 -0.0550704 0.810651
0.0191709 -0.0559911 0.810417
0.0200709 -0.0569247 0.81024
0.0209798 -0.057914 0.810298
0.021889 -0.0589024 0.810349
0.0228157 -0.0599919 0.810821
0.0237373 -0.0610448 0.811134
0.0246528 -0.0620587 0.811281
0.0255657 -0.0630549 0.811353
0.0264827 -0.0640711 0.811504
0.0273882 -0.0650244 0.811395
0.0283101 -0.0660606 0.811622
0.0292318 -0.067093 0.81183
0.0301522 -0.0681161 0.811997
0.0310699 -0.0691226 0.812095
0.0320095 -0.070232 0.812598
0.0329438 -0.0713109 0.812974
0.0338965 -0.07247 0.813659
0.0348483 -0.0736182 0.814294
0.0358099 -0.074804 0.815067
0.0367685 -0.0759692 0.81575
0.0377465 -0.0772116 0.816722
0.0387074 -0.0783722 0.817369
0.0396695 -0.0795334 0.818015
0.040645 -0.0807419 0.818827
0.0416323 -0.0819932 0.819793
0.0426264 -0.0832646 0.820825
0.043626 -0.0845489 0.821892
0.0446412 -0.085886 0.823144
0.0456416 -0.0871577 0.824142
0.0466196 -0.0883338 0.824775
0.0475722 -0.0894093 0.825034
0.0485288 -0.0904971 0.825331
0.0494691 -0.0915225 0.825402
0.0503942 -0.0924905 0.825261
0.0513189 -0.0934565 0.825113
0.0522317 -0.0943802 0.824814
0.0531381 -0.0952813 0.824435
0.0540547 -0.0962202 0.824193
0.0552253 -0.0980412 0.827064
0.0568526 -0.101413 0.835351
-0.0252755 -0.0192349 0.877743
-0.0242797 -0.0200394 0.876362
-0.0232025 -0.0200427 0.870376
-0.0221023 -0.0196562 0.86224
-0.0220374 -0.0203648 0.854987
-0.0210183 -0.0192227 0.853952
-0.0199538 -0.0187727 0.845688
-0.0189337 -0.0186353 0.83929
-0.0180022 -0.0195513 0.838846
-0.0170702 -0.020446 0.838287
-0.0161391 -0.021341 0.837735
-0.0152106 -0.022266 0.837353
-0.0142833 -0.0232073 0.837061
-0.0133568 -0.0241624 0.836847
-0.01243 -0.0251001 0.83654
-0.0115035 -0.0260333 0.836212
-0.010577 -0.0269368 0.83573
-0.00965106 -0.0278282 0.835188
-0.00872588 -0.0286471 0.834275
-0.00780257 -0.0294157 0.833112
-0.0068822 -0.0301282 0.831674
-0.00596496 -0.0308251 0.830173
-0.00505121 -0.031509 0.828624
-0.00413869 -0.0322679 0.82747
-0.00322797 -0.0330413 0.826402
-0.00231939 -0.033815 0.825347
-0.00141174 -0.0346123 0.82442
-0.000506681 -0.0353932 0.823421
0.000394042 -0.0361291 0.822215
0.00129458 -0.0369022 0.821202
0.00219501 -0.0377012 0.820323
0.00309533 -0.0385226 0.819562
0.00399466 -0.0393485 0.818829
0.00489634 -0.0402187 0.818313
0.00579656 -0.0410827 0.817771
0.00669464 -0.041931 0.817162
0.00759172 -0.0427804 0.816563
0.00849404 -0.0436895 0.816245
0.00939505 -0.0445915 0.815897
0.0102903 -0.0454442 0.815326
0.0111854 -0.046303 0.814787
0.0120749 -0.047122 0.814074
0.0129617 -0.0479299 0.813317
0.013852 -0.0487736 0.812727
0.0147462 -0.0496534 0.812302
0.0156373 -0.0505148 0.811799
0.0165337 -0.051419 0.811488
0.0174322 -0.0523392 0.811248
0.0183295 -0.0532528 0.810981
0.0192266 -0.0541662 0.810714
0.0201275 -0.0551055 0.81056
0.021033 -0.0560728 0.810526
0.0219432 -0.057067 0.810604
0.0228587 -0.0580891 0.810798
0.0237834 -0.0591598 0.811192
0.0247059 -0.0602121 0.811503
0.025622 -0.0612257 0.811649
0.0265358 -0.0622234 0.811726
0.0274503 -0.0632229 0.811808
0.0283528 -0.0641589 0.811629
0.0292703 -0.0651704 0.811756
0.0301818 -0.0661502 0.811753
0.0310985 -0.0671536 0.811843
0.0320162 -0.0681591 0.811939
0.0329563 -0.0692672 0.812441
0.0338913 -0.0703471 0.812824
0.0348451 -0.0715062 0.813514
0.0358014 -0.0726699 0.814215
0.0367639 -0.073854 0.814986
0.0377276 -0.075036 0.815739
0.0387066 -0.0762758 0.816708
0.0396729 -0.0774549 0.817431
0.0406408 -0.0786345 0.81815
0.0416185 -0.0798455 0.818975
0.0426072 -0.0810958 0.819943
0.0436028 -0.0823653 0.820972
0.0446034 -0.0836467 0.822035
0.0456107 -0.0849436 0.823141
0.0466122 -0.0862115 0.82413
0.0475895 -0.0873827 0.824751
0.0485435 -0.0884611 0.825021
0.0494964 -0.0895321 0.82526
0.0504368 -0.0905576 0.825333
0.0513615 -0.0915236 0.825185
0.0522856 -0.092489 0.825037
0.0531926 -0.0933936 0.824668
0.0540977 -0.0942915 0.824278
0.0550115 -0.0952232 0.824012
0.0561987 -0.0970832 0.827033
0.0578254 -0.100407 0.835191
-0.0251998 -0.0170926 0.877061
-0.0242313 -0.0181275 0.877028
-0.0232352 -0.0189069 0.875497
-0.0221473 -0.0187215 0.86838
-0.0210637 -0.0183903 0.860524
-0.0199947 -0.0179965 0.852421
-0.0189486 -0.0176377 0.844632
-0.0179423 -0.0175723 0.838606
-0.0170117 -0.0184824 0.838131
-0.0160819 -0.0193892 0.837643
-0.0151521 -0.0202833 0.837089
-0.0142252 -0.0212207 0.836778
-0.0132989 -0.0221618 0.83649
-0.0123736 -0.02313 0.83635
-0.0114475 -0.0240549 0.835978
-0.0105219 -0.0249888 0.835656
-0.00959655 -0.0258954 0.835192
-0.00867193 -0.0268008 0.834726
-0.00774833 -0.0276222 0.833824
-0.00682682 -0.0284027 0.83272
-0.00590813 -0.0291442 0.831428
-0.00499313 -0.029841 0.82992
-0.004081 -0.0305428 0.828456
-0.00316999 -0.0313026 0.827302
-0.00226013 -0.0320928 0.826314
-0.00135225 -0.0328811 0.825327
-0.000444851 -0.0336952 0.82448
0.000460049 -0.0344938 0.823565
0.00136136 -0.0352617 0.822508
0.0022612 -0.0360377 0.821502
0.00316005 -0.0368252 0.820563
0.00405959 -0.0376449 0.819788
0.00495841 -0.038472 0.819056
0.00585976 -0.0393426 0.81854
0.00676002 -0.0402106 0.818014
0.00765769 -0.0410597 0.817404
0.00855444 -0.0419093 0.816803
0.00945527 -0.0428059 0.816425
0.0103562 -0.0437074 0.816072
0.0112529 -0.0445771 0.815577
0.0121476 -0.0454364 0.815037
0.0130344 -0.0462388 0.814244
0.013918 -0.0470274 0.813396
0.0148028 -0.0478357 0.812645
0.015694 -0.0486981 0.812142
0.0165845 -0.049561 0.811645
0.0174833 -0.0504835 0.811415
0.018384 -0.0514206 0.81125
0.0192836 -0.0523507 0.811055
0.0201831 -0.05328 0.810856
0.0210871 -0.0542369 0.810777
0.0219964 -0.0552252 0.810833
0.0229104 -0.0562378 0.81099
0.0238296 -0.057276 0.811251
0.0247523 -0.0583294 0.811573
0.0256749 -0.0593772 0.811866
0.0265885 -0.0603733 0.811939
0.0274994 -0.0613539 0.811945
0.0284107 -0.0623349 0.811952
0.0293055 -0.063233 0.811616
0.0302086 -0.0641731 0.811453
0.0311081 -0.0650966 0.811223
0.0320195 -0.0660757 0.81122
0.0329372 -0.067083 0.811328
0.0338826 -0.0682131 0.811925
0.0348301 -0.069347 0.812528
0.0357919 -0.0705374 0.813349
0.0367534 -0.0717189 0.814124
0.0377129 -0.0728847 0.814829
0.0386817 -0.0740833 0.815653
0.0396579 -0.075305 0.816557
0.0406297 -0.0765014 0.817352
0.0415991 -0.0776826 0.818081
0.0425829 -0.0789124 0.818985
0.0435735 -0.0801632 0.81996
0.0445751 -0.0814486 0.821055
0.0455772 -0.0827281 0.822115
0.04658 -0.0840019 0.823142
0.0475774 -0.0852479 0.824053
0.0485503 -0.0863971 0.824595
0.0495043 -0.0874739 0.824863
0.0504575 -0.0885458 0.82511
0.0514048 -0.0895937 0.825264
0.0523344 -0.0905793 0.825191
0.0532591 -0.0915453 0.825043
0.0541592 -0.0924278 0.824595
0.055056 -0.0933015 0.824119
0.0559692 -0.0942312 0.823845
0.0571603 -0.096089 0.826876
0.0587919 -0.0993835 0.834962
0.0629674 -0.110969 0.861261
0.0612934 -0.107629 0.853281
0.0622639 -0.106522 0.852844
0.0639252 -0.109781 0.860576
-0.0251456 -0.015128 0.877424
-0.0241701 -0.0161037 0.877037
-0.0231967 -0.0170931 0.876734
-0.0222012 -0.0178584 0.875114
-0.0211395 -0.0178657 0.86908
-0.0200646 -0.01754 0.861198
-0.0190039 -0.0171455 0.853031
-0.0179668 -0.0167974 0.845246
-0.0169668 -0.0167346 0.839193
-0.0160239 -0.0174272 0.837485
-0.0150953 -0.0183343 0.837001
-0.0141669 -0.0192289 0.836452
-0.013241 -0.0201644 0.836135
-0.0123153 -0.0210906 0.835769
-0.011391 -0.0220564 0.835621
-0.0104663 -0.022995 0.835327
-0.00954191 -0.0239442 0.835092
-0.00861769 -0.0248659 0.83471
-0.00769414 -0.0257732 0.834256
-0.00677194 -0.0266086 0.833427
-0.00585219 -0.0273904 0.832327
-0.00493546 -0.028136 0.831051
-0.00402266 -0.028834 0.829545
-0.00311178 -0.0295645 0.828222
-0.00220185 -0.0303383 0.827136
-0.00129264 -0.0311444 0.826225
-0.00038528 -0.0319473 0.825307
0.00052261 -0.032789 0.824594
0.00142741 -0.0336024 0.823748
0.00232997 -0.0344046 0.822854
0.00323045 -0.0352008 0.821941
0.00412909 -0.0359941 0.821023
0.00502689 -0.0367992 0.820171
0.00592513 -0.0376246 0.819426
0.00682506 -0.0384816 0.81884
0.00772376 -0.0393369 0.818251
0.00862284 -0.0402039 0.817722
0.00952062 -0.0410668 0.817179
0.0104214 -0.0419631 0.816796
0.0113223 -0.0428642 0.816439
0.012221 -0.0437517 0.816022
0.013116 -0.0446146 0.815494
0.0140011 -0.0454085 0.814657
