ply
format ascii 1.0
element vertex 1485
property float x
property float y
property float z
end_header
0.0479032 -0.0667525 -0.000127551
0.0479897 -0.0664948 -0.000517343
0.0480136 -0.0662313 -0.00110031
0.0479987 -0.0659651 -0.00180037
0.0479798 -0.0657004 -0.00250778
0.0479587 -0.0654374 -0.00321762
0.047955 -0.0651779 -0.00386906
0.0479852 -0.0649231 -0.00441246
0.0480509 -0.0646726 -0.00484381
0.0481063 -0.0644224 -0.00530384
0.0481668 -0.0641737 -0.00574534
0.0482375 -0.0639268 -0.00615375
0.0483189 -0.0636816 -0.00652705
0.0483967 -0.0634371 -0.00690914
0.0484959 -0.0631947 -0.00722484
0.0486165 -0.0629542 -0.00747503
0.048729 -0.0627138 -0.00774799
0.0488405 -0.062474 -0.00802246
0.0489435 -0.0622344 -0.00832029
0.0490386 -0.0619952 -0.00863985
0.0491236 -0.0617565 -0.00898724
0.0492161 -0.0615187 -0.00931069
0.0493247 -0.0612821 -0.00958535
0.0494291 -0.061046 -0.00987089
0.0495371 -0.0608105 -0.0101444
0.0496543 -0.0605758 -0.01039
0.0497876 -0.0603416 -0.010588
0.0499353 -0.0601079 -0.0107441
0.0501168 -0.0598745 -0.0108032
0.0503054 -0.0596409 -0.0108422
0.0504935 -0.0594074 -0.0108826
0.0506912 -0.0591736 -0.0108959
0.0508836 -0.0589398 -0.0109248
0.0510768 -0.0587059 -0.0109516
0.0512971 -0.0584713 -0.0109026
0.0515472 -0.0582355 -0.0107717
0.0518188 -0.0579986 -0.0105824
0.0520826 -0.0577612 -0.0104164
0.0523432 -0.0575234 -0.0102608
0.0525827 -0.0572858 -0.0101642
0.0527879 -0.0570495 -0.0101629
0.0529709 -0.0568141 -0.0102223
0.0531422 -0.0565793 -0.0103136
0.0533166 -0.0563445 -0.0103966
0.0534854 -0.05611 -0.0104943
0.0536621 -0.0558751 -0.0105703
0.0538351 -0.0556405 -0.0106563
0.0540348 -0.0554041 -0.0106709
0.0542401 -0.0551671 -0.0106706
0.0544483 -0.0549298 -0.0106631
0.0546748 -0.0546907 -0.0106076
0.0549076 -0.0544508 -0.0105361
0.0551348 -0.0542111 -0.0104802
0.0553615 -0.0539711 -0.0104267
0.055612 -0.0537286 -0.0103114
0.0558487 -0.0534869 -0.010233
0.0560923 -0.0532442 -0.0101379
0.0563449 -0.0530001 -0.0100204
0.0566092 -0.0527543 -0.00987355
0.0568592 -0.0525096 -0.00976516
0.0571353 -0.0522614 -0.00959058
0.0574307 -0.0520104 -0.00936842
0.0577397 -0.051757 -0.00911303
0.0580521 -0.0515023 -0.00885122
0.0583722 -0.0512458 -0.00857175
0.0586736 -0.0509909 -0.00834161
0.0589665 -0.0507365 -0.00813479
0.0592459 -0.0504832 -0.00796357
0.059508 -0.0502318 -0.00783712
0.0597972 -0.0499761 -0.00764391
0.0601148 -0.0497155 -0.00738182
0.0604373 -0.0494533 -0.00710951
0.0607675 -0.0491892 -0.0068204
0.0611148 -0.0489215 -0.006491
0.0614448 -0.0486556 -0.00620662
0.0617633 -0.0483907 -0.00595256
0.0623745 -0.0483164 -0.00562515
0.0620895 -0.0481238 -0.0056817
0.0470109 -0.0675499 0.000536299
0.0471641 -0.0672988 0.000351812
0.0473032 -0.0670462 0.000123498
0.047402 -0.0667892 -0.000231414
0.0475161 -0.0665349 -0.000535654
0.0476068 -0.0662787 -0.000912198
0.0476431 -0.0660175 -0.00145689
0.0476586 -0.0657557 -0.00206296
0.0476651 -0.0654946 -0.00269332
0.0476641 -0.0652345 -0.00334282
0.0476777 -0.0649773 -0.00394278
0.0477187 -0.0647241 -0.00445443
0.047785 -0.0644742 -0.00488524
0.0478468 -0.064225 -0.00532729
0.0479099 -0.063977 -0.00576229
0.0479771 -0.0637303 -0.00618226
0.048059 -0.0634856 -0.00655543
0.0481412 -0.0632418 -0.0069253
0.0482411 -0.0629998 -0.00723982
0.0483676 -0.0627599 -0.00747281
0.048491 -0.0625202 -0.00771408
0.0486134 -0.0622811 -0.00795688
0.0487343 -0.0620424 -0.0082028
0.0488488 -0.0618041 -0.00846661
0.048948 -0.0615659 -0.00877363
0.0490505 -0.0613284 -0.00906942
0.0491629 -0.0610918 -0.00933461
0.0492547 -0.0608554 -0.00965848
0.0493567 -0.0606199 -0.00995092
0.0494741 -0.0603852 -0.0101973
0.0496042 -0.060151 -0.0104057
0.0497474 -0.0599172 -0.0105755
0.0499277 -0.0596836 -0.0106382
0.0501106 -0.0594499 -0.0106937
0.0502935 -0.0592163 -0.0107492
0.0504909 -0.0589824 -0.0107636
0.0506776 -0.0587485 -0.0108085
0.0508645 -0.0585147 -0.0108531
0.0510734 -0.0582802 -0.0108362
0.0513117 -0.0580445 -0.0107374
0.0515716 -0.0578077 -0.0105797
0.0518232 -0.0575706 -0.0104462
0.0520714 -0.0573331 -0.0103238
0.0522981 -0.0570962 -0.0102616
0.052491 -0.0568605 -0.0102934
0.052663 -0.056626 -0.0103824
0.0528329 -0.0563916 -0.0104769
0.0530016 -0.0561574 -0.0105745
0.0531759 -0.0559229 -0.0106566
0.0533635 -0.0556876 -0.0107029
0.0535476 -0.0554525 -0.0107584
0.053754 -0.0552157 -0.0107542
0.0539771 -0.0549774 -0.0107058
0.0541912 -0.0547396 -0.0106818
0.0544236 -0.0545 -0.01061
0.0546626 -0.0542595 -0.0105216
0.0548957 -0.0540191 -0.0104495
0.0551168 -0.0537795 -0.0104101
0.0553657 -0.0535369 -0.010298
0.0555945 -0.053296 -0.0102399
0.055831 -0.0530539 -0.0101624
0.0560778 -0.0528103 -0.0100591
0.0563365 -0.052565 -0.00992583
0.0565855 -0.0523203 -0.00981875
0.0568551 -0.0520727 -0.00965998
0.0571428 -0.0518224 -0.00945583
0.0574453 -0.0515695 -0.00921561
0.0577506 -0.0513155 -0.00896996
0.0580636 -0.0510598 -0.00870683
0.0583641 -0.0508048 -0.00847754
0.0586562 -0.0505504 -0.00827099
0.0589352 -0.0502971 -0.00809942
0.0592026 -0.0500449 -0.00795817
0.0594901 -0.0497893 -0.00776784
0.0598074 -0.0495285 -0.00750477
0.0601293 -0.0492662 -0.00723231
0.0604528 -0.0490028 -0.00695788
0.0607931 -0.0487359 -0.00664376
0.0611204 -0.0484703 -0.00636401
0.0614384 -0.0482053 -0.00610958
0.0617714 -0.047937 -0.00581989
0.0466826 -0.0673374 0.000310102
0.0467563 -0.0670766 -0.000128828
0.0468981 -0.0668253 -0.000347314
0.0469973 -0.0665694 -0.000700478
0.0471111 -0.0663161 -0.00100502
0.0472097 -0.0660618 -0.00135573
0.0472652 -0.0658038 -0.00184046
0.0473064 -0.0655458 -0.00236668
0.0473386 -0.0652882 -0.00291788
0.0473567 -0.0650308 -0.00350924
0.0473869 -0.0647759 -0.00405954
0.047438 -0.0645242 -0.00454124
0.0475047 -0.0642749 -0.00497191
0.0475778 -0.064027 -0.00538015
0.0476527 -0.0637804 -0.00578053
0.0477265 -0.0635346 -0.0061817
0.0478091 -0.0632903 -0.0065539
0.0478917 -0.0630469 -0.00692364
0.047991 -0.0628053 -0.00724108
0.0481183 -0.0625656 -0.00747228
0.0482478 -0.0623265 -0.00769575
0.0483815 -0.062088 -0.00790542
0.0485239 -0.0618503 -0.00808855
0.0486564 -0.0616126 -0.00829964
0.0487744 -0.0613749 -0.00855296
0.0488899 -0.0611377 -0.00881208
0.0490066 -0.0609011 -0.00906616
0.0490914 -0.0606647 -0.00941246
0.0491873 -0.0604291 -0.00972403
0.0493 -0.0601943 -0.00998561
0.0494259 -0.0599601 -0.0102072
0.0495639 -0.0597262 -0.010393
0.0497387 -0.0594925 -0.010472
0.0499145 -0.0592587 -0.0105484
0.0500912 -0.059025 -0.0106219
0.050283 -0.0587911 -0.0106524
0.0504642 -0.0585573 -0.0107128
0.0506405 -0.0583236 -0.0107875
0.0508378 -0.0580893 -0.010803
0.0510592 -0.0578541 -0.0107509
0.0513013 -0.0576178 -0.0106416
0.0515349 -0.0573814 -0.0105576
0.0517695 -0.0571445 -0.0104712
0.0519845 -0.0569083 -0.0104405
0.0521712 -0.0566732 -0.0104882
0.0523422 -0.0564391 -0.0105793
0.0525127 -0.0562051 -0.0106717
0.0526817 -0.0559712 -0.0107679
0.0528556 -0.0557371 -0.0108505
0.0530486 -0.0555017 -0.0108811
0.0532396 -0.0552664 -0.0109173
0.0534575 -0.0550289 -0.0108809
0.0536925 -0.0547897 -0.0107994
0.0539181 -0.054551 -0.0107442
0.0541571 -0.0543108 -0.0106536
0.0544071 -0.0540691 -0.010535
0.054641 -0.0538286 -0.0104603
0.0548615 -0.053589 -0.0104216
0.0551037 -0.053347 -0.0103264
0.055325 -0.0531068 -0.0102874
0.0555541 -0.0528654 -0.0102284
0.0557947 -0.0526225 -0.0101401
0.0560469 -0.0523778 -0.0100227
0.0563014 -0.0521325 -0.00990023
0.0565697 -0.0518849 -0.00974337
0.0568517 -0.0516351 -0.00955279
0.0571467 -0.051383 -0.00933017
0.0574491 -0.0511292 -0.00909022
0.0577544 -0.0508743 -0.00884505
0.0580599 -0.0506185 -0.0086011
0.0583532 -0.0503638 -0.00839018
0.0586323 -0.0501103 -0.00821668
0.0588991 -0.0498582 -0.0080757
0.0591851 -0.0496026 -0.00788785
0.0594944 -0.0493429 -0.00764312
0.0598222 -0.0490794 -0.007354
0.0601447 -0.0488159 -0.00708002
0.0604838 -0.048549 -0.00676732
0.0608095 -0.0482833 -0.00648963
0.0611266 -0.0480183 -0.00623543
0.0614532 -0.0477508 -0.00596002
0.0621061 -0.0476676 -0.00552848
0.0618067 -0.0474778 -0.00562031
0.0464203 -0.0668644 -0.000383051
0.0464941 -0.0666055 -0.000819878
0.0466003 -0.0663515 -0.00114964
0.0467158 -0.0660993 -0.00144789
0.0468269 -0.0658474 -0.00175875
0.0469016 -0.0655925 -0.00218269
0.0469722 -0.0653382 -0.00261689
0.047029 -0.0650838 -0.00309177
0.0470646 -0.0648288 -0.00362993
0.047101 -0.0645752 -0.0041624
0.0471528 -0.0643242 -0.00464337
0.04722 -0.0640755 -0.00507347
0.0472993 -0.0638287 -0.00546367
0.0473801 -0.0635829 -0.00584706
0.0474653 -0.0633384 -0.00621421
0.0475531 -0.0630948 -0.0065715
0.0476405 -0.0628521 -0.00692796
0.0477407 -0.0626108 -0.00724341
0.0478689 -0.0623714 -0.00747238
0.0479991 -0.0621326 -0.00769446
0.0481435 -0.0618947 -0.00787259
0.0482967 -0.0616575 -0.00802361
0.0484465 -0.0614203 -0.00818418
0.0485817 -0.0611832 -0.00838725
0.0487095 -0.0609463 -0.00861128
0.0488331 -0.0607098 -0.00884665
0.0489143 -0.0604734 -0.00920496
0.0490099 -0.0602379 -0.00951932
0.0491216 -0.0600031 -0.00978509
0.0492427 -0.0597688 -0.0100219
0.049375 -0.059535 -0.0102252
0.0495431 -0.0593011 -0.010324
0.0497071 -0.0590675 -0.0104347
0.0498725 -0.0588339 -0.0105408
0.0500585 -0.0586 -0.0105878
0.0502346 -0.0583663 -0.0106629
0.0504054 -0.0581328 -0.0107533
0.0505963 -0.0578988 -0.0107865
0.0508052 -0.0576639 -0.010769
0.0510285 -0.0574283 -0.0107119
0.0512384 -0.0571929 -0.0106929
0.0514604 -0.0569567 -0.0106406
0.0516628 -0.0567213 -0.0106436
0.0518439 -0.056487 -0.0107061
0.0520152 -0.0562532 -0.0107957
0.0521962 -0.0560189 -0.0108582
0.0523713 -0.0557849 -0.010937
0.0525467 -0.055551 -0.0110149
0.0527453 -0.0553155 -0.0110294
0.0529468 -0.0550795 -0.0110365
0.0531717 -0.0548416 -0.0109804
0.0534192 -0.0546014 -0.010864
0.0536627 -0.054361 -0.0107596
0.0539078 -0.0541202 -0.010652
0.0541578 -0.0538784 -0.0105325
0.054391 -0.0536378 -0.0104587
0.0546001 -0.0533994 -0.0104499
0.0548304 -0.0531585 -0.0103855
0.0550449 -0.052919 -0.0103635
0.0552669 -0.0526785 -0.0103224
0.0555063 -0.0524357 -0.010236
0.055758 -0.052191 -0.0101189
0.0560127 -0.0519456 -0.00999492
0.0562859 -0.0516973 -0.00982381
0.0565672 -0.0514474 -0.00963373
0.0568547 -0.0511961 -0.0094289
0.0571557 -0.0509423 -0.00919102
0.0574528 -0.0506882 -0.00896525
0.0577511 -0.0504333 -0.00873807
0.0580497 -0.0501776 -0.0085117
0.0583303 -0.0499239 -0.00833302
0.0586031 -0.0496708 -0.00817564
0.058895 -0.0494141 -0.00797137
0.0592025 -0.0491544 -0.00772971
0.0595224 -0.0488919 -0.00745873
0.0598432 -0.0486285 -0.00718719
0.060175 -0.0483624 -0.0068908
0.0604998 -0.0480966 -0.00661352
0.0608156 -0.0478316 -0.00636099
0.0611405 -0.0475642 -0.00608781
0.0614991 -0.0472899 -0.00573369
0.0621421 -0.0472071 -0.00532757
0.0618408 -0.0470177 -0.00542335
0.0462077 -0.0669368 0.000441238
0.0460983 -0.0666544 -0.000594945
0.0461037 -0.0663884 -0.00125292
0.0462315 -0.0661377 -0.00151289
0.0463591 -0.0658877 -0.00177189
0.0464816 -0.0656377 -0.0020458
0.0465732 -0.0653853 -0.00241659
0.0466602 -0.0651334 -0.00279952
0.0467239 -0.0648803 -0.00325365
0.0467662 -0.0646266 -0.00377211
0.0468135 -0.0643747 -0.00427154
0.0468713 -0.0641248 -0.00473508
0.0469399 -0.0638767 -0.00516195
0.0470254 -0.0636309 -0.00553391
0.0471117 -0.063386 -0.00590113
0.0472027 -0.0631422 -0.00625169
0.0472918 -0.0628992 -0.00660596
0.0473904 -0.0626574 -0.00692925
0.0474958 -0.0624167 -0.00722977
0.0476294 -0.0621778 -0.00744318
0.0477602 -0.0619392 -0.00766387
0.04791 -0.0617016 -0.00782605
0.0480637 -0.0614645 -0.00797607
0.0482191 -0.0612276 -0.00812029
0.0483604 -0.0609907 -0.0083058
0.0484949 -0.060754 -0.00851066
0.0486261 -0.0605177 -0.00872442
0.0487143 -0.0602816 -0.00906402
0.0488108 -0.0600462 -0.00937706
0.0489224 -0.0598115 -0.00964394
0.0490421 -0.0595774 -0.00988617
0.0491687 -0.0593436 -0.0101068
0.0493309 -0.0591098 -0.0102233
0.0494889 -0.0588763 -0.0103515
0.0496484 -0.0586428 -0.0104748
0.0498292 -0.058409 -0.0105369
0.050005 -0.0581754 -0.0106131
0.0501702 -0.0579421 -0.0107194
0.0503548 -0.0577083 -0.0107702
0.0505509 -0.0574739 -0.0107887
0.0507514 -0.0572392 -0.010795
0.0509418 -0.0570049 -0.0108301
0.0511505 -0.0567695 -0.0108141
0.0513417 -0.056535 -0.0108474
0.0515233 -0.0563009 -0.0109075
0.0517055 -0.0560668 -0.0109662
0.0518929 -0.0558323 -0.0110102
0.052074 -0.0555983 -0.011072
0.0522549 -0.0553642 -0.0111341
0.0524537 -0.0551288 -0.0111474
0.0526604 -0.0548926 -0.0111392
0.0528861 -0.0546546 -0.0110801
0.0531399 -0.0544138 -0.0109456
0.0533907 -0.0541728 -0.0108205
0.0536413 -0.0539314 -0.0106972
0.0538911 -0.0536895 -0.010577
0.0541281 -0.0534485 -0.0104924
0.0543368 -0.05321 -0.0104839
0.0545608 -0.0529698 -0.0104355
0.0547745 -0.0527305 -0.010415
0.0549896 -0.0524907 -0.0103912
0.0552228 -0.0522486 -0.0103205
0.0554687 -0.0520046 -0.0102173
0.0557279 -0.0517585 -0.0100804
0.0560017 -0.0515101 -0.00990635
0.0562831 -0.05126 -0.00971453
0.0565699 -0.0510086 -0.00951018
0.0568635 -0.0507556 -0.00928991
0.0571521 -0.0505025 -0.00908413
0.0574499 -0.0502475 -0.0088566
0.0577543 -0.0499908 -0.00861398
0.0580415 -0.0497359 -0.00841728
0.0583205 -0.0494817 -0.00824287
0.0586113 -0.049225 -0.00803989
0.0589122 -0.0489661 -0.00781317
0.0592244 -0.0487046 -0.00755993
0.0595442 -0.048441 -0.00728944
0.0598809 -0.0481738 -0.00697862
0.0602058 -0.0479077 -0.0066998
0.0605203 -0.0476426 -0.00644872
0.0608429 -0.0473753 -0.00617939
0.061193 -0.0471022 -0.00584436
0.0615339 -0.0468298 -0.00553424
0.0465346 -0.0683597 0.00500436
0.0461373 -0.0684127 0.00527399
0.0462626 -0.0681505 0.00497553
0.0466852 -0.0681015 0.0047923
0.0464116 -0.0678923 0.00475745
0.0468601 -0.0678472 0.00466115
0.0465842 -0.0676379 0.00461887
0.0466592 -0.0675419 0.0032986
0.0464475 -0.0673425 0.00346179
0.0462303 -0.0670401 0.00204955
0.0460057 -0.0667408 0.000622962
0.0458334 -0.0664518 -0.000622858
0.0457748 -0.0661791 -0.00149124
0.0459112 -0.06593 -0.00172312
0.0460441 -0.0656811 -0.00196498
0.0461672 -0.0654318 -0.002237
0.046268 -0.0651809 -0.00257895
0.046355 -0.0649296 -0.0029625
0.0464194 -0.0646773 -0.00341523
0.0464678 -0.0644249 -0.00391585
0.0465211 -0.0641741 -0.00439764
0.0465848 -0.0639253 -0.00484396
0.0466549 -0.063678 -0.00526718
0.0467458 -0.063433 -0.00562334
0.0468381 -0.063189 -0.00597251
0.0469348 -0.062946 -0.00630649
0.0470256 -0.0627035 -0.00665649
0.0471358 -0.0624627 -0.00694472
0.0472425 -0.0622224 -0.0072422
0.0473764 -0.0619837 -0.00745483
0.0475111 -0.0617455 -0.00766427
0.0476659 -0.0615082 -0.00781169
0.0478161 -0.0612711 -0.00797259
0.0479715 -0.0610344 -0.00811702
0.0481122 -0.0607977 -0.0083048
0.0482511 -0.0605613 -0.00849699
0.0483878 -0.0603253 -0.00869503
0.0484883 -0.0600895 -0.00899891
0.0485966 -0.0598544 -0.0092783
0.0487188 -0.0596198 -0.00951521
0.0488337 -0.0593858 -0.00977244
0.0489552 -0.0591522 -0.0100091
0.0491118 -0.0589185 -0.0101423
0.049265 -0.0586851 -0.0102847
0.0494191 -0.0584518 -0.0104239
0.0495947 -0.0582182 -0.0105009
0.0497649 -0.0579848 -0.0105932
0.0499242 -0.0577518 -0.0107166
0.050098 -0.0575184 -0.010798
0.0502777 -0.0572849 -0.0108627
0.0504655 -0.0570509 -0.0109041
0.0506429 -0.0568175 -0.0109751
0.0508394 -0.056583 -0.0109926
0.0510292 -0.0563487 -0.0110288
0.0512171 -0.0561146 -0.0110708
0.0514062 -0.0558803 -0.0111095
0.0516049 -0.0556452 -0.0111214
0.0517971 -0.0554106 -0.011152
0.0519785 -0.0551767 -0.0112125
0.0521766 -0.0549414 -0.0112269
0.0523876 -0.0547049 -0.0112064
0.0526128 -0.054467 -0.0111477
0.0528616 -0.0542266 -0.0110257
0.053112 -0.0539855 -0.0109003
0.053362 -0.0537441 -0.0107774
0.0536053 -0.0535028 -0.0106736
0.0538361 -0.0532624 -0.0106044
0.0540492 -0.0530236 -0.0105838
0.0542725 -0.0527835 -0.0105361
0.054486 -0.0525443 -0.0105153
0.0547067 -0.052304 -0.010476
0.0549393 -0.0520619 -0.0104059
0.0551844 -0.051818 -0.0103035
0.055455 -0.0515703 -0.0101355
0.0557345 -0.0513209 -0.00994558
0.0560164 -0.0510706 -0.00975103
0.0563093 -0.050818 -0.00952942
0.0565957 -0.0505658 -0.00932657
0.0568722 -0.0503143 -0.00915092
0.0571681 -0.0500593 -0.00892689
0.0574717 -0.0498024 -0.00868474
0.0577591 -0.0495473 -0.00848589
0.0580508 -0.0492909 -0.00827798
0.0583416 -0.049034 -0.00807367
0.0586356 -0.0487759 -0.00786334
0.0589395 -0.0485155 -0.00762947
0.0592579 -0.0482518 -0.00736084
0.0595884 -0.0479853 -0.00706372
0.0599141 -0.0477188 -0.00678112
0.0602279 -0.0474535 -0.0065303
0.0605488 -0.0471862 -0.00626365
0.0608969 -0.0469131 -0.00593164
0.0612306 -0.0466417 -0.00563742
0.0618642 -0.0465586 -0.00525267
0.0615666 -0.0463691 -0.00534005
0.0454066 -0.0697162 0.00643795
0.0452208 -0.0699711 0.00653904
0.0450198 -0.0697731 0.00675691
0.045201 -0.0695171 0.00663915
0.0455958 -0.0694619 0.00634869
0.0453862 -0.0692619 0.00653554
0.0457693 -0.0692051 0.00620663
0.0455511 -0.0690036 0.00636316
0.0458948 -0.0689407 0.00590331
0.0456652 -0.0687374 0.00601996
0.0460211 -0.0686771 0.00560471
0.0457731 -0.0684711 0.00565769
0.045878 -0.0682052 0.00528778
0.0459939 -0.0679419 0.00495677
0.0461409 -0.0676837 0.00473165
0.0463122 -0.0674292 0.00458852
0.0461804 -0.0671357 0.00344315
0.0460083 -0.0668403 0.00217332
0.0457984 -0.0665439 0.000788248
0.0456078 -0.0662538 -0.000523414
0.0455008 -0.0659765 -0.00155326
0.0456348 -0.0657275 -0.0017934
0.0457635 -0.0654785 -0.00204928
0.0458807 -0.065229 -0.00234071
0.0459701 -0.0649776 -0.00271978
0.0460465 -0.064726 -0.00313798
0.0461011 -0.0644736 -0.00362288
0.0461503 -0.0642221 -0.00412209
0.0462092 -0.0639725 -0.00458703
0.046279 -0.0637248 -0.00501486
0.0463605 -0.0634789 -0.00540334
0.0464624 -0.0632352 -0.0057256
0.046565 -0.0629922 -0.00604356
0.0466778 -0.0627505 -0.00632806
0.0467802 -0.0625089 -0.00664341
0.0468971 -0.0622687 -0.00691177
0.0470047 -0.0620287 -0.00720748
0.0471383 -0.0617902 -0.00742178
0.0472632 -0.0615519 -0.0076616
0.0474129 -0.0613147 -0.00782483
0.0475574 -0.0610777 -0.00800295
0.0477076 -0.0608411 -0.00816315
0.047847 -0.0606046 -0.00835503
0.0479894 -0.0603686 -0.0085372
0.0481263 -0.0601328 -0.00873463
0.0482326 -0.0598974 -0.00902218
0.0483474 -0.0596627 -0.00928319
0.0484714 -0.0594283 -0.00951523
0.0485872 -0.0591946 -0.00977045
0.0487143 -0.0589612 -0.00999122
0.0488663 -0.0587277 -0.0101379
0.0490241 -0.0584943 -0.0102672
0.0491787 -0.0582612 -0.0104055
0.0493487 -0.0580278 -0.0104983
0.0495134 -0.0577946 -0.0106065
0.0496719 -0.0575619 -0.0107322
0.0498402 -0.0573289 -0.010829
0.0500095 -0.0570959 -0.0109232
0.0501808 -0.0568629 -0.0110111
0.0503512 -0.0566301 -0.0111018
0.0505405 -0.0563962 -0.0111385
0.0507265 -0.0561624 -0.0111849
0.0509203 -0.0559281 -0.0112094
0.0511208 -0.0556933 -0.0112153
0.0513254 -0.0554579 -0.0112105
0.0515235 -0.055223 -0.011224
0.0517104 -0.0549888 -0.0112686
0.0519082 -0.0547536 -0.0112835
0.0521234 -0.0545168 -0.0112507
0.0523468 -0.054279 -0.0111961
0.0525894 -0.054039 -0.01109
0.0528322 -0.0537986 -0.0109842
0.0530805 -0.0535573 -0.0108647
0.053317 -0.0533167 -0.0107783
0.0535426 -0.0530769 -0.0107223
0.0537558 -0.0528383 -0.0107001
0.0539738 -0.0525988 -0.0106658
0.0541867 -0.0523598 -0.0106458
0.0544069 -0.0521196 -0.0106066
0.05464 -0.0518776 -0.0105342
0.0548905 -0.051633 -0.0104164
0.0551777 -0.051383 -0.0102033
0.0554701 -0.0511317 -0.00997798
0.0557586 -0.0508801 -0.00976496
0.0560572 -0.0506265 -0.00952731
0.0563479 -0.0503733 -0.00931207
0.0566175 -0.0501225 -0.00915307
0.0569061 -0.0498683 -0.00894667
0.0572156 -0.0496102 -0.00868788
0.0575029 -0.0493549 -0.00848833
0.0577952 -0.0490981 -0.0082775
0.0580856 -0.0488409 -0.0080731
0.0583775 -0.0485828 -0.00786667
0.0586737 -0.0483234 -0.0076512
0.058997 -0.0480586 -0.00736878
0.0593287 -0.0477914 -0.00706732
0.059655 -0.0475243 -0.00678158
0.0599625 -0.0472598 -0.0065451
0.060275 -0.0469937 -0.006298
0.0606088 -0.0467229 -0.00599975
0.0609284 -0.0464538 -0.00573908
0.0612561 -0.0461825 -0.00546019
0.0450184 -0.0693217 0.00692073
0.0451817 -0.0690626 0.00674112
0.0453158 -0.0687991 0.00646253
0.0454109 -0.0685301 0.00605273
0.0455071 -0.0682623 0.00564938
0.0456073 -0.0679961 0.00526241
0.0457209 -0.0677328 0.00492287
0.0458542 -0.067473 0.00465138
0.0460107 -0.0672169 0.00445905
0.0459018 -0.0669275 0.00338559
0.0457524 -0.0666362 0.00218552
0.0455706 -0.0663445 0.000887064
0.0454093 -0.0660587 -0.000334294
0.0452605 -0.0657777 -0.00150591
0.0453944 -0.0655289 -0.00174734
0.0455184 -0.0652796 -0.00201938
0.0456205 -0.065029 -0.00236056
0.045694 -0.0647766 -0.00279208
0.045759 -0.0645246 -0.00324826
0.0458029 -0.064272 -0.00376886
0.0458477 -0.0640209 -0.00428317
0.045908 -0.0637721 -0.00474486
0.0459839 -0.0635255 -0.00515419
0.0460756 -0.0632809 -0.00551103
0.0461749 -0.0630375 -0.00584215
0.0462787 -0.0627951 -0.00615683
0.0463972 -0.0625541 -0.00642427
0.0465053 -0.0623133 -0.00672198
0.0466238 -0.0620735 -0.00698603
0.0467416 -0.0618342 -0.00725076
0.0468799 -0.0615962 -0.00745112
0.047004 -0.0613582 -0.00769406
0.0471532 -0.0611212 -0.00785892
0.0472928 -0.0608843 -0.00805222
0.047437 -0.0606479 -0.00823065
0.0475651 -0.0604117 -0.00845674
0.0477021 -0.0601759 -0.00865507
0.0478335 -0.0599405 -0.00886906
0.0479457 -0.0597057 -0.00913922
0.0480667 -0.0594713 -0.00938203
0.0482016 -0.0592372 -0.00958196
0.0483284 -0.0590037 -0.0098051
0.0484616 -0.0587705 -0.0100083
0.048614 -0.0585372 -0.010154
0.048772 -0.0583039 -0.0102829
0.0489262 -0.058071 -0.0104221
0.0490909 -0.0578379 -0.0105305
0.0492551 -0.057605 -0.0106401
0.0494181 -0.0573722 -0.0107527
0.0495864 -0.0571393 -0.0108495
0.049756 -0.0569065 -0.0109427
0.049926 -0.0566737 -0.0110344
0.0500908 -0.0564413 -0.0111404
0.0502751 -0.0562078 -0.0111911
0.0504616 -0.0559741 -0.0112356
0.050656 -0.0557399 -0.0112581
0.050857 -0.055505 -0.0112621
0.0510716 -0.055269 -0.0112285
0.0512757 -0.0550335 -0.0112249
0.0514691 -0.0547988 -0.0112512
0.0516673 -0.0545636 -0.0112645
0.0518874 -0.0543263 -0.011218
0.0521046 -0.0540889 -0.0111799
0.052335 -0.05385 -0.0111063
0.0525648 -0.0536109 -0.0110353
0.0528049 -0.0533703 -0.010937
0.0530291 -0.053131 -0.010883
0.0532492 -0.0528919 -0.0108408
0.0534629 -0.0526533 -0.0108165
0.0536808 -0.0524139 -0.0107816
0.0538993 -0.0521743 -0.0107457
0.0541196 -0.0519342 -0.0107056
0.0543578 -0.0516915 -0.0106185
0.0546092 -0.0514467 -0.0104971
0.0549028 -0.0511956 -0.0102654
0.0552019 -0.0509431 -0.0100212
0.0554974 -0.0506904 -0.00978823
0.0558014 -0.0504357 -0.00953513
0.0561027 -0.0501805 -0.00929093
0.0563715 -0.0499297 -0.00913326
0.0566538 -0.0496761 -0.00894168
0.056968 -0.0494169 -0.00866969
0.0572548 -0.0491613 -0.00847005
0.0575476 -0.048904 -0.00825691
0.0578377 -0.0486466 -0.00805221
0.0581287 -0.0483884 -0.00784711
0.0584166 -0.04813 -0.00765126
0.0587388 -0.0478649 -0.00737032
0.0590645 -0.0475984 -0.00708239
0.0593905 -0.047331 -0.00679594
0.059697 -0.0470664 -0.00656076
0.0600076 -0.0468003 -0.00631715
0.0603271 -0.0465317 -0.00605289
0.0606383 -0.046264 -0.00581154
0.0609511 -0.0459953 -0.00556821
0.0616283 -0.0459015 -0.00507371
0.0613072 -0.0457171 -0.00521944
0.0448541 -0.069129 0.00726798
0.0449906 -0.0688651 0.00699409
0.0450982 -0.0685973 0.0066229
0.0451602 -0.0683233 0.00609771
0.0452389 -0.0680532 0.00563335
0.0453195 -0.0677847 0.00517839
0.0454282 -0.0675211 0.00482163
0.0455469 -0.0672598 0.00450088
0.0456913 -0.0670026 0.00426804
0.0455926 -0.0667158 0.00322456
0.0454569 -0.0664275 0.00206558
0.0452952 -0.0661395 0.000828633
0.0451549 -0.0658573 -0.000328574
0.0450229 -0.0655792 -0.0014499
0.0451423 -0.0653291 -0.00173947
0.0452547 -0.065079 -0.00205016
0.0453364 -0.0648269 -0.00245907
0.0453982 -0.0645741 -0.00292939
0.045452 -0.0643219 -0.00342296
0.0454903 -0.0640697 -0.00396277
0.0455306 -0.0638191 -0.00449237
0.0455964 -0.0635715 -0.00493761
0.0456738 -0.0633257 -0.00534285
0.0457674 -0.0630818 -0.00569433
0.0458714 -0.0628392 -0.00601063
0.0459859 -0.0625979 -0.0062922
0.0461057 -0.0623575 -0.00655574
0.0462243 -0.0621176 -0.00682118
0.0463527 -0.0618786 -0.00705484
0.0464809 -0.0616401 -0.00728796
0.04662 -0.0614023 -0.00748586
0.0467444 -0.0611646 -0.0077284
0.046888 -0.0609277 -0.00791051
0.0470162 -0.060691 -0.00813887
0.0471448 -0.0604548 -0.00836484
0.0472676 -0.0602189 -0.00860711
0.0474043 -0.0599836 -0.00880602
0.0475369 -0.0597487 -0.00901651
0.0476598 -0.0595142 -0.00925493
0.0477906 -0.0592802 -0.00946827
0.0479263 -0.0590465 -0.00966635
0.0480586 -0.0588132 -0.00987333
0.0481922 -0.0585803 -0.0100753
0.0483453 -0.0583472 -0.0102189
0.0485035 -0.0581142 -0.0103472
0.0486621 -0.0578814 -0.0104736
0.0488271 -0.0576484 -0.0105807
0.0489959 -0.0574155 -0.0106768
0.0491649 -0.0571826 -0.010772
0.049334 -0.0569498 -0.0108666
0.0494988 -0.0567174 -0.0109732
0.0496631 -0.0564851 -0.011081
0.0498264 -0.056253 -0.0111916
0.0500006 -0.0560203 -0.0112706
0.0501877 -0.0557867 -0.011313
0.0503871 -0.0555522 -0.0113206
0.0505918 -0.0553171 -0.0113133
0.0508117 -0.0550807 -0.0112643
0.0510267 -0.0548443 -0.0112295
0.0512274 -0.054609 -0.0112355
0.0514268 -0.0543737 -0.0112451
0.0516468 -0.0541363 -0.0111981
0.0518528 -0.0538999 -0.0111904
0.0520712 -0.0536622 -0.0111493
0.0522837 -0.0534248 -0.0111248
0.052516 -0.053185 -0.0110467
0.0527336 -0.0529465 -0.0110098
0.0529528 -0.0527076 -0.010969
0.0531666 -0.0524691 -0.0109436
0.0533894 -0.0522293 -0.0108946
0.0536126 -0.0519891 -0.010845
0.0538382 -0.0517484 -0.0107897
0.0540774 -0.0515055 -0.0106989
0.0543339 -0.0512599 -0.0105629
0.0546391 -0.051007 -0.0102989
0.0549388 -0.0507541 -0.0100514
0.0552408 -0.0505001 -0.00980023
0.0555558 -0.0502434 -0.00951652
0.0558634 -0.049987 -0.00925447
0.0561327 -0.0497357 -0.00909451
0.0564212 -0.0494809 -0.00888612
0.0567341 -0.0492214 -0.00861604
0.0570202 -0.0489655 -0.00841733
0.0573124 -0.048708 -0.0082045
0.0575965 -0.0484513 -0.00801444
0.0578749 -0.0481948 -0.00784045
0.0581552 -0.0479375 -0.00766302
0.0584699 -0.0476734 -0.00739946
0.0587883 -0.0474079 -0.0071287
0.0591138 -0.0471402 -0.00684169
0.0594249 -0.0468744 -0.00659352
0.0597338 -0.0466083 -0.00635261
0.0600386 -0.0463422 -0.00612395
0.0603348 -0.0460772 -0.0059186
0.0606318 -0.0458114 -0.00571303
0.0609732 -0.0455359 -0.00539877
0.0444694 -0.0691862 0.00760311
0.0445833 -0.0689181 0.00724786
0.0446968 -0.0686508 0.00689365
0.044792 -0.0683815 0.00647845
0.0448533 -0.0681081 0.00594968
0.0449284 -0.0678382 0.00547181
0.0450164 -0.0675713 0.00504105
0.0451272 -0.0673086 0.00469068
0.0452347 -0.0670464 0.00433121
0.0453462 -0.0667855 0.00398788
0.0452599 -0.0665016 0.00298252
0.0451481 -0.0662176 0.00189942
0.0450166 -0.0659344 0.000758553
0.0449082 -0.0656568 -0.000297462
0.0448034 -0.0653825 -0.00133397
0.0448945 -0.0651298 -0.00171802
0.0449797 -0.0648776 -0.00211897
0.0450398 -0.0646241 -0.00259935
0.045087 -0.0643708 -0.00311862
0.0451353 -0.0641189 -0.00363098
0.045178 -0.063868 -0.00415765
0.045219 -0.0636182 -0.00468669
0.0452864 -0.0633714 -0.00512742
0.0453641 -0.0631263 -0.00553226
0.0454621 -0.0628833 -0.00587015
0.0455667 -0.0626414 -0.00618521
0.0456867 -0.0624009 -0.00644949
0.0458107 -0.0621611 -0.00669984
0.0459354 -0.0619219 -0.00694636
0.0460643 -0.0616834 -0.00717857
0.0461938 -0.0614453 -0.00740758
0.0463337 -0.061208 -0.0076032
0.0464592 -0.0609707 -0.00784246
0.0465977 -0.0607342 -0.00804033
0.0467199 -0.0604978 -0.00828713
0.046847 -0.060262 -0.00851761
0.0469693 -0.0600267 -0.0087615
0.0471122 -0.0597918 -0.00894152
0.0472507 -0.0595572 -0.00913417
0.0473796 -0.0593231 -0.00935477
0.0475114 -0.0590894 -0.00956542
0.0476467 -0.0588561 -0.00976432
0.0477791 -0.0586232 -0.00997129
0.0479178 -0.0583905 -0.0101583
0.0480763 -0.0581575 -0.0102858
0.0482393 -0.0579246 -0.0103997
0.0484036 -0.0576917 -0.0105093
0.0485637 -0.0574592 -0.0106309
0.0487332 -0.0572264 -0.0107245
0.0489079 -0.0569934 -0.010803
0.0490782 -0.0567607 -0.0108939
0.0492388 -0.0565287 -0.0110128
0.0494073 -0.0562963 -0.0111085
0.0495697 -0.0560644 -0.0112214
0.0497383 -0.0558322 -0.0113162
0.0499241 -0.0555988 -0.0113618
0.0501285 -0.055364 -0.0113545
0.0503331 -0.055129 -0.0113474
0.0505584 -0.054892 -0.0112822
0.0507792 -0.0546552 -0.0112305
0.0509862 -0.0544193 -0.0112183
0.0511917 -0.0541833 -0.0112107
0.0514115 -0.0539458 -0.0111639
0.0516112 -0.0537101 -0.0111734
0.0518233 -0.0534729 -0.011149
0.0520242 -0.0532367 -0.011156
0.0522396 -0.0529987 -0.0111234
0.052445 -0.0527617 -0.0111191
0.0526568 -0.0525238 -0.0110977
0.0528647 -0.0522861 -0.0110874
0.0530875 -0.0520464 -0.011037
0.0533165 -0.0518056 -0.0109708
0.0535474 -0.0515641 -0.0109002
0.053792 -0.0513206 -0.0107937
0.0540539 -0.0510741 -0.0106422
0.0543693 -0.0508195 -0.0103491
0.0546736 -0.0505656 -0.0100881
0.0549866 -0.0503097 -0.00980599
0.0553082 -0.0500515 -0.0095034
0.0556284 -0.0497927 -0.00920671
0.0558994 -0.0495409 -0.00904164
0.0561939 -0.0492847 -0.00881643
0.056506 -0.0490249 -0.00854727
0.0567911 -0.0487688 -0.0083501
0.0570768 -0.0485121 -0.00815332
0.0573605 -0.048255 -0.00796317
0.0576322 -0.0479995 -0.00780542
0.0579051 -0.0477432 -0.00764603
0.0582058 -0.0474812 -0.00741696
0.0585158 -0.0472169 -0.00716599
0.0588344 -0.0469501 -0.00689533
0.0591446 -0.0466842 -0.00664784
0.0594542 -0.0464177 -0.00640377
0.0597577 -0.0461516 -0.00617702
0.0600394 -0.0458893 -0.00600667
0.0603266 -0.0456253 -0.00582406
0.0606588 -0.0453513 -0.00553068
0.0612844 -0.0452658 -0.00516136
0.0609575 -0.0450836 -0.00532279
0.0442708 -0.0687004 0.00708113
0.0443734 -0.068432 0.00668831
0.0444708 -0.0681637 0.00628015
0.0445415 -0.0678926 0.00578265
0.0446297 -0.0676252 0.00534848
0.0447296 -0.0673606 0.00495767
0.0448419 -0.0670986 0.00461142
0.0449272 -0.066834 0.0041759
0.044995 -0.0665683 0.00368372
0.0449155 -0.0662867 0.00269849
0.0448173 -0.0660057 0.00165743
0.0447156 -0.0657271 0.000612089
0.0446451 -0.0654547 -0.000321546
0.0445778 -0.0651851 -0.00123763
0.0446451 -0.0649305 -0.00170214
0.0447067 -0.0646765 -0.00218247
0.0447439 -0.0644218 -0.00273932
0.0447723 -0.0641677 -0.00332139
0.0448171 -0.0639164 -0.00384618
0.0448622 -0.0636664 -0.0043667
0.0449041 -0.0634176 -0.00489372
0.0449764 -0.0631719 -0.00531942
0.0450546 -0.0629275 -0.00572366
0.0451576 -0.0626854 -0.0060457
0.0452661 -0.0624442 -0.00634861
0.0453913 -0.0622045 -0.0065964
0.045517 -0.0619653 -0.0068416
0.0456471 -0.0617267 -0.00707124
0.045776 -0.0614886 -0.00730365
0.0459113 -0.0612511 -0.00751476
0.0460523 -0.0610141 -0.00770709
0.0461738 -0.0607772 -0.00795865
0.0463065 -0.060541 -0.00817437
0.0464275 -0.0603051 -0.00842506
0.0465494 -0.0600697 -0.00867173
0.0466773 -0.0598348 -0.00889856
0.0468265 -0.0596003 -0.0090593
0.0469714 -0.0593661 -0.00923244
0.0471009 -0.0591324 -0.0094512
0.0472327 -0.058899 -0.00966206
0.0473631 -0.0586662 -0.00987588
0.0475001 -0.0584335 -0.0100689
0.0476387 -0.0582012 -0.0102566
0.0478025 -0.0579683 -0.0103678
0.0479714 -0.0577354 -0.0104642
0.0481416 -0.0575025 -0.0105562
0.0483023 -0.0572701 -0.0106759
0.0484771 -0.0570372 -0.010754
0.0486517 -0.0568044 -0.0108322
0.0488226 -0.0565717 -0.0109215
0.0489782 -0.0563402 -0.0110546
0.0491414 -0.0561083 -0.0111654
0.0493023 -0.0558767 -0.0112827
0.04947 -0.0556448 -0.0113798
0.0496513 -0.0554119 -0.0114378
0.0498603 -0.0551768 -0.0114167
0.0500705 -0.0549413 -0.0113929
0.0503015 -0.0547039 -0.0113107
0.0505285 -0.0544664 -0.0112409
0.0507461 -0.0542295 -0.0111984
0.050957 -0.0539929 -0.0111752
0.051176 -0.0537554 -0.01113
0.0513692 -0.0535203 -0.0111576
0.0515794 -0.0532832 -0.0111379
0.0517745 -0.0530477 -0.0111606
0.0519793 -0.0528109 -0.0111568
0.0521774 -0.0525748 -0.011172
0.0523826 -0.0523377 -0.0111678
0.052578 -0.0521017 -0.0111909
0.0527955 -0.0518627 -0.0111541
0.0530302 -0.0516211 -0.0110713
0.0532624 -0.0513796 -0.0109962
0.0535123 -0.0511352 -0.0108746
0.0537793 -0.0508879 -0.010708
0.054099 -0.0506323 -0.0104017
0.054409 -0.0503773 -0.0101237
0.0547331 -0.0501193 -0.0098104
0.0550606 -0.0498598 -0.00949069
0.0553876 -0.0495995 -0.00917451
0.0556647 -0.0493464 -0.00899241
0.0559594 -0.0490897 -0.0087655
0.056271 -0.0488295 -0.00849624
0.0565558 -0.0485732 -0.00829899
0.0568348 -0.0483172 -0.00811845
0.0571176 -0.04806 -0.00792983
0.0573821 -0.0478055 -0.00778995
0.0576476 -0.0475503 -0.00764859
0.0579337 -0.0472908 -0.00745585
0.0582354 -0.0470277 -0.00722446
0.0585462 -0.0467621 -0.00697197
0.0588573 -0.0464957 -0.00672052
0.0591682 -0.0462286 -0.00647171
0.0594723 -0.0459621 -0.00624179
0.0597521 -0.0457 -0.00607516
0.0600302 -0.0454377 -0.00591411
0.060354 -0.0451652 -0.00564004
0.0606592 -0.0448958 -0.00541435
0.0612797 -0.0448102 -0.00505836
0.0609816 -0.0446221 -0.00514777
0.0440437 -0.0682127 0.00645854
0.0441365 -0.0679444 0.00603378
0.0442236 -0.0676765 0.00559207
0.044328 -0.0674122 0.00521345
0.0444356 -0.0671491 0.0048479
0.0445474 -0.0668876 0.00449954
0.0446109 -0.0666209 0.00398838
0.0446386 -0.0663512 0.00335886
0.0445749 -0.0660728 0.002424
0.0444983 -0.0657955 0.00145229
0.0444324 -0.0655221 0.000523844
0.0443997 -0.0652544 -0.000286947
0.0443645 -0.0649887 -0.00110013
0.0444005 -0.0647316 -0.00167079
0.0444379 -0.0644761 -0.00223284
0.0444539 -0.0642202 -0.00286185
0.0444725 -0.0639663 -0.00347807
0.0445197 -0.0637159 -0.0039961
0.0445714 -0.0634671 -0.00449628
0.0446147 -0.0632191 -0.00502048
0.0446834 -0.0629738 -0.00545881
0.044761 -0.06273 -0.00586575
0.0448641 -0.0624885 -0.006188
0.0449695 -0.0622477 -0.00650121
0.0450956 -0.0620085 -0.00674631
0.0452264 -0.0617699 -0.00697523
0.0453567 -0.0615318 -0.00720466
0.0454864 -0.0612941 -0.00743437
0.0456256 -0.0610571 -0.00763334
0.0457663 -0.0608205 -0.00782646
0.0458924 -0.0605841 -0.00806406
0.0460255 -0.0603483 -0.00827853
0.0461468 -0.0601128 -0.00852861
0.0462733 -0.0598779 -0.00876132
0.0464077 -0.0596433 -0.00896826
0.0465535 -0.0594091 -0.00913944
0.0467039 -0.0591751 -0.00929598
0.0468378 -0.0589416 -0.00950162
0.0469689 -0.0587086 -0.00971495
0.0470993 -0.0584761 -0.00992898
0.0472366 -0.0582437 -0.0101214
0.0473709 -0.0580118 -0.0103219
0.0475349 -0.0577791 -0.0104328
0.0476995 -0.0575466 -0.0105413
0.0478754 -0.0573136 -0.0106161
0.0480416 -0.0570812 -0.0107197
0.0482212 -0.0568482 -0.0107833
0.0483947 -0.0566155 -0.0108646
0.0485701 -0.0563828 -0.0109405
0.0487251 -0.0561515 -0.0110755
0.0488932 -0.0559194 -0.011172
0.0490547 -0.0556879 -0.0112877
0.0492226 -0.055456 -0.0113841
0.0494088 -0.0552228 -0.0114278
0.0496185 -0.0549876 -0.0114045
0.0498299 -0.054752 -0.0113768
0.0500613 -0.0545144 -0.0112925
0.0502934 -0.0542763 -0.0112078
0.0505111 -0.0540392 -0.0111644
0.050722 -0.0538026 -0.0111408
0.0509357 -0.0535655 -0.01111
0.0511277 -0.0533306 -0.0111406
0.0513317 -0.0530942 -0.0111379
0.0515207 -0.0528593 -0.0111773
0.0517145 -0.0526239 -0.0112035
0.0519058 -0.0523887 -0.0112366
0.0521034 -0.0521526 -0.0112527
0.0522922 -0.0519175 -0.0112934
0.05251 -0.0516786 -0.011255
0.052745 -0.051437 -0.0111704
0.0529822 -0.0511947 -0.0110805
0.0532374 -0.0509495 -0.0109432
0.05351 -0.0507012 -0.0107604
0.0538309 -0.0504451 -0.010449
0.0541523 -0.050188 -0.010139
0.0544825 -0.0499285 -0.00980775
0.0548158 -0.0496677 -0.00947074
0.0551422 -0.049407 -0.00915464
0.0554239 -0.0491528 -0.00895933
0.0557178 -0.048896 -0.00873333
0.0560293 -0.0486353 -0.00846295
0.0563144 -0.0483786 -0.00826401
0.0565928 -0.0481224 -0.008084
0.0568742 -0.0478651 -0.00789773
0.0571312 -0.0476118 -0.00777651
0.0573904 -0.0473576 -0.00765078
0.0576629 -0.0471003 -0.00749176
0.0579566 -0.0468384 -0.00727958
0.0582588 -0.0465743 -0.00704769
0.0585703 -0.0463075 -0.00679368
0.0588817 -0.04604 -0.0065419
0.0591933 -0.0457717 -0.00629156
0.0594726 -0.0455095 -0.00612483
0.0597501 -0.0452471 -0.00596427
0.0600662 -0.0449758 -0.00570793
0.0603702 -0.0447065 -0.00548372
0.0606849 -0.0444341 -0.00523486
0.0436211 -0.0679797 0.00589948
0.0437742 -0.0677216 0.00568635
0.0438984 -0.0674599 0.00537394
0.0440233 -0.067199 0.00506586
0.0441368 -0.0669374 0.00472019
0.0442423 -0.0666756 0.00434923
0.0442947 -0.0664082 0.00379863
0.0442955 -0.0661363 0.00307541
0.0442403 -0.0658602 0.00216672
0.0441803 -0.0655861 0.00124806
0.0441308 -0.0653155 0.000371797
0.0441187 -0.0650508 -0.000372132
0.0441114 -0.0647886 -0.00109491
0.0441328 -0.0645308 -0.00171676
0.0441543 -0.0642746 -0.00233368
0.0441641 -0.0640191 -0.00298511
0.0441777 -0.0637656 -0.0036196
0.0442313 -0.0635164 -0.0041183
0.0442895 -0.0632687 -0.00459872
0.0443384 -0.0630217 -0.00510588
0.0444064 -0.062777 -0.00554798
0.04448 -0.0625336 -0.00596879
0.0445793 -0.0622923 -0.00630404
0.0446903 -0.0620523 -0.00659975
0.0448218 -0.0618136 -0.00682777
0.0449584 -0.0615756 -0.00703858
0.0450935 -0.061338 -0.007253
0.0452233 -0.0611006 -0.00748293
0.045357 -0.0608638 -0.00769918
0.045492 -0.0606275 -0.00791038
0.0456175 -0.0603914 -0.00815024
0.0457461 -0.060156 -0.0083793
0.0458731 -0.0599209 -0.00861172
0.0460062 -0.0596863 -0.00882431
0.0461512 -0.059452 -0.00899885
0.0462977 -0.0592179 -0.00916819
0.0464527 -0.0589841 -0.00931058
0.0465855 -0.0587509 -0.00952013
0.0467115 -0.0585183 -0.00974905
0.0468323 -0.0582863 -0.00999279
0.0469648 -0.0580544 -0.0102
0.0470988 -0.0578229 -0.0104015
0.0472628 -0.0575904 -0.0105121
0.047432 -0.0573579 -0.0106065
0.0476135 -0.0571249 -0.0106643
0.0477849 -0.0568923 -0.0107522
0.0479646 -0.0566594 -0.0108153
0.0481376 -0.0564269 -0.010898
0.0483118 -0.0561944 -0.010977
0.0484666 -0.0559633 -0.0111127
0.0486351 -0.0557313 -0.011208
0.0488073 -0.0554992 -0.0112924
0.0489818 -0.0552669 -0.0113697
0.0491747 -0.0550332 -0.0113941
0.0493896 -0.0547974 -0.011355
0.0496052 -0.0545613 -0.011315
0.0498265 -0.0543244 -0.0112593
0.0500579 -0.0540863 -0.0111757
0.0502753 -0.0538491 -0.0111327
0.0504864 -0.0536125 -0.0111083
0.0506954 -0.0533758 -0.0110902
0.0508873 -0.0531408 -0.0111208
0.0510851 -0.0529051 -0.0111351
0.0512682 -0.052671 -0.0111907
0.0514561 -0.0524363 -0.0112329
0.0516365 -0.0522025 -0.011296
0.0518271 -0.0519674 -0.011331
0.0520094 -0.0517334 -0.011389
0.0522203 -0.0514954 -0.0113684
0.0524449 -0.0512553 -0.011311
0.0526865 -0.0510124 -0.0112083
0.0529467 -0.0507664 -0.0110559
0.0532254 -0.0505171 -0.0108549
0.0535584 -0.0502588 -0.0105092
0.0538977 -0.0499985 -0.010149
0.0542395 -0.0497368 -0.00978491
0.0545789 -0.0494744 -0.00942999
0.0549033 -0.0492135 -0.0091178
0.0551834 -0.0489593 -0.00892565
0.0554754 -0.0487024 -0.0087036
0.0557817 -0.0484423 -0.00844563
0.0560667 -0.0481852 -0.00824559
0.0563446 -0.0479288 -0.00806591
0.0566194 -0.0476724 -0.00789587
0.0568699 -0.0474201 -0.0077907
0.0571283 -0.0471659 -0.0076659
0.0573884 -0.0469108 -0.00753801
0.0576807 -0.046649 -0.00732813
0.057981 -0.0463848 -0.00709953
0.0582907 -0.0461181 -0.00684861
0.0586021 -0.0458503 -0.00659529
0.0589136 -0.0455817 -0.00634361
0.0591929 -0.0453193 -0.00617597
0.0594766 -0.0450553 -0.00599824
0.0597928 -0.0447837 -0.00574037
0.0600902 -0.0445155 -0.0055315
0.0603956 -0.0442449 -0.00530437
0.0434185 -0.0675005 0.00535821
0.0435838 -0.0672453 0.00519032
0.0437225 -0.0669868 0.00492996
0.0438456 -0.0667269 0.00461707
0.0439408 -0.0664643 0.00420979
0.0439883 -0.0661972 0.00364067
0.0439758 -0.0659247 0.00286905
0.043931 -0.065651 0.00199294
0.0438844 -0.0653793 0.00111676
0.043848 -0.0651111 0.000281717
0.0438529 -0.0648489 -0.000407318
0.0438613 -0.0645889 -0.00108021
0.0438789 -0.0643313 -0.00171709
0.0438921 -0.0640751 -0.00236454
0.0439024 -0.0638204 -0.00301673
0.0439119 -0.0635673 -0.00366706
0.0439709 -0.063319 -0.00414974
0.0440346 -0.0630722 -0.00461354
0.0440939 -0.0628263 -0.00508862
0.0441575 -0.0625818 -0.00554649
0.0442353 -0.062339 -0.00595501
0.0443296 -0.0620979 -0.00630764
0.0444367 -0.0618581 -0.00661701
0.044564 -0.0616196 -0.00685926
0.0447049 -0.061382 -0.0070565
0.0448361 -0.0611445 -0.00728369
0.044966 -0.0609074 -0.00751365
0.0450951 -0.0606709 -0.00774533
0.0452291 -0.0604348 -0.00796005
0.0453587 -0.0601991 -0.00818718
0.0454888 -0.0599639 -0.00841173
0.0456226 -0.0597292 -0.00862364
0.0457657 -0.0594947 -0.00880547
0.045916 -0.0592605 -0.00896422
0.0460577 -0.0590267 -0.00914855
0.0462122 -0.058793 -0.0092926
0.0463398 -0.0585602 -0.00951879
0.046456 -0.0583281 -0.00977849
0.0465715 -0.0580966 -0.0100389
0.0467034 -0.0578651 -0.0102479
0.046837 -0.0576338 -0.0104509
0.0470004 -0.0574016 -0.0105633
0.0471746 -0.057169 -0.0106425
0.0473555 -0.0569361 -0.0107019
0.0475273 -0.0567037 -0.0107883
0.0477078 -0.0564708 -0.0108487
0.0478812 -0.0562384 -0.01093
0.0480554 -0.0560061 -0.011009
0.0482154 -0.0557747 -0.0111294
0.0483896 -0.0555425 -0.0112077
0.048569 -0.0553099 -0.0112709
0.04875 -0.0550772 -0.0113295
0.048948 -0.0548429 -0.0113387
0.0491627 -0.054607 -0.0113002
0.0493781 -0.0543709 -0.0112602
0.0495926 -0.0541345 -0.0112236
0.0498226 -0.0538963 -0.0111434
0.0500387 -0.0536592 -0.0111034
0.0502505 -0.0534223 -0.0110765
0.0504602 -0.0531855 -0.0110562
0.0506577 -0.0529498 -0.0110709
0.0508497 -0.0527147 -0.0111013
0.0510269 -0.0524814 -0.0111733
0.0512083 -0.0522476 -0.0112334
0.0513782 -0.0520153 -0.0113257
0.0515628 -0.051781 -0.0113768
0.0517445 -0.0515472 -0.0114363
0.0519493 -0.05131 -0.0114318
0.0521615 -0.0510717 -0.0114076
0.0523965 -0.0508298 -0.0113218
0.052655 -0.050584 -0.0111725
0.0529346 -0.0503344 -0.0109675
0.0532796 -0.0500738 -0.010587
0.0536425 -0.0498093 -0.0101611
0.0540016 -0.0495442 -0.00974853
0.0543469 -0.0492803 -0.00937631
0.0546702 -0.0490191 -0.00906542
0.0549486 -0.0487648 -0.00887684
0.0552282 -0.0485097 -0.0086864
0.0555278 -0.0482504 -0.00844488
0.0558123 -0.0479931 -0.00824514
0.05609 -0.0477365 -0.00806497
0.0563586 -0.047481 -0.00790996
0.0566143 -0.0472275 -0.00779041
0.0568784 -0.046972 -0.00764982
0.0571331 -0.0467178 -0.00753496
0.0574247 -0.0464557 -0.00732578
0.057718 -0.0461927 -0.00711399
0.0580195 -0.0459273 -0.00688266
0.0583232 -0.0456607 -0.00664773
0.0586329 -0.0453922 -0.00639935
0.0589184 -0.0451282 -0.00621451
0.0592092 -0.0448625 -0.00601777
0.0595196 -0.0445918 -0.00577284
0.0598157 -0.0443236 -0.00556606
0.060113 -0.0440545 -0.00535788
0.04291 -0.0675367 0.00523842
0.0430937 -0.0672844 0.00513556
0.043265 -0.0670305 0.00498933
0.0434163 -0.0667742 0.00477322
0.0435336 -0.0665142 0.00443977
0.0436238 -0.0662517 0.00401423
0.0436676 -0.0659849 0.00343075
0.043663 -0.0657144 0.0026841
0.0436318 -0.0654432 0.00185154
0.0435972 -0.0651738 0.00101351
0.0435718 -0.0649076 0.000213088
0.043582 -0.0646467 -0.00046099
0.0435947 -0.0643878 -0.00112159
0.0436187 -0.0641315 -0.00173918
0.0436387 -0.0638765 -0.00236628
0.043656 -0.0636229 -0.00299797
0.0436761 -0.0633711 -0.00361582
0.0437405 -0.0631236 -0.00408209
0.0438056 -0.0628773 -0.00454313
0.0438755 -0.0626323 -0.00498532
0.0439447 -0.0623884 -0.00542702
0.0440231 -0.062146 -0.00583588
0.0441072 -0.0619047 -0.00622305
0.0442078 -0.0616649 -0.00655455
0.0443247 -0.0614262 -0.00683147
0.0444611 -0.0611887 -0.00704377
0.0445931 -0.0609515 -0.00726895
0.0447285 -0.0607148 -0.00748206
0.0448578 -0.0604784 -0.00771357
0.0449865 -0.0602425 -0.00794581
0.0451169 -0.060007 -0.00817133
0.0452476 -0.0597721 -0.00839448
0.0453826 -0.0595375 -0.00860314
0.0455311 -0.0593032 -0.00876856
0.0456813 -0.0590691 -0.00892775
0.0458179 -0.0588356 -0.00912874
0.045972 -0.058602 -0.00927444
0.0460996 -0.0583694 -0.00950087
0.0462114 -0.0581378 -0.00977496
0.0463263 -0.0579066 -0.0100378
0.0464566 -0.0576753 -0.0102524
0.046585 -0.0574446 -0.0104716
0.046744 -0.0572127 -0.0105969
0.0469187 -0.0569802 -0.0106749
0.0470994 -0.0567474 -0.0107345
0.047276 -0.0565149 -0.0108063
0.0474564 -0.0562821 -0.0108667
0.0476312 -0.0560497 -0.0109439
0.0478058 -0.0558174 -0.0110212
0.0479713 -0.0555859 -0.0111255
0.0481465 -0.0553536 -0.0112011
0.0483367 -0.0551202 -0.0112325
0.0485285 -0.0548865 -0.0112592
0.0487327 -0.0546516 -0.0112505
0.0489469 -0.0544156 -0.011213
0.0491608 -0.0541794 -0.0111771
0.0493639 -0.053944 -0.0111728
0.0495878 -0.0537063 -0.0111097
0.0498031 -0.0534692 -0.0110717
0.0500151 -0.0532322 -0.0110438
0.0502201 -0.0529958 -0.0110362
0.0504175 -0.0527602 -0.0110509
0.0505982 -0.0525264 -0.0111128
0.0507689 -0.052294 -0.0112031
0.0509445 -0.0520611 -0.0112792
0.051114 -0.051829 -0.0113723
0.0512937 -0.0515955 -0.0114367
0.0514743 -0.0513619 -0.0114988
0.0516787 -0.0511249 -0.0114949
0.0518842 -0.0508876 -0.0114884
0.0521122 -0.0506467 -0.0114208
0.052369 -0.0504011 -0.0112748
0.0526636 -0.0501489 -0.0110274
0.0530159 -0.0498867 -0.0106249
0.0533965 -0.0496187 -0.0101488
0.0537687 -0.0493508 -0.00969902
0.0541246 -0.0490845 -0.00929633
0.0544369 -0.0488247 -0.00901364
0.0547141 -0.0485703 -0.0088272
0.0549816 -0.048317 -0.00866822
0.0552739 -0.0480587 -0.00844457
0.0555572 -0.0478013 -0.00824675
0.0558396 -0.0475435 -0.00805317
0.0561031 -0.0472888 -0.0079106
0.0563646 -0.0470339 -0.00777484
0.0566339 -0.0467771 -0.00761984
0.0568893 -0.0465226 -0.00750252
0.0571755 -0.0462612 -0.00730635
0.0574739 -0.0459968 -0.00708015
0.0577681 -0.0457325 -0.00686646
0.0580642 -0.0454672 -0.00664973
0.0583663 -0.0452 -0.00641954
0.0586567 -0.0449346 -0.00622092
0.0589411 -0.04467 -0.00603938
0.0592457 -0.0444002 -0.00580777
0.0595406 -0.044132 -0.00560291
0.0598364 -0.043863 -0.00539722
0.0605892 -0.0437433 -0.00470247
0.0601167 -0.043597 -0.00523227
0.0425879 -0.0673211 0.00502177
0.042771 -0.0670691 0.00491774
0.0429418 -0.0668156 0.00477013
0.0430949 -0.0665601 0.00456092
0.0432124 -0.0663007 0.00422791
0.0433028 -0.066039 0.00380235
0.0433524 -0.0657738 0.00323747
0.0433688 -0.0655065 0.0025612
0.0433556 -0.0652381 0.00178796
0.04334 -0.0649715 0.0010119
0.0433161 -0.0647062 0.00021293
0.0433254 -0.0644459 -0.000466474
0.0433324 -0.0641872 -0.00114917
0.0433571 -0.0639316 -0.00176709
0.0433801 -0.0636775 -0.00238627
0.0434137 -0.0634257 -0.00296558
0.0434497 -0.0631755 -0.00353253
0.0435204 -0.0629288 -0.00398035
0.0435918 -0.0626831 -0.00442253
0.0436732 -0.062439 -0.00482872
0.0437445 -0.0621954 -0.00526563
0.0438191 -0.061953 -0.00568885
0.0438968 -0.0617118 -0.00609904
0.0439861 -0.0614718 -0.00646878
0.0440913 -0.0612331 -0.00678452
0.0442229 -0.0609956 -0.00701314
0.0443555 -0.0607586 -0.00723712
0.0444917 -0.0605221 -0.00744863
0.0446218 -0.0602859 -0.00767813
0.044751 -0.0600502 -0.00790938
0.0448857 -0.059815 -0.00812199
0.0450217 -0.0595802 -0.00832916
0.0451576 -0.0593457 -0.00853581
0.0453109 -0.0591114 -0.00868647
0.0454605 -0.0588775 -0.00884837
0.0455967 -0.0586441 -0.00905125
0.0457464 -0.0584107 -0.00921094
0.0458746 -0.0581782 -0.00943641
0.0459864 -0.0579468 -0.00971159
0.0460963 -0.0577161 -0.00999071
0.0462166 -0.0574854 -0.0102365
0.0463494 -0.0572547 -0.0104428
0.0465044 -0.0570231 -0.0105806
0.0466752 -0.0567909 -0.0106703
0.0468602 -0.0565579 -0.0107165
0.0470459 -0.0563249 -0.0107612
0.0472222 -0.0560924 -0.0108336
0.0474074 -0.0558593 -0.0108799
0.0475873 -0.0556266 -0.0109417
0.0477579 -0.0553946 -0.0110313
0.0479333 -0.0551623 -0.0111062
0.0481239 -0.0549288 -0.0111365
0.0483112 -0.0546954 -0.0111767
0.0485144 -0.0544605 -0.0111706
0.0487232 -0.0542248 -0.0111485
0.0489324 -0.053989 -0.0111259
0.0491302 -0.0537541 -0.0111369
0.0493482 -0.0535168 -0.0110898
0.0495628 -0.0532797 -0.0110535
0.0497696 -0.0530433 -0.0110399
0.0499692 -0.0528075 -0.0110474
0.0501657 -0.052572 -0.0110641
0.0503402 -0.0523392 -0.0111436
0.0505045 -0.0521077 -0.0112516
0.0506793 -0.051875 -0.0113297
0.0508484 -0.0516431 -0.0114238
0.051029 -0.0514097 -0.0114856
0.0512096 -0.0511762 -0.0115472
0.0514135 -0.0509393 -0.011544
0.0516134 -0.0507029 -0.0115525
0.051835 -0.050463 -0.0115016
0.0520797 -0.0502191 -0.0113876
0.0523724 -0.049967 -0.0111434
0.0527299 -0.0497035 -0.0107245
0.0531232 -0.0494329 -0.0102112
0.0535082 -0.0491622 -0.00972418
0.053881 -0.0488924 -0.00927358
0.0542032 -0.0486303 -0.00896288
0.0544745 -0.0483767 -0.00879133
0.054735 -0.0481244 -0.00865006
0.0550142 -0.0478681 -0.00846024
0.0552896 -0.047612 -0.00828231
0.0555719 -0.047354 -0.00808741
0.0558357 -0.047099 -0.00794313
0.0561038 -0.0468427 -0.00778892
0.0563846 -0.0465832 -0.0076026
0.0566459 -0.0463273 -0.00746907
0.0569323 -0.0460656 -0.00727121
0.0572364 -0.0457995 -0.00702902
0.0575242 -0.0455362 -0.00683114
0.0578128 -0.0452722 -0.00663265
0.0581079 -0.0450061 -0.00641904
0.0583974 -0.0447407 -0.00622175
0.0586811 -0.0444759 -0.00604071
0.058985 -0.0442059 -0.00580979
0.0592784 -0.0439377 -0.00560745
0.0595729 -0.0436687 -0.00540388
0.0598405 -0.0434055 -0.00526995
0.0604074 -0.043328 -0.00504241
0.060118 -0.0431394 -0.0051123
