ply
format ascii 1.0
comment Created by CloudCompare v2.11.3 (Anoia)
comment Created 15/04/2022 13:32
obj_info Generated by CloudCompare!
element vertex 805
property float x
property float y
property float z
property float nx
property float ny
property float nz
end_header
-0.5 0.0459744 -0.728377 -0.999999 0.000977516 0.000977516 
-0.5 0.301239 -0.675742 -0.999999 0.000977516 0.000977516 
-0.5 0.499456 -0.22243 -0.999999 0.000977516 0.000977516 
-0.5 -0.0832856 -1.183 -0.999999 0.000977516 0.000977516 
-0.5 0.300171 -0.766524 -0.999999 0.000977516 0.000977516 
-0.5 0.408608 -0.339086 -0.999999 0.000977516 0.000977516 
-0.5 -0.323299 -1.12458 -0.999999 0.000977516 0.000977516 
-0.5 0.120464 -0.750586 -0.999999 0.000977516 0.000977516 
-0.5 0.201204 -1.09736 -0.999999 0.000977516 0.000977516 
-0.5 -0.177334 -1.00299 -0.999999 0.000977516 0.000977516 
-0.5 0.499506 -1.01988 -0.999999 0.000977516 0.000977516 
-0.5 0.237143 -1.10016 -0.999999 0.000977516 0.000977516 
-0.5 -0.179744 -1.09992 -0.999999 0.000977516 0.000977516 
-0.5 0.132571 -1.18771 -0.999999 0.000977516 0.000977516 
-0.5 0.138894 -0.953272 -0.999999 0.000977516 0.000977516 
-0.5 0.465934 -0.308874 -0.999999 0.000977516 0.000977516 
-0.5 0.190095 -1.14543 -0.999999 0.000977516 0.000977516 
-0.5 0.465086 -0.775332 -0.999999 0.000977516 0.000977516 
-0.5 0.260779 -0.573365 -0.999999 0.000977516 0.000977516 
-0.5 -0.122024 -1.18274 -0.999999 0.000977516 0.000977516 
-0.5 -0.0468228 -0.979824 -0.999999 0.000977516 0.000977516 
-0.5 0.32633 -0.724882 -0.999999 0.000977516 0.000977516 
-0.5 0.180166 -1.11799 -0.999999 0.000977516 0.000977516 
-0.5 -0.0304099 -1.09578 -0.999999 0.000977516 0.000977516 
-0.5 -0.109768 -1.12043 -0.999999 0.000977516 0.000977516 
-0.5 0.268912 -0.500351 -0.999999 0.000977516 0.000977516 
-0.5 0.302661 -1.06402 -0.999999 0.000977516 0.000977516 
-0.5 -0.379282 -1.13741 -0.999999 0.000977516 0.000977516 
-0.5 0.253128 -1.10844 -0.999999 0.000977516 0.000977516 
-0.5 -0.01608 -0.983835 -0.999999 0.000977516 0.000977516 
-0.5 0.484874 -0.717814 -0.999999 0.000977516 0.000977516 
-0.5 0.107551 -0.74505 -0.999999 0.000977516 0.000977516 
-0.5 0.423174 -0.47999 -0.999999 0.000977516 0.000977516 
-0.5 0.331839 -0.789907 -0.999999 0.000977516 0.000977516 
-0.5 0.42701 -1.10899 -0.999999 0.000977516 0.000977516 
-0.5 0.306496 -1.12599 -0.999999 0.000977516 0.000977516 
-0.5 0.0370547 -0.704059 -0.999999 0.000977516 0.000977516 
-0.5 0.464013 -1.09429 -0.999999 0.000977516 0.000977516 
-0.5 0.289112 -1.02188 -0.999999 0.000977516 0.000977516 
-0.5 -0.0529894 -0.782506 -0.999999 0.000977516 0.000977516 
-0.5 0.384785 -0.550201 -0.999999 0.000977516 0.000977516 
-0.5 0.188181 -1.05297 -0.999999 0.000977516 0.000977516 
-0.5 0.158554 -1.03324 -0.999999 0.000977516 0.000977516 
-0.5 0.0635138 -1.08302 -0.999999 0.000977516 0.000977516 
-0.5 0.292101 -0.91959 -0.999999 0.000977516 0.000977516 
-0.5 0.471306 -1.16514 -0.999999 0.000977516 0.000977516 
-0.5 -0.18192 -1.07344 -0.999999 0.000977516 0.000977516 
-0.5 -0.055499 -1.13299 -0.999999 0.000977516 0.000977516 
-0.5 0.4807 -1.08952 -0.999999 0.000977516 0.000977516 
-0.5 0.339091 -0.629315 -0.999999 0.000977516 0.000977516 
-0.5 0.263349 -0.437972 -0.999999 0.000977516 0.000977516 
-0.5 -0.177265 -0.961951 -0.999999 0.000977516 0.000977516 
-0.5 0.379043 -0.383715 -0.999999 0.000977516 0.000977516 
-0.5 0.0948084 -0.626485 -0.999999 0.000977516 0.000977516 
-0.5 -0.148264 -1.11204 -0.999999 0.000977516 0.000977516 
-0.5 0.152252 -0.875709 -0.999999 0.000977516 0.000977516 
-0.5 0.43678 -0.362881 -0.999999 0.000977516 0.000977516 
-0.5 0.146748 -0.835393 -0.999999 0.000977516 0.000977516 
-0.5 0.31916 -0.410915 -0.999999 0.000977516 0.000977516 
-0.5 0.239671 -0.982677 -0.999999 0.000977516 0.000977516 
-0.5 0.204762 -0.539498 -0.999999 0.000977516 0.000977516 
-0.5 -0.191356 -1.122 -0.999999 0.000977516 0.000977516 
-0.5 0.304427 -0.942601 -0.999999 0.000977516 0.000977516 
-0.5 -0.0830725 -1.01959 -0.999999 0.000977516 0.000977516 
-0.5 9.88159e-05 -0.79522 -0.999999 0.000977516 0.000977516 
-0.5 -0.33703 -1.15489 -0.999999 0.000977516 0.000977516 
-0.5 0.0248971 -1.06975 -0.999999 0.000977516 0.000977516 
-0.5 0.3036 -0.830099 -0.999999 0.000977516 0.000977516 
-0.5 0.0400475 -1.19406 -0.999999 0.000977516 0.000977516 
-0.5 0.445602 -0.76306 -0.999999 0.000977516 0.000977516 
-0.5 -0.180997 -1.19407 -0.999999 0.000977516 0.000977516 
-0.5 0.0951277 -1.03914 -0.999999 0.000977516 0.000977516 
-0.5 0.221516 -0.620736 -0.999999 0.000977516 0.000977516 
-0.5 -0.0514629 -1.10918 -0.999999 0.000977516 0.000977516 
-0.5 0.308248 -0.476154 -0.999999 0.000977516 0.000977516 
-0.5 0.403276 -0.749094 -0.999999 0.000977516 0.000977516 
-0.5 0.166045 -1.12169 -0.999999 0.000977516 0.000977516 
-0.5 -0.34124 -1.09977 -0.999999 0.000977516 0.000977516 
-0.5 0.480398 -1.05504 -0.999999 0.000977516 0.000977516 
-0.5 0.0826061 -0.856038 -0.999999 0.000977516 0.000977516 
-0.5 0.334459 -0.574931 -0.999999 0.000977516 0.000977516 
-0.5 0.359672 -0.346982 -0.999999 0.000977516 0.000977516 
-0.5 0.182128 -0.764955 -0.999999 0.000977516 0.000977516 
-0.5 -0.0290598 -0.759573 -0.999999 0.000977516 0.000977516 
-0.5 0.0726163 -1.19323 -0.999999 0.000977516 0.000977516 
-0.5 0.498201 -0.650625 -0.999999 0.000977516 0.000977516 
-0.5 -0.0415818 -1.14877 -0.999999 0.000977516 0.000977516 
-0.5 0.383833 -0.909436 -0.999999 0.000977516 0.000977516 
-0.5 0.427247 -1.14 -0.999999 0.000977516 0.000977516 
-0.5 -0.27848 -1.09476 -0.999999 0.000977516 0.000977516 
-0.5 0.201757 -0.726822 -0.999999 0.000977516 0.000977516 
-0.5 -0.240986 -1.12563 -0.999999 0.000977516 0.000977516 
-0.5 -0.0400714 -0.828705 -0.999999 0.000977516 0.000977516 
-0.5 0.473259 -0.382533 -0.999999 0.000977516 0.000977516 
-0.5 -0.164336 -0.936208 -0.999999 0.000977516 0.000977516 
-0.5 0.413553 -1.17726 -0.999999 0.000977516 0.000977516 
-0.5 0.370085 -0.855442 -0.999999 0.000977516 0.000977516 
-0.5 0.397937 -0.987051 -0.999999 0.000977516 0.000977516 
-0.5 0.3335 -1.10931 -0.999999 0.000977516 0.000977516 
-0.5 0.0712171 -0.801904 -0.999999 0.000977516 0.000977516 
-0.5 0.289355 -0.71323 -0.999999 0.000977516 0.000977516 
-0.5 0.249707 -0.607955 -0.999999 0.000977516 0.000977516 
-0.5 0.288741 -1.09004 -0.999999 0.000977516 0.000977516 
-0.5 0.0366255 -1.16641 -0.999999 0.000977516 0.000977516 
-0.5 0.0757467 -1.06096 -0.999999 0.000977516 0.000977516 
-0.5 0.359347 -0.973391 -0.999999 0.000977516 0.000977516 
-0.5 -0.0904179 -0.904301 -0.999999 0.000977516 0.000977516 
-0.5 -0.0299497 -0.891798 -0.999999 0.000977516 0.000977516 
-0.5 0.136296 -1.12977 -0.999999 0.000977516 0.000977516 
-0.5 0.200106 -0.769063 -0.999999 0.000977516 0.000977516 
-0.5 0.1768 -1.02562 -0.999999 0.000977516 0.000977516 
-0.5 0.476576 -0.780377 -0.999999 0.000977516 0.000977516 
-0.5 -0.148956 -1.04788 -0.999999 0.000977516 0.000977516 
-0.5 0.226155 -0.523233 -0.999999 0.000977516 0.000977516 
-0.5 0.227871 -0.761641 -0.999999 0.000977516 0.000977516 
-0.5 0.160602 -0.667466 -0.999999 0.000977516 0.000977516 
-0.5 0.206922 -0.704099 -0.999999 0.000977516 0.000977516 
-0.5 -0.0162835 -1.15723 -0.999999 0.000977516 0.000977516 
-0.5 0.203267 -1.07413 -0.999999 0.000977516 0.000977516 
-0.5 0.482846 -0.302887 -0.999999 0.000977516 0.000977516 
-0.5 -0.00843875 -0.942169 -0.999999 0.000977516 0.000977516 
-0.5 0.0126228 -1.11732 -0.999999 0.000977516 0.000977516 
-0.5 0.0811556 -1.13638 -0.999999 0.000977516 0.000977516 
-0.5 0.384021 -0.926218 -0.999999 0.000977516 0.000977516 
-0.5 0.486734 -0.455925 -0.999999 0.000977516 0.000977516 
-0.5 0.239945 -0.719384 -0.999999 0.000977516 0.000977516 
-0.5 0.188707 -1.02757 -0.999999 0.000977516 0.000977516 
-0.5 0.106029 -0.971809 -0.999999 0.000977516 0.000977516 
-0.5 0.416225 -0.39845 -0.999999 0.000977516 0.000977516 
-0.5 0.0145809 -0.876845 -0.999999 0.000977516 0.000977516 
-0.5 -0.0753481 -0.820105 -0.999999 0.000977516 0.000977516 
-0.5 0.147842 -1.14089 -0.999999 0.000977516 0.000977516 
-0.5 0.0873309 -1.1154 -0.999999 0.000977516 0.000977516 
-0.5 -0.229024 -1.15908 -0.999999 0.000977516 0.000977516 
-0.5 0.131056 -0.818849 -0.999999 0.000977516 0.000977516 
-0.5 0.0644913 -0.735802 -0.999999 0.000977516 0.000977516 
-0.5 0.313368 -0.817856 -0.999999 0.000977516 0.000977516 
-0.5 0.165343 -0.703954 -0.999999 0.000977516 0.000977516 
-0.5 -0.109034 -0.982748 -0.999999 0.000977516 0.000977516 
-0.5 -0.171722 -1.14231 -0.999999 0.000977516 0.000977516 
-0.5 0.290784 -1.13262 -0.999999 0.000977516 0.000977516 
-0.5 -0.168156 -0.922524 -0.999999 0.000977516 0.000977516 
-0.5 -0.379427 -1.09163 -0.999999 0.000977516 0.000977516 
-0.5 0.134179 -0.616525 -0.999999 0.000977516 0.000977516 
-0.5 0.498649 -1.18601 -0.999999 0.000977516 0.000977516 
-0.5 0.145082 -1.10862 -0.999999 0.000977516 0.000977516 
-0.5 0.416383 -0.996828 -0.999999 0.000977516 0.000977516 
-0.5 0.0810465 -0.743459 -0.999999 0.000977516 0.000977516 
-0.5 -0.25498 -1.13121 -0.999999 0.000977516 0.000977516 
-0.5 0.386004 -0.686189 -0.999999 0.000977516 0.000977516 
-0.5 -0.196902 -0.975866 -0.999999 0.000977516 0.000977516 
-0.5 0.408446 -0.300226 -0.999999 0.000977516 0.000977516 
-0.5 -0.28986 -1.14297 -0.999999 0.000977516 0.000977516 
-0.5 -0.00516617 -1.08637 -0.999999 0.000977516 0.000977516 
-0.5 0.454947 -0.581765 -0.999999 0.000977516 0.000977516 
-0.5 0.464103 -1.053 -0.999999 0.000977516 0.000977516 
-0.5 0.481913 -1.15302 -0.999999 0.000977516 0.000977516 
-0.5 0.0830688 -0.830277 -0.999999 0.000977516 0.000977516 
-0.5 0.458843 -1.01519 -0.999999 0.000977516 0.000977516 
-0.5 0.235042 -0.590441 -0.999999 0.000977516 0.000977516 
-0.5 0.166708 -0.553669 -0.999999 0.000977516 0.000977516 
-0.5 0.190795 -0.851271 -0.999999 0.000977516 0.000977516 
-0.5 0.232397 -0.920758 -0.999999 0.000977516 0.000977516 
-0.5 0.195889 -0.99858 -0.999999 0.000977516 0.000977516 
-0.5 -0.135006 -0.880052 -0.999999 0.000977516 0.000977516 
-0.5 -0.120442 -0.982267 -0.999999 0.000977516 0.000977516 
-0.5 0.382424 -0.494775 -0.999999 0.000977516 0.000977516 
-0.5 0.4471 -1.02125 -0.999999 0.000977516 0.000977516 
-0.5 0.0313555 -0.997634 -0.999999 0.000977516 0.000977516 
-0.5 -0.0866579 -0.850059 -0.999999 0.000977516 0.000977516 
-0.5 0.490293 -0.965212 -0.999999 0.000977516 0.000977516 
-0.5 -0.30575 -1.13858 -0.999999 0.000977516 0.000977516 
-0.5 0.49534 -0.829051 -0.999999 0.000977516 0.000977516 
-0.5 0.254162 -0.595183 -0.999999 0.000977516 0.000977516 
-0.5 -0.379569 -1.17901 -0.999999 0.000977516 0.000977516 
-0.5 0.425342 -0.943936 -0.999999 0.000977516 0.000977516 
-0.5 -0.134052 -1.06696 -0.999999 0.000977516 0.000977516 
-0.5 0.345981 -0.709763 -0.999999 0.000977516 0.000977516 
-0.5 0.269601 -1.0776 -0.999999 0.000977516 0.000977516 
-0.5 0.117071 -1.03709 -0.999999 0.000977516 0.000977516 
-0.5 -0.135507 -1.16118 -0.999999 0.000977516 0.000977516 
-0.5 -0.352154 -1.0998 -0.999999 0.000977516 0.000977516 
-0.5 0.293282 -0.816606 -0.999999 0.000977516 0.000977516 
-0.5 0.273152 -1.19529 -0.999999 0.000977516 0.000977516 
-0.5 -0.00266171 -1.12625 -0.999999 0.000977516 0.000977516 
-0.5 0.382683 -0.953335 -0.999999 0.000977516 0.000977516 
-0.5 0.452236 -0.790605 -0.999999 0.000977516 0.000977516 
-0.5 0.0826203 -0.662864 -0.999999 0.000977516 0.000977516 
-0.5 0.323512 -1.11462 -0.999999 0.000977516 0.000977516 
-0.5 0.385684 -0.583726 -0.999999 0.000977516 0.000977516 
-0.5 0.246598 -0.62549 -0.999999 0.000977516 0.000977516 
-0.5 0.0251209 -0.902928 -0.999999 0.000977516 0.000977516 
-0.5 -0.145794 -0.87062 -0.999999 0.000977516 0.000977516 
-0.5 0.272093 -0.848232 -0.999999 0.000977516 0.000977516 
-0.5 -0.431161 -1.16089 -0.999999 0.000977516 0.000977516 
-0.5 0.0797642 -0.926338 -0.999999 0.000977516 0.000977516 
-0.5 0.490052 -0.838728 -0.999999 0.000977516 0.000977516 
-0.5 0.33793 -0.556703 -0.999999 0.000977516 0.000977516 
-0.5 0.396537 -0.783608 -0.999999 0.000977516 0.000977516 
-0.5 0.0228004 -0.786624 -0.999999 0.000977516 0.000977516 
-0.5 -0.234617 -1.09475 -0.999999 0.000977516 0.000977516 
-0.5 0.245347 -1.18203 -0.999999 0.000977516 0.000977516 
-0.5 0.496095 -0.463362 -0.999999 0.000977516 0.000977516 
-0.5 0.172944 -0.81772 -0.999999 0.000977516 0.000977516 
-0.5 0.419581 -0.761876 -0.999999 0.000977516 0.000977516 
-0.5 -0.3198 -1.08105 -0.999999 0.000977516 0.000977516 
-0.5 0.214806 -0.817712 -0.999999 0.000977516 0.000977516 
-0.5 0.00257974 -0.884139 -0.999999 0.000977516 0.000977516 
-0.5 -0.119616 -0.895786 -0.999999 0.000977516 0.000977516 
-0.5 0.465305 -0.992657 -0.999999 0.000977516 0.000977516 
-0.5 0.432732 -0.398491 -0.999999 0.000977516 0.000977516 
-0.5 0.37173 -0.48006 -0.999999 0.000977516 0.000977516 
-0.5 0.103271 -0.866276 -0.999999 0.000977516 0.000977516 
-0.5 0.335341 -1.16855 -0.999999 0.000977516 0.000977516 
-0.5 0.256312 -0.917346 -0.999999 0.000977516 0.000977516 
-0.5 0.118063 -0.734837 -0.999999 0.000977516 0.000977516 
-0.5 -0.397597 -1.14258 -0.999999 0.000977516 0.000977516 
-0.5 0.269412 -0.551769 -0.999999 0.000977516 0.000977516 
-0.5 0.0568163 -0.944932 -0.999999 0.000977516 0.000977516 
-0.5 0.457942 -0.595363 -0.999999 0.000977516 0.000977516 
-0.5 -0.257894 -1.052 -0.999999 0.000977516 0.000977516 
-0.5 0.0367798 -0.722149 -0.999999 0.000977516 0.000977516 
-0.5 0.290017 -0.765941 -0.999999 0.000977516 0.000977516 
-0.5 0.273777 -0.53997 -0.999999 0.000977516 0.000977516 
-0.5 0.326963 -1.05026 -0.999999 0.000977516 0.000977516 
-0.5 0.139767 -0.703283 -0.999999 0.000977516 0.000977516 
-0.5 0.41583 -0.517908 -0.999999 0.000977516 0.000977516 
-0.5 0.326711 -0.654807 -0.999999 0.000977516 0.000977516 
-0.5 0.415214 -0.859337 -0.999999 0.000977516 0.000977516 
-0.5 -0.066191 -1.03652 -0.999999 0.000977516 0.000977516 
-0.5 0.0144752 -0.838561 -0.999999 0.000977516 0.000977516 
-0.5 -0.0536339 -0.823725 -0.999999 0.000977516 0.000977516 
-0.5 0.42388 -0.801104 -0.999999 0.000977516 0.000977516 
-0.5 0.211092 -0.790015 -0.999999 0.000977516 0.000977516 
-0.5 0.058545 -0.819505 -0.999999 0.000977516 0.000977516 
-0.5 0.239237 -0.52322 -0.999999 0.000977516 0.000977516 
-0.5 0.205585 -0.636847 -0.999999 0.000977516 0.000977516 
-0.5 0.3054 -0.720022 -0.999999 0.000977516 0.000977516 
-0.5 0.375971 -0.617492 -0.999999 0.000977516 0.000977516 
-0.5 0.400072 -0.892212 -0.999999 0.000977516 0.000977516 
-0.5 0.0789004 -0.98518 -0.999999 0.000977516 0.000977516 
-0.5 -0.349178 -1.08054 -0.999999 0.000977516 0.000977516 
-0.5 0.151236 -0.794843 -0.999999 0.000977516 0.000977516 
-0.5 0.351379 -0.453236 -0.999999 0.000977516 0.000977516 
-0.5 -0.0120288 -0.805879 -0.999999 0.000977516 0.000977516 
-0.5 0.440891 -0.67757 -0.999999 0.000977516 0.000977516 
-0.5 0.422594 -0.296837 -0.999999 0.000977516 0.000977516 
-0.5 -0.19938 -0.959975 -0.999999 0.000977516 0.000977516 
-0.5 0.31883 -0.698764 -0.999999 0.000977516 0.000977516 
-0.5 0.397051 -1.07545 -0.999999 0.000977516 0.000977516 
-0.5 0.409731 -1.12609 -0.999999 0.000977516 0.000977516 
-0.5 0.112796 -1.17904 -0.999999 0.000977516 0.000977516 
-0.5 0.212044 -1.15985 -0.999999 0.000977516 0.000977516 
-0.5 0.481463 -0.49738 -0.999999 0.000977516 0.000977516 
-0.5 0.272132 -0.701414 -0.999999 0.000977516 0.000977516 
-0.5 0.480683 -0.909557 -0.999999 0.000977516 0.000977516 
-0.5 0.174276 -0.677551 -0.999999 0.000977516 0.000977516 
-0.5 -0.114419 -0.96107 -0.999999 0.000977516 0.000977516 
-0.5 0.362827 -1.09486 -0.999999 0.000977516 0.000977516 
-0.5 0.335375 -0.432758 -0.999999 0.000977516 0.000977516 
-0.5 0.274439 -0.616204 -0.999999 0.000977516 0.000977516 
-0.5 -0.321527 -1.15493 -0.999999 0.000977516 0.000977516 
-0.5 0.226145 -1.16403 -0.999999 0.000977516 0.000977516 
-0.5 0.0676236 -0.969373 -0.999999 0.000977516 0.000977516 
-0.5 0.0605034 -0.694629 -0.999999 0.000977516 0.000977516 
-0.5 0.390891 -0.31318 -0.999999 0.000977516 0.000977516 
-0.5 0.326157 -0.714625 -0.999999 0.000977516 0.000977516 
-0.5 0.475015 -0.752508 -0.999999 0.000977516 0.000977516 
-0.5 0.422133 -0.655501 -0.999999 0.000977516 0.000977516 
-0.5 0.199863 -1.16263 -0.999999 0.000977516 0.000977516 
-0.5 0.259488 -0.691974 -0.999999 0.000977516 0.000977516 
-0.5 0.334659 -0.741585 -0.999999 0.000977516 0.000977516 
-0.5 -0.0110037 -0.824924 -0.999999 0.000977516 0.000977516 
-0.5 -0.138882 -1.19421 -0.999999 0.000977516 0.000977516 
-0.5 0.341996 -0.362206 -0.999999 0.000977516 0.000977516 
-0.5 0.457507 -0.916154 -0.999999 0.000977516 0.000977516 
-0.5 -0.0557592 -0.899838 -0.999999 0.000977516 0.000977516 
-0.5 -0.238187 -1.05052 -0.999999 0.000977516 0.000977516 
-0.5 -0.337674 -1.08282 -0.999999 0.000977516 0.000977516 
-0.5 0.292528 -0.409326 -0.999999 0.000977516 0.000977516 
-0.5 0.249299 -0.70457 -0.999999 0.000977516 0.000977516 
-0.5 0.174051 -1.10909 -0.999999 0.000977516 0.000977516 
-0.5 0.291457 -0.783149 -0.999999 0.000977516 0.000977516 
-0.5 -0.445261 -1.18141 -0.999999 0.000977516 0.000977516 
-0.5 0.471707 -0.252995 -0.999999 0.000977516 0.000977516 
-0.5 0.32347 -1.17361 -0.999999 0.000977516 0.000977516 
-0.5 -0.137734 -0.91444 -0.999999 0.000977516 0.000977516 
-0.5 -0.117675 -1.15946 -0.999999 0.000977516 0.000977516 
-0.5 -0.406245 -1.11084 -0.999999 0.000977516 0.000977516 
-0.5 -0.0253712 -1.01982 -0.999999 0.000977516 0.000977516 
-0.5 -0.272531 -1.1434 -0.999999 0.000977516 0.000977516 
-0.5 -0.0902943 -0.813684 -0.999999 0.000977516 0.000977516 
-0.5 0.357186 -0.547194 -0.999999 0.000977516 0.000977516 
-0.5 0.392718 -0.761748 -0.999999 0.000977516 0.000977516 
-0.5 0.0396869 -0.835882 -0.999999 0.000977516 0.000977516 
-0.5 0.112908 -0.897709 -0.999999 0.000977516 0.000977516 
-0.5 0.101229 -0.824573 -0.999999 0.000977516 0.000977516 
-0.5 0.373706 -0.689572 -0.999999 0.000977516 0.000977516 
-0.5 -0.398534 -1.16174 -0.999999 0.000977516 0.000977516 
-0.5 0.206219 -0.860478 -0.999999 0.000977516 0.000977516 
-0.5 -0.235655 -0.937455 -0.999999 0.000977516 0.000977516 
-0.5 0.445822 -0.542196 -0.999999 0.000977516 0.000977516 
-0.5 0.153108 -0.909981 -0.999999 0.000977516 0.000977516 
-0.5 0.261303 -0.954808 -0.999999 0.000977516 0.000977516 
-0.5 -0.297443 -1.01259 -0.999999 0.000977516 0.000977516 
-0.5 0.392773 -0.658878 -0.999999 0.000977516 0.000977516 
-0.5 0.477317 -0.285495 -0.999999 0.000977516 0.000977516 
-0.5 0.358209 -0.912059 -0.999999 0.000977516 0.000977516 
-0.5 -0.0174576 -0.918971 -0.999999 0.000977516 0.000977516 
-0.5 0.416841 -0.903627 -0.999999 0.000977516 0.000977516 
-0.5 0.464936 -0.567081 -0.999999 0.000977516 0.000977516 
-0.5 0.347605 -1.07241 -0.999999 0.000977516 0.000977516 
-0.5 0.417859 -0.423179 -0.999999 0.000977516 0.000977516 
-0.5 0.314198 -0.963278 -0.999999 0.000977516 0.000977516 
-0.5 0.462705 -0.330611 -0.999999 0.000977516 0.000977516 
-0.5 0.349338 -0.523585 -0.999999 0.000977516 0.000977516 
-0.5 -0.149181 -1.08815 -0.999999 0.000977516 0.000977516 
-0.5 0.156512 -1.06619 -0.999999 0.000977516 0.000977516 
-0.5 -0.14008 -1.09946 -0.999999 0.000977516 0.000977516 
-0.5 0.445414 -0.654987 -0.999999 0.000977516 0.000977516 
-0.5 -0.082438 -0.96208 -0.999999 0.000977516 0.000977516 
-0.5 -0.210602 -1.19906 -0.999999 0.000977516 0.000977516 
-0.5 0.266056 -0.811905 -0.999999 0.000977516 0.000977516 
-0.5 0.0365541 -0.903507 -0.999999 0.000977516 0.000977516 
-0.5 -0.220014 -1.09127 -0.999999 0.000977516 0.000977516 
-0.5 -0.468023 -1.18033 -0.999999 0.000977516 0.000977516 
-0.5 0.15594 -0.57423 -0.999999 0.000977516 0.000977516 
-0.5 0.211645 -0.869028 -0.999999 0.000977516 0.000977516 
-0.5 0.198764 -1.01711 -0.999999 0.000977516 0.000977516 
-0.5 -0.177517 -0.887875 -0.999999 0.000977516 0.000977516 
-0.5 -0.117938 -1.12976 -0.999999 0.000977516 0.000977516 
-0.5 -0.0701052 -1.09477 -0.999999 0.000977516 0.000977516 
-0.5 0.421254 -0.444955 -0.999999 0.000977516 0.000977516 
-0.5 0.381487 -0.536484 -0.999999 0.000977516 0.000977516 
-0.5 0.493392 -1.0296 -0.999999 0.000977516 0.000977516 
-0.5 -0.245599 -1.04257 -0.999999 0.000977516 0.000977516 
-0.5 0.369387 -0.942628 -0.999999 0.000977516 0.000977516 
-0.5 -0.00836743 -0.838244 -0.999999 0.000977516 0.000977516 
-0.5 0.216892 -0.721796 -0.999999 0.000977516 0.000977516 
-0.5 0.239383 -0.784923 -0.999999 0.000977516 0.000977516 
-0.5 -0.465119 -1.16613 -0.999999 0.000977516 0.000977516 
-0.5 0.379562 -1.04352 -0.999999 0.000977516 0.000977516 
-0.5 0.416165 -0.583346 -0.999999 0.000977516 0.000977516 
-0.5 0.37948 -0.845674 -0.999999 0.000977516 0.000977516 
-0.5 -0.0354754 -1.10606 -0.999999 0.000977516 0.000977516 
-0.5 -0.28623 -1.12479 -0.999999 0.000977516 0.000977516 
-0.5 0.335585 -0.585153 -0.999999 0.000977516 0.000977516 
-0.5 0.162925 -0.763275 -0.999999 0.000977516 0.000977516 
-0.5 -0.124935 -0.853182 -0.999999 0.000977516 0.000977516 
-0.5 0.492727 -0.511325 -0.999999 0.000977516 0.000977516 
-0.5 0.0432672 -0.928397 -0.999999 0.000977516 0.000977516 
-0.5 -0.0112689 -0.721124 -0.999999 0.000977516 0.000977516 
-0.5 0.360477 -1.15651 -0.999999 0.000977516 0.000977516 
-0.5 -0.215501 -0.931703 -0.999999 0.000977516 0.000977516 
-0.5 0.269189 -0.489823 -0.999999 0.000977516 0.000977516 
-0.5 0.261645 -0.98491 -0.999999 0.000977516 0.000977516 
-0.5 0.44896 -1.15278 -0.999999 0.000977516 0.000977516 
-0.5 0.134637 -1.00356 -0.999999 0.000977516 0.000977516 
-0.5 0.366613 -0.447895 -0.999999 0.000977516 0.000977516 
-0.5 0.377742 -0.881364 -0.999999 0.000977516 0.000977516 
-0.5 -0.293473 -1.11555 -0.999999 0.000977516 0.000977516 
-0.5 0.205009 -1.13121 -0.999999 0.000977516 0.000977516 
-0.5 0.127984 -0.666264 -0.999999 0.000977516 0.000977516 
-0.5 0.320645 -0.473855 -0.999999 0.000977516 0.000977516 
-0.5 0.25094 -0.771394 -0.999999 0.000977516 0.000977516 
-0.5 0.090921 -0.90403 -0.999999 0.000977516 0.000977516 
-0.5 -0.346469 -1.05348 -0.999999 0.000977516 0.000977516 
-0.5 0.00460117 -0.866491 -0.999999 0.000977516 0.000977516 
-0.5 0.338022 -0.907311 -0.999999 0.000977516 0.000977516 
-0.5 0.27311 -0.675982 -0.999999 0.000977516 0.000977516 
-0.5 0.321816 -0.781149 -0.999999 0.000977516 0.000977516 
-0.5 -0.163794 -0.886839 -0.999999 0.000977516 0.000977516 
-0.5 0.360204 -0.701318 -0.999999 0.000977516 0.000977516 
-0.5 0.339285 -0.671688 -0.999999 0.000977516 0.000977516 
-0.5 -0.203538 -0.948357 -0.999999 0.000977516 0.000977516 
-0.5 0.23949 -1.19335 -0.999999 0.000977516 0.000977516 
-0.5 0.454144 -1.12589 -0.999999 0.000977516 0.000977516 
-0.5 0.293662 -0.903505 -0.999999 0.000977516 0.000977516 
-0.5 0.383679 -0.603387 -0.999999 0.000977516 0.000977516 
-0.5 -0.114177 -1.1023 -0.999999 0.000977516 0.000977516 
-0.5 0.0190196 -1.10403 -0.999999 0.000977516 0.000977516 
-0.5 0.306828 -1.16114 -0.999999 0.000977516 0.000977516 
-0.5 0.480224 -1.00819 -0.999999 0.000977516 0.000977516 
-0.5 0.304306 -0.587018 -0.999999 0.000977516 0.000977516 
-0.5 0.331666 -0.405135 -0.999999 0.000977516 0.000977516 
-0.5 0.410076 -1.0856 -0.999999 0.000977516 0.000977516 
-0.5 0.113503 -1.06444 -0.999999 0.000977516 0.000977516 
-0.5 0.444686 -0.418196 -0.999999 0.000977516 0.000977516 
-0.5 0.446182 -1.10738 -0.999999 0.000977516 0.000977516 
-0.5 0.355512 -0.650858 -0.999999 0.000977516 0.000977516 
-0.5 0.276119 -0.513483 -0.999999 0.000977516 0.000977516 
-0.5 -0.308203 -1.07581 -0.999999 0.000977516 0.000977516 
-0.5 0.227635 -0.706239 -0.999999 0.000977516 0.000977516 
-0.5 0.364941 -1.0753 -0.999999 0.000977516 0.000977516 
-0.5 -0.0828997 -0.952015 -0.999999 0.000977516 0.000977516 
-0.5 0.452032 -0.770875 -0.999999 0.000977516 0.000977516 
-0.5 0.138294 -0.757218 -0.999999 0.000977516 0.000977516 
-0.5 0.102071 -1.0898 -0.999999 0.000977516 0.000977516 
-0.5 0.49017 -1.09503 -0.999999 0.000977516 0.000977516 
-0.5 0.0392241 -1.11048 -0.999999 0.000977516 0.000977516 
-0.5 0.0761428 -0.719401 -0.999999 0.000977516 0.000977516 
-0.5 0.0428677 -0.96329 -0.999999 0.000977516 0.000977516 
-0.5 0.347877 -0.842807 -0.999999 0.000977516 0.000977516 
-0.5 0.421156 -0.60981 -0.999999 0.000977516 0.000977516 
-0.5 0.483218 -0.886033 -0.999999 0.000977516 0.000977516 
-0.5 0.481707 -0.252929 -0.999999 0.000977516 0.000977516 
-0.5 -0.208504 -1.08893 -0.999999 0.000977516 0.000977516 
-0.5 0.00509525 -0.942582 -0.999999 0.000977516 0.000977516 
-0.5 0.0581213 -0.855917 -0.999999 0.000977516 0.000977516 
-0.5 -0.0701688 -0.893288 -0.999999 0.000977516 0.000977516 
-0.5 -0.315368 -1.0687 -0.999999 0.000977516 0.000977516 
-0.5 -0.256273 -1.08947 -0.999999 0.000977516 0.000977516 
-0.5 0.386521 -0.981268 -0.999999 0.000977516 0.000977516 
-0.5 0.0952773 -0.72249 -0.999999 0.000977516 0.000977516 
-0.5 0.128958 -0.958641 -0.999999 0.000977516 0.000977516 
-0.5 -0.101558 -1.16028 -0.999999 0.000977516 0.000977516 
-0.5 0.254938 -0.97491 -0.999999 0.000977516 0.000977516 
-0.5 0.0890839 -0.710683 -0.999999 0.000977516 0.000977516 
-0.5 0.367443 -0.517365 -0.999999 0.000977516 0.000977516 
-0.5 0.0458372 -0.996502 -0.999999 0.000977516 0.000977516 
-0.5 -0.192945 -0.93775 -0.999999 0.000977516 0.000977516 
-0.5 0.458903 -0.451777 -0.999999 0.000977516 0.000977516 
-0.5 0.307722 -0.841422 -0.999999 0.000977516 0.000977516 
-0.5 0.053117 -1.09015 -0.999999 0.000977516 0.000977516 
-0.5 0.432328 -0.718178 -0.999999 0.000977516 0.000977516 
-0.5 0.264669 -0.940154 -0.999999 0.000977516 0.000977516 
-0.5 0.17747 -1.166 -0.999999 0.000977516 0.000977516 
-0.5 0.235168 -0.961182 -0.999999 0.000977516 0.000977516 
-0.5 0.339529 -0.46663 -0.999999 0.000977516 0.000977516 
-0.5 -0.0100334 -1.18528 -0.999999 0.000977516 0.000977516 
-0.5 0.490637 -0.587879 -0.999999 0.000977516 0.000977516 
-0.5 0.0983241 -0.836272 -0.999999 0.000977516 0.000977516 
-0.5 0.333361 -0.94336 -0.999999 0.000977516 0.000977516 
-0.5 0.326526 -0.915497 -0.999999 0.000977516 0.000977516 
-0.5 0.364523 -1.1127 -0.999999 0.000977516 0.000977516 
-0.5 0.231294 -0.989527 -0.999999 0.000977516 0.000977516 
-0.5 0.39601 -0.457786 -0.999999 0.000977516 0.000977516 
-0.5 0.482264 -1.018 -0.999999 0.000977516 0.000977516 
-0.5 0.429188 -0.331593 -0.999999 0.000977516 0.000977516 
-0.5 -0.11031 -0.994932 -0.999999 0.000977516 0.000977516 
-0.5 0.0637206 -0.900292 -0.999999 0.000977516 0.000977516 
-0.5 0.438765 -0.454319 -0.999999 0.000977516 0.000977516 
-0.5 0.380699 -1.19274 -0.999999 0.000977516 0.000977516 
-0.5 0.182416 -1.18088 -0.999999 0.000977516 0.000977516 
-0.5 0.461949 -0.810387 -0.999999 0.000977516 0.000977516 
-0.5 -0.0446335 -0.775611 -0.999999 0.000977516 0.000977516 
-0.5 0.0347307 -0.949975 -0.999999 0.000977516 0.000977516 
-0.5 0.202281 -0.970825 -0.999999 0.000977516 0.000977516 
-0.5 0.4522 -0.662778 -0.999999 0.000977516 0.000977516 
-0.5 0.393597 -0.396463 -0.999999 0.000977516 0.000977516 
-0.5 0.0638734 -1.04214 -0.999999 0.000977516 0.000977516 
-0.5 0.216976 -0.849004 -0.999999 0.000977516 0.000977516 
-0.5 -0.307648 -1.15335 -0.999999 0.000977516 0.000977516 
-0.5 -0.00190747 -0.92133 -0.999999 0.000977516 0.000977516 
-0.5 -0.301575 -1.16222 -0.999999 0.000977516 0.000977516 
-0.5 -0.384687 -0.619834 -0.999999 0.000977516 0.000977516 
-0.5 0.23499 -0.276445 -0.999999 0.000977516 0.000977516 
-0.5 0.378686 -0.261413 -0.999999 0.000977516 0.000977516 
-0.5 -0.0428857 -0.311778 -0.999999 0.000977516 0.000977516 
-0.5 -0.473173 -0.786082 -0.999999 0.000977516 0.000977516 
-0.5 -0.0718684 -0.718049 -0.999999 0.000977516 0.000977516 
-0.5 -0.224091 -0.305603 -0.999999 0.000977516 0.000977516 
-0.5 -0.101198 -0.509116 -0.999999 0.000977516 0.000977516 
-0.5 -0.0702939 -0.339957 -0.999999 0.000977516 0.000977516 
-0.5 -0.396732 -0.409958 -0.999999 0.000977516 0.000977516 
-0.5 -0.353544 -0.767585 -0.999999 0.000977516 0.000977516 
-0.5 -0.43111 -0.27635 -0.999999 0.000977516 0.000977516 
-0.5 -0.322826 -0.835017 -0.999999 0.000977516 0.000977516 
-0.5 0.176473 -0.50771 -0.999999 0.000977516 0.000977516 
-0.5 0.160512 -0.293205 -0.999999 0.000977516 0.000977516 
-0.5 -0.352732 -0.930801 -0.999999 0.000977516 0.000977516 
-0.5 -0.221041 -0.250242 -0.999999 0.000977516 0.000977516 
-0.5 -0.420883 -0.70879 -0.999999 0.000977516 0.000977516 
-0.5 -0.186173 -0.581084 -0.999999 0.000977516 0.000977516 
-0.5 0.129067 -0.468288 -0.999999 0.000977516 0.000977516 
-0.5 0.00786691 -0.351861 -0.999999 0.000977516 0.000977516 
-0.5 0.0236091 -0.3036 -0.999999 0.000977516 0.000977516 
-0.5 0.26938 -0.281293 -0.999999 0.000977516 0.000977516 
-0.5 -8.54797e-05 -0.688661 -0.999999 0.000977516 0.000977516 
-0.5 -0.275885 -0.521609 -0.999999 0.000977516 0.000977516 
-0.5 0.126436 -0.200008 -0.999999 0.000977516 0.000977516 
-0.5 -0.0502136 -0.627034 -0.999999 0.000977516 0.000977516 
-0.5 -0.0920265 -0.767062 -0.999999 0.000977516 0.000977516 
-0.5 0.216508 -0.309626 -0.999999 0.000977516 0.000977516 
-0.5 -0.295817 -0.69319 -0.999999 0.000977516 0.000977516 
-0.5 0.101809 -0.218849 -0.999999 0.000977516 0.000977516 
-0.5 -0.380473 -0.822921 -0.999999 0.000977516 0.000977516 
-0.5 -0.46945 -0.200567 -0.999999 0.000977516 0.000977516 
-0.5 -0.292412 -0.574051 -0.999999 0.000977516 0.000977516 
-0.5 -0.286872 -0.253865 -0.999999 0.000977516 0.000977516 
-0.5 -0.395719 -0.307383 -0.999999 0.000977516 0.000977516 
-0.5 -0.34042 -0.980863 -0.999999 0.000977516 0.000977516 
-0.5 -0.291591 -0.66999 -0.999999 0.000977516 0.000977516 
-0.5 -0.409031 -0.955983 -0.999999 0.000977516 0.000977516 
-0.5 -0.344497 -0.959312 -0.999999 0.000977516 0.000977516 
-0.5 0.190884 -0.275809 -0.999999 0.000977516 0.000977516 
-0.5 -0.0867468 -0.783472 -0.999999 0.000977516 0.000977516 
-0.5 -0.414773 -0.583091 -0.999999 0.000977516 0.000977516 
-0.5 -0.481087 -0.778816 -0.999999 0.000977516 0.000977516 
-0.5 -0.0755547 -0.622646 -0.999999 0.000977516 0.000977516 
-0.5 -0.351989 -0.693327 -0.999999 0.000977516 0.000977516 
-0.5 -0.395589 -0.719109 -0.999999 0.000977516 0.000977516 
-0.5 -0.449981 -1.09404 -0.999999 0.000977516 0.000977516 
-0.5 -0.400747 -0.877925 -0.999999 0.000977516 0.000977516 
-0.5 -0.357548 -0.224549 -0.999999 0.000977516 0.000977516 
-0.5 -0.151995 -0.359131 -0.999999 0.000977516 0.000977516 
-0.5 -0.347089 -0.604651 -0.999999 0.000977516 0.000977516 
-0.5 -0.285247 -0.944989 -0.999999 0.000977516 0.000977516 
-0.5 -0.0208306 -0.23217 -0.999999 0.000977516 0.000977516 
-0.5 0.013635 -0.378972 -0.999999 0.000977516 0.000977516 
-0.5 -0.479521 -0.22041 -0.999999 0.000977516 0.000977516 
-0.5 0.230176 -0.378205 -0.999999 0.000977516 0.000977516 
-0.5 -0.114267 -0.66191 -0.999999 0.000977516 0.000977516 
-0.5 -0.397619 -0.988142 -0.999999 0.000977516 0.000977516 
-0.5 -0.319338 -0.790629 -0.999999 0.000977516 0.000977516 
-0.5 -0.430005 -0.398975 -0.999999 0.000977516 0.000977516 
-0.5 -0.487884 -0.604733 -0.999999 0.000977516 0.000977516 
-0.5 -0.0933629 -0.307591 -0.999999 0.000977516 0.000977516 
-0.5 -0.10029 -0.56527 -0.999999 0.000977516 0.000977516 
-0.5 -0.118638 -0.558019 -0.999999 0.000977516 0.000977516 
-0.5 0.406819 -0.242481 -0.999999 0.000977516 0.000977516 
-0.5 -0.0247224 -0.25814 -0.999999 0.000977516 0.000977516 
-0.5 0.0656378 -0.595459 -0.999999 0.000977516 0.000977516 
-0.5 -0.252665 -0.517175 -0.999999 0.000977516 0.000977516 
-0.5 -0.124915 -0.20178 -0.999999 0.000977516 0.000977516 
-0.5 -0.384907 -0.312185 -0.999999 0.000977516 0.000977516 
-0.5 -0.314683 -0.578705 -0.999999 0.000977516 0.000977516 
-0.5 -0.179201 -0.674194 -0.999999 0.000977516 0.000977516 
-0.5 -0.403507 -0.203396 -0.999999 0.000977516 0.000977516 
-0.5 -0.186543 -0.720403 -0.999999 0.000977516 0.000977516 
-0.5 -0.266333 -0.803317 -0.999999 0.000977516 0.000977516 
-0.5 -0.38598 -0.851448 -0.999999 0.000977516 0.000977516 
-0.5 -0.26262 -0.859462 -0.999999 0.000977516 0.000977516 
-0.5 -0.281361 -0.592342 -0.999999 0.000977516 0.000977516 
-0.5 0.158447 -0.452135 -0.999999 0.000977516 0.000977516 
-0.5 -0.0510517 -0.728203 -0.999999 0.000977516 0.000977516 
-0.5 0.0291063 -0.342932 -0.999999 0.000977516 0.000977516 
-0.5 -0.174019 -0.274794 -0.999999 0.000977516 0.000977516 
-0.5 0.0798139 -0.483651 -0.999999 0.000977516 0.000977516 
-0.5 -0.446782 -0.707834 -0.999999 0.000977516 0.000977516 
-0.5 -0.156591 -0.585862 -0.999999 0.000977516 0.000977516 
-0.5 -0.295603 -0.884096 -0.999999 0.000977516 0.000977516 
-0.5 -0.115321 -0.749913 -0.999999 0.000977516 0.000977516 
-0.5 -0.136901 -0.63328 -0.999999 0.000977516 0.000977516 
-0.5 0.0319193 -0.608537 -0.999999 0.000977516 0.000977516 
-0.5 -0.36286 -0.622004 -0.999999 0.000977516 0.000977516 
-0.5 -0.352039 -0.743613 -0.999999 0.000977516 0.000977516 
-0.5 -0.123565 -0.258555 -0.999999 0.000977516 0.000977516 
-0.5 -0.22693 -0.865769 -0.999999 0.000977516 0.000977516 
-0.5 -0.422786 -0.59568 -0.999999 0.000977516 0.000977516 
-0.5 0.0168958 -0.640893 -0.999999 0.000977516 0.000977516 
-0.5 -0.338696 -0.418042 -0.999999 0.000977516 0.000977516 
-0.5 0.431483 -0.267443 -0.999999 0.000977516 0.000977516 
-0.5 0.0938246 -0.31381 -0.999999 0.000977516 0.000977516 
-0.5 -0.304872 -0.413615 -0.999999 0.000977516 0.000977516 
-0.5 -0.251174 -0.672619 -0.999999 0.000977516 0.000977516 
-0.5 -0.459645 -1.05343 -0.999999 0.000977516 0.000977516 
-0.5 -0.229007 -0.583449 -0.999999 0.000977516 0.000977516 
-0.5 -0.0540941 -0.565785 -0.999999 0.000977516 0.000977516 
-0.5 -0.0199461 -0.43274 -0.999999 0.000977516 0.000977516 
-0.5 0.0465951 -0.374653 -0.999999 0.000977516 0.000977516 
-0.5 0.0175711 -0.624499 -0.999999 0.000977516 0.000977516 
-0.5 -0.354844 -0.515712 -0.999999 0.000977516 0.000977516 
-0.5 -0.251966 -0.560362 -0.999999 0.000977516 0.000977516 
-0.5 -0.484719 -0.989591 -0.999999 0.000977516 0.000977516 
-0.5 -0.349199 -0.660984 -0.999999 0.000977516 0.000977516 
-0.5 -0.326664 -0.748723 -0.999999 0.000977516 0.000977516 
-0.5 -0.241311 -0.300468 -0.999999 0.000977516 0.000977516 
-0.5 -0.480489 -0.561648 -0.999999 0.000977516 0.000977516 
-0.5 -0.0941207 -0.650004 -0.999999 0.000977516 0.000977516 
-0.5 0.0444485 -0.24692 -0.999999 0.000977516 0.000977516 
-0.5 -0.015654 -0.597152 -0.999999 0.000977516 0.000977516 
-0.5 -0.436154 -0.372579 -0.999999 0.000977516 0.000977516 
-0.5 -0.272336 -0.444431 -0.999999 0.000977516 0.000977516 
-0.5 -0.295276 -0.994675 -0.999999 0.000977516 0.000977516 
-0.5 -0.349857 -0.358714 -0.999999 0.000977516 0.000977516 
-0.5 -0.379362 -0.919926 -0.999999 0.000977516 0.000977516 
-0.5 -0.315185 -0.803943 -0.999999 0.000977516 0.000977516 
-0.5 -0.372753 -0.698574 -0.999999 0.000977516 0.000977516 
-0.5 -0.336539 -0.661379 -0.999999 0.000977516 0.000977516 
-0.5 -0.0191119 -0.215364 -0.999999 0.000977516 0.000977516 
-0.5 -0.177451 -0.358329 -0.999999 0.000977516 0.000977516 
-0.5 -0.151549 -0.244812 -0.999999 0.000977516 0.000977516 
-0.5 0.0557762 -0.322897 -0.999999 0.000977516 0.000977516 
-0.5 0.295543 -0.25457 -0.999999 0.000977516 0.000977516 
-0.5 -0.152133 -0.268137 -0.999999 0.000977516 0.000977516 
-0.5 -0.491321 -1.06335 -0.999999 0.000977516 0.000977516 
-0.5 -0.384793 -0.247586 -0.999999 0.000977516 0.000977516 
-0.5 0.388523 -0.204252 -0.999999 0.000977516 0.000977516 
-0.5 -0.282931 -0.276262 -0.999999 0.000977516 0.000977516 
-0.5 -0.168797 -0.261724 -0.999999 0.000977516 0.000977516 
-0.5 -0.441546 -0.54272 -0.999999 0.000977516 0.000977516 
-0.5 -0.196303 -0.602335 -0.999999 0.000977516 0.000977516 
-0.5 -0.0597372 -0.507329 -0.999999 0.000977516 0.000977516 
-0.5 -0.397825 -0.39757 -0.999999 0.000977516 0.000977516 
-0.5 -0.349526 -0.755227 -0.999999 0.000977516 0.000977516 
-0.5 0.282961 -0.337516 -0.999999 0.000977516 0.000977516 
-0.5 0.0732462 -0.345893 -0.999999 0.000977516 0.000977516 
-0.5 0.0450123 -0.593973 -0.999999 0.000977516 0.000977516 
-0.5 0.0619337 -0.251589 -0.999999 0.000977516 0.000977516 
-0.5 -0.36954 -0.406536 -0.999999 0.000977516 0.000977516 
-0.5 0.0586584 -0.528478 -0.999999 0.000977516 0.000977516 
-0.5 -0.239173 -0.433708 -0.999999 0.000977516 0.000977516 
-0.5 -0.248442 -0.886465 -0.999999 0.000977516 0.000977516 
-0.5 0.394851 -0.258808 -0.999999 0.000977516 0.000977516 
-0.5 -0.25696 -0.6159 -0.999999 0.000977516 0.000977516 
-0.5 -0.28138 -0.784065 -0.999999 0.000977516 0.000977516 
-0.5 -0.159245 -0.489686 -0.999999 0.000977516 0.000977516 
-0.5 -0.376813 -0.738408 -0.999999 0.000977516 0.000977516 
-0.5 -0.312975 -0.502021 -0.999999 0.000977516 0.000977516 
-0.5 -0.365404 -0.936383 -0.999999 0.000977516 0.000977516 
-0.5 -0.35657 -0.702754 -0.999999 0.000977516 0.000977516 
-0.5 0.163323 -0.435996 -0.999999 0.000977516 0.000977516 
-0.5 0.00807968 -0.678224 -0.999999 0.000977516 0.000977516 
-0.5 -0.386789 -0.423354 -0.999999 0.000977516 0.000977516 
-0.5 0.0806363 -0.330878 -0.999999 0.000977516 0.000977516 
-0.5 -0.389534 -0.439632 -0.999999 0.000977516 0.000977516 
-0.5 0.25974 -0.254685 -0.999999 0.000977516 0.000977516 
-0.5 0.447456 -0.225087 -0.999999 0.000977516 0.000977516 
-0.5 -0.0436929 -0.40519 -0.999999 0.000977516 0.000977516 
-0.5 0.398024 -0.21875 -0.999999 0.000977516 0.000977516 
-0.5 -0.202886 -0.258998 -0.999999 0.000977516 0.000977516 
-0.5 -0.431532 -0.433733 -0.999999 0.000977516 0.000977516 
-0.5 -0.324245 -0.442837 -0.999999 0.000977516 0.000977516 
-0.5 -0.398152 -0.248036 -0.999999 0.000977516 0.000977516 
-0.5 0.1071 -0.314501 -0.999999 0.000977516 0.000977516 
-0.5 -0.471471 -1.01028 -0.999999 0.000977516 0.000977516 
-0.5 -0.443376 -0.68838 -0.999999 0.000977516 0.000977516 
-0.5 -0.426897 -0.887887 -0.999999 0.000977516 0.000977516 
-0.5 0.0976636 -0.376849 -0.999999 0.000977516 0.000977516 
-0.5 0.168271 -0.248235 -0.999999 0.000977516 0.000977516 
-0.5 0.221223 -0.225322 -0.999999 0.000977516 0.000977516 
-0.5 0.231639 -0.343046 -0.999999 0.000977516 0.000977516 
-0.5 -0.426671 -0.655964 -0.999999 0.000977516 0.000977516 
-0.5 0.166829 -0.51985 -0.999999 0.000977516 0.000977516 
-0.5 -0.366132 -0.246039 -0.999999 0.000977516 0.000977516 
-0.5 -0.132961 -0.652038 -0.999999 0.000977516 0.000977516 
-0.5 0.141993 -0.431576 -0.999999 0.000977516 0.000977516 
-0.5 0.0718354 -0.407614 -0.999999 0.000977516 0.000977516 
-0.5 -0.0673989 -0.471666 -0.999999 0.000977516 0.000977516 
-0.5 0.13626 -0.53958 -0.999999 0.000977516 0.000977516 
-0.5 -0.0430361 -0.720086 -0.999999 0.000977516 0.000977516 
-0.5 -0.148368 -0.776685 -0.999999 0.000977516 0.000977516 
-0.5 -0.408888 -0.972533 -0.999999 0.000977516 0.000977516 
-0.5 -0.114663 -0.270375 -0.999999 0.000977516 0.000977516 
-0.5 -0.403049 -0.631569 -0.999999 0.000977516 0.000977516 
-0.5 -0.0809315 -0.595426 -0.999999 0.000977516 0.000977516 
-0.5 -0.442057 -0.523246 -0.999999 0.000977516 0.000977516 
-0.5 0.0850112 -0.302167 -0.999999 0.000977516 0.000977516 
-0.5 0.123707 -0.242169 -0.999999 0.000977516 0.000977516 
-0.5 -0.151057 -0.739632 -0.999999 0.000977516 0.000977516 
-0.5 -0.166751 -0.383276 -0.999999 0.000977516 0.000977516 
-0.5 -0.410749 -0.702108 -0.999999 0.000977516 0.000977516 
-0.5 -0.0628847 -0.526339 -0.999999 0.000977516 0.000977516 
-0.5 -0.138487 -0.324921 -0.999999 0.000977516 0.000977516 
-0.5 0.157906 -0.505619 -0.999999 0.000977516 0.000977516 
-0.5 -0.392263 -0.768264 -0.999999 0.000977516 0.000977516 
-0.5 -0.0487391 -0.45317 -0.999999 0.000977516 0.000977516 
-0.5 -0.173598 -0.699052 -0.999999 0.000977516 0.000977516 
-0.5 -0.00316077 -0.256222 -0.999999 0.000977516 0.000977516 
-0.5 -0.221559 -0.74093 -0.999999 0.000977516 0.000977516 
-0.5 -0.00434155 -0.595762 -0.999999 0.000977516 0.000977516 
-0.5 -0.322815 -0.37779 -0.999999 0.000977516 0.000977516 
-0.5 -0.32901 -0.462997 -0.999999 0.000977516 0.000977516 
-0.5 -0.312372 -0.768744 -0.999999 0.000977516 0.000977516 
-0.5 -0.303256 -0.988477 -0.999999 0.000977516 0.000977516 
-0.5 0.288911 -0.356033 -0.999999 0.000977516 0.000977516 
-0.5 -0.31497 -0.200353 -0.999999 0.000977516 0.000977516 
-0.5 -0.124216 -0.354984 -0.999999 0.000977516 0.000977516 
-0.5 -0.222606 -0.602886 -0.999999 0.000977516 0.000977516 
-0.5 0.128284 -0.363535 -0.999999 0.000977516 0.000977516 
-0.5 -0.194354 -0.543517 -0.999999 0.000977516 0.000977516 
-0.5 0.33541 -0.239637 -0.999999 0.000977516 0.000977516 
-0.5 0.235247 -0.25475 -0.999999 0.000977516 0.000977516 
-0.5 -0.437544 -0.561952 -0.999999 0.000977516 0.000977516 
-0.5 0.0907591 -0.456201 -0.999999 0.000977516 0.000977516 
-0.5 -0.34106 -0.581828 -0.999999 0.000977516 0.000977516 
-0.5 0.362382 -0.22393 -0.999999 0.000977516 0.000977516 
-0.5 -0.205589 -0.841538 -0.999999 0.000977516 0.000977516 
-0.5 -0.106817 -0.276722 -0.999999 0.000977516 0.000977516 
-0.5 -0.142824 -0.582382 -0.999999 0.000977516 0.000977516 
-0.5 -0.0862645 -0.436956 -0.999999 0.000977516 0.000977516 
-0.5 -0.167862 -0.405335 -0.999999 0.000977516 0.000977516 
-0.5 -0.0349442 -0.660019 -0.999999 0.000977516 0.000977516 
-0.5 -0.425178 -0.816256 -0.999999 0.000977516 0.000977516 
-0.5 -0.28544 -0.43394 -0.999999 0.000977516 0.000977516 
-0.5 0.146144 -0.551381 -0.999999 0.000977516 0.000977516 
-0.5 -0.315927 -0.7537 -0.999999 0.000977516 0.000977516 
-0.5 -0.15572 -0.760275 -0.999999 0.000977516 0.000977516 
-0.5 0.327185 -0.354481 -0.999999 0.000977516 0.000977516 
-0.5 0.253713 -0.359519 -0.999999 0.000977516 0.000977516 
-0.5 -0.127115 -0.299816 -0.999999 0.000977516 0.000977516 
-0.5 -0.455647 -0.916094 -0.999999 0.000977516 0.000977516 
-0.5 0.173723 -0.387839 -0.999999 0.000977516 0.000977516 
-0.5 -0.0382585 -0.729008 -0.999999 0.000977516 0.000977516 
-0.5 -0.105981 -0.354786 -0.999999 0.000977516 0.000977516 
-0.5 -0.0162571 -0.559104 -0.999999 0.000977516 0.000977516 
-0.5 -0.145844 -0.539749 -0.999999 0.000977516 0.000977516 
-0.5 -0.452441 -0.247501 -0.999999 0.000977516 0.000977516 
-0.5 0.0373891 -0.320545 -0.999999 0.000977516 0.000977516 
-0.5 -0.0251537 -0.499793 -0.999999 0.000977516 0.000977516 
-0.5 -0.410492 -0.565149 -0.999999 0.000977516 0.000977516 
-0.5 -0.178461 -0.404789 -0.999999 0.000977516 0.000977516 
-0.5 -0.302559 -0.757039 -0.999999 0.000977516 0.000977516 
-0.5 -0.474222 -1.06621 -0.999999 0.000977516 0.000977516 
-0.5 -0.416763 -0.225213 -0.999999 0.000977516 0.000977516 
-0.5 0.0811936 -0.502059 -0.999999 0.000977516 0.000977516 
-0.5 -0.128188 -0.758501 -0.999999 0.000977516 0.000977516 
-0.5 -0.403132 -0.784456 -0.999999 0.000977516 0.000977516 
-0.5 0.152762 -0.334746 -0.999999 0.000977516 0.000977516 
-0.5 -0.310293 -0.308609 -0.999999 0.000977516 0.000977516 
-0.5 -0.345343 -0.33871 -0.999999 0.000977516 0.000977516 
-0.5 0.0326101 -0.203733 -0.999999 0.000977516 0.000977516 
-0.5 0.305931 -0.376907 -0.999999 0.000977516 0.000977516 
-0.5 -0.316916 -0.458194 -0.999999 0.000977516 0.000977516 
-0.5 -0.312187 -0.612765 -0.999999 0.000977516 0.000977516 
-0.5 -0.245761 -0.73036 -0.999999 0.000977516 0.000977516 
-0.5 -0.440463 -0.336671 -0.999999 0.000977516 0.000977516 
-0.5 -0.152169 -0.667664 -0.999999 0.000977516 0.000977516 
-0.5 -0.0872924 -0.423153 -0.999999 0.000977516 0.000977516 
-0.5 0.181527 -0.482187 -0.999999 0.000977516 0.000977516 
-0.5 -0.0259265 -0.284086 -0.999999 0.000977516 0.000977516 
-0.5 0.35239 -0.242144 -0.999999 0.000977516 0.000977516 
-0.5 -0.423498 -0.472211 -0.999999 0.000977516 0.000977516 
-0.5 0.013881 -0.327042 -0.999999 0.000977516 0.000977516 
-0.5 -0.0819639 -0.506565 -0.999999 0.000977516 0.000977516 
-0.5 -0.222852 -0.29536 -0.999999 0.000977516 0.000977516 
-0.5 -0.462223 -0.429641 -0.999999 0.000977516 0.000977516 
-0.5 -0.403044 -0.346578 -0.999999 0.000977516 0.000977516 
-0.5 -0.301055 -0.895592 -0.999999 0.000977516 0.000977516 
-0.5 0.144131 -0.200458 -0.999999 0.000977516 0.000977516 
-0.5 -0.400241 -0.817817 -0.999999 0.000977516 0.000977516 
-0.5 0.0419076 -0.475362 -0.999999 0.000977516 0.000977516 
-0.5 -0.43066 -0.321988 -0.999999 0.000977516 0.000977516 
-0.5 -0.157134 -0.681766 -0.999999 0.000977516 0.000977516 
-0.5 0.0872706 -0.515344 -0.999999 0.000977516 0.000977516 
-0.5 -0.460675 -0.693163 -0.999999 0.000977516 0.000977516 
-0.5 0.174495 -0.346894 -0.999999 0.000977516 0.000977516 
-0.5 -0.268425 -0.281801 -0.999999 0.000977516 0.000977516 
-0.5 -0.246986 -0.546535 -0.999999 0.000977516 0.000977516 
-0.5 -0.0895329 -0.449563 -0.999999 0.000977516 0.000977516 
-0.5 -0.370909 -0.633034 -0.999999 0.000977516 0.000977516 
-0.5 0.107216 -0.494536 -0.999999 0.000977516 0.000977516 
-0.5 -0.268593 -0.218787 -0.999999 0.000977516 0.000977516 
-0.5 -0.448141 -0.663538 -0.999999 0.000977516 0.000977516 
-0.5 -0.295385 -0.499966 -0.999999 0.000977516 0.000977516 
-0.5 -0.172675 -0.819904 -0.999999 0.000977516 0.000977516 
-0.5 0.111898 -0.408673 -0.999999 0.000977516 0.000977516 
-0.5 -0.306502 -0.55176 -0.999999 0.000977516 0.000977516 
-0.5 -0.369089 -0.596964 -0.999999 0.000977516 0.000977516 
-0.5 -0.130286 -0.471328 -0.999999 0.000977516 0.000977516 
-0.5 -0.0502876 -0.204909 -0.999999 0.000977516 0.000977516 
-0.5 -0.451361 -0.319763 -0.999999 0.000977516 0.000977516 
-0.5 -0.476715 -0.28343 -0.999999 0.000977516 0.000977516 
-0.5 -0.171733 -0.500639 -0.999999 0.000977516 0.000977516 
-0.5 -0.276734 -0.915979 -0.999999 0.000977516 0.000977516 
-0.5 0.111898 -0.382196 -0.999999 0.000977516 0.000977516 
-0.5 -0.324869 -0.518455 -0.999999 0.000977516 0.000977516 
-0.5 -0.144845 -0.611196 -0.999999 0.000977516 0.000977516 
-0.5 -0.415576 -0.3309 -0.999999 0.000977516 0.000977516 
-0.5 -0.328254 -0.771659 -0.999999 0.000977516 0.000977516 
-0.5 -0.330806 -0.972654 -0.999999 0.000977516 0.000977516 
-0.5 0.236459 -0.425283 -0.999999 0.000977516 0.000977516 
-0.5 -0.112914 -0.204656 -0.999999 0.000977516 0.000977516 
-0.5 -0.150516 -0.483524 -0.999999 0.000977516 0.000977516 
-0.5 -0.452414 -0.641174 -0.999999 0.000977516 0.000977516 
-0.5 -0.381055 -0.596122 -0.999999 0.000977516 0.000977516 
-0.5 -0.393555 -1.00252 -0.999999 0.000977516 0.000977516 
-0.5 0.118451 -0.569398 -0.999999 0.000977516 0.000977516 
-0.5 -0.444857 -0.615047 -0.999999 0.000977516 0.000977516 
-0.5 0.2613 -0.405083 -0.999999 0.000977516 0.000977516 
-0.5 -0.0449356 -0.393447 -0.999999 0.000977516 0.000977516 
-0.5 -0.251163 -0.898567 -0.999999 0.000977516 0.000977516 
-0.5 -0.27728 -0.638859 -0.999999 0.000977516 0.000977516 
-0.5 -0.342514 -0.728757 -0.999999 0.000977516 0.000977516 
-0.5 0.173135 -0.474972 -0.999999 0.000977516 0.000977516 
-0.5 -0.20313 -0.534361 -0.999999 0.000977516 0.000977516 
-0.5 -0.112447 -0.790393 -0.999999 0.000977516 0.000977516 
-0.5 -0.280302 -0.28687 -0.999999 0.000977516 0.000977516 
-0.5 0.159982 -0.41835 -0.999999 0.000977516 0.000977516 
-0.5 -0.493506 -0.807738 -0.999999 0.000977516 0.000977516 
-0.5 -0.05434 -0.678922 -0.999999 0.000977516 0.000977516 
-0.5 -0.226 -0.69345 -0.999999 0.000977516 0.000977516 
-0.5 -0.4206 -0.959896 -0.999999 0.000977516 0.000977516 
-0.5 -0.487464 -0.618849 -0.999999 0.000977516 0.000977516 
-0.5 -0.315899 -0.473013 -0.999999 0.000977516 0.000977516 
-0.5 -0.31451 -0.282556 -0.999999 0.000977516 0.000977516 
-0.5 -0.424739 -0.867519 -0.999999 0.000977516 0.000977516 
-0.5 -0.17064 -0.422161 -0.999999 0.000977516 0.000977516 
-0.5 -0.394535 -0.752097 -0.999999 0.000977516 0.000977516 
-0.5 0.195699 -0.297875 -0.999999 0.000977516 0.000977516 
-0.5 -0.260642 -0.838726 -0.999999 0.000977516 0.000977516 
-0.5 0.146692 -0.49051 -0.999999 0.000977516 0.000977516 
-0.5 0.264882 -0.331427 -0.999999 0.000977516 0.000977516 
-0.5 0.245528 -0.286147 -0.999999 0.000977516 0.000977516 
-0.5 -0.301665 -0.470392 -0.999999 0.000977516 0.000977516 
-0.5 -0.441191 -0.979509 -0.999999 0.000977516 0.000977516 
-0.5 -0.0123037 -0.402464 -0.999999 0.000977516 0.000977516 
-0.5 -0.191604 -0.263092 -0.999999 0.000977516 0.000977516 
-0.5 -0.48843 -0.906565 -0.999999 0.000977516 0.000977516 
-0.5 -0.241358 -0.264812 -0.999999 0.000977516 0.000977516 
-0.5 -0.451695 -0.43313 -0.999999 0.000977516 0.000977516 
-0.5 -0.254019 -0.765292 -0.999999 0.000977516 0.000977516 
-0.5 -0.360868 -0.74961 -0.999999 0.000977516 0.000977516 
-0.5 -0.137794 -0.485516 -0.999999 0.000977516 0.000977516 
