ply
format ascii 1.0
comment Created by CloudCompare v2.11.3 (Anoia)
comment Created 15/04/2022 13:32
obj_info Generated by CloudCompare!
element vertex 773
property float x
property float y
property float z
property float nx
property float ny
property float nz
end_header
-0.0534025 0.398125 -0.0389358 0.000977516 -0.999999 0.000977516 
0.0111533 0.398125 -0.0289074 0.000977516 -0.999999 0.000977516 
-0.0282364 0.398125 -0.0259032 0.000977516 -0.999999 0.000977516 
0.0348926 0.398125 -0.0344285 0.000977516 -0.999999 0.000977516 
-0.0426847 0.398125 -0.0198126 0.000977516 -0.999999 0.000977516 
-0.0376144 0.398125 -0.0397528 0.000977516 -0.999999 0.000977516 
0.0218408 0.398125 -0.0309306 0.000977516 -0.999999 0.000977516 
-0.0451934 0.398125 -0.0089759 0.000977516 -0.999999 0.000977516 
-0.119928 0.15003 0.04375 0.000977516 0.000977516 -0.999999 
-0.170651 0.073857 0.04375 0.000977516 0.000977516 -0.999999 
-0.149022 0.094955 0.04375 0.000977516 0.000977516 -0.999999 
-0.115566 0.323819 0.04375 0.000977516 0.000977516 -0.999999 
-0.115304 0.20858 0.04375 0.000977516 0.000977516 -0.999999 
-0.12171 0.290839 0.04375 0.000977516 0.000977516 -0.999999 
-0.143642 0.154399 0.04375 0.000977516 0.000977516 -0.999999 
-0.126452 0.210294 0.04375 0.000977516 0.000977516 -0.999999 
-0.100448 0.345668 0.04375 0.000977516 0.000977516 -0.999999 
-0.130322 0.163255 0.04375 0.000977516 0.000977516 -0.999999 
-0.103529 0.329064 0.04375 0.000977516 0.000977516 -0.999999 
-0.134591 0.199773 0.04375 0.000977516 0.000977516 -0.999999 
-0.157837 0.165 0.04375 0.000977516 0.000977516 -0.999999 
-0.113198 0.0906245 0.04375 0.000977516 0.000977516 -0.999999 
-0.0998 0.376957 0.04375 0.000977516 0.000977516 -0.999999 
-0.153968 0.116158 0.04375 0.000977516 0.000977516 -0.999999 
-0.148102 0.16887 0.04375 0.000977516 0.000977516 -0.999999 
-0.106823 0.228765 0.04375 0.000977516 0.000977516 -0.999999 
-0.127738 0.0988805 0.04375 0.000977516 0.000977516 -0.999999 
-0.133171 0.0748975 0.04375 0.000977516 0.000977516 -0.999999 
-0.157269 0.0745245 0.04375 0.000977516 0.000977516 -0.999999 
-0.132195 0.228807 0.04375 0.000977516 0.000977516 -0.999999 
-0.127495 0.274731 0.04375 0.000977516 0.000977516 -0.999999 
-0.102783 0.212359 0.04375 0.000977516 0.000977516 -0.999999 
-0.165641 0.131962 0.04375 0.000977516 0.000977516 -0.999999 
-0.0994475 0.195494 0.04375 0.000977516 0.000977516 -0.999999 
-0.171521 0.0882515 0.04375 0.000977516 0.000977516 -0.999999 
-0.117716 0.134467 0.04375 0.000977516 0.000977516 -0.999999 
-0.138484 0.210775 0.04375 0.000977516 0.000977516 -0.999999 
-0.115517 0.246434 0.04375 0.000977516 0.000977516 -0.999999 
-0.099008 0.074167 0.04375 0.000977516 0.000977516 -0.999999 
-0.155368 0.134917 0.04375 0.000977516 0.000977516 -0.999999 
-0.14521 0.134558 0.04375 0.000977516 0.000977516 -0.999999 
-0.136266 0.0918045 0.04375 0.000977516 0.000977516 -0.999999 
-0.119631 0.170685 0.04375 0.000977516 0.000977516 -0.999999 
-0.147289 0.198246 0.04375 0.000977516 0.000977516 -0.999999 
-0.117497 0.114795 0.04375 0.000977516 0.000977516 -0.999999 
-0.110378 0.304766 0.04375 0.000977516 0.000977516 -0.999999 
-0.162892 0.12184 0.04375 0.000977516 0.000977516 -0.999999 
-0.114146 0.219052 0.04375 0.000977516 0.000977516 -0.999999 
-0.11999 0.313598 0.04375 0.000977516 0.000977516 -0.999999 
-0.158272 0.147756 0.04375 0.000977516 0.000977516 -0.999999 
-0.159595 0.0925115 0.04375 0.000977516 0.000977516 -0.999999 
-0.134739 0.107721 0.04375 0.000977516 0.000977516 -0.999999 
-0.148194 0.181713 0.04375 0.000977516 0.000977516 -0.999999 
-0.107168 0.121902 0.04375 0.000977516 0.000977516 -0.999999 
-0.107566 0.161005 0.04375 0.000977516 0.000977516 -0.999999 
-0.135465 0.129873 0.04375 0.000977516 0.000977516 -0.999999 
-0.12847 0.137454 0.04375 0.000977516 0.000977516 -0.999999 
-0.132531 0.183353 0.04375 0.000977516 0.000977516 -0.999999 
-0.122928 0.236222 0.04375 0.000977516 0.000977516 -0.999999 
-0.100746 0.150722 0.04375 0.000977516 0.000977516 -0.999999 
-0.0987365 0.238594 0.04375 0.000977516 0.000977516 -0.999999 
-0.170482 0.377714 0.04375 0.000977516 0.000977516 -0.999999 
-0.16905 0.201266 0.04375 0.000977516 0.000977516 -0.999999 
-0.153952 0.215474 0.04375 0.000977516 0.000977516 -0.999999 
-0.121925 0.363999 0.04375 0.000977516 0.000977516 -0.999999 
-0.176863 0.21916 0.04375 0.000977516 0.000977516 -0.999999 
-0.120604 0.334793 0.04375 0.000977516 0.000977516 -0.999999 
-0.159394 0.344576 0.04375 0.000977516 0.000977516 -0.999999 
-0.173603 0.347109 0.04375 0.000977516 0.000977516 -0.999999 
-0.151563 0.304935 0.04375 0.000977516 0.000977516 -0.999999 
-0.143301 0.264753 0.04375 0.000977516 0.000977516 -0.999999 
-0.181209 0.309934 0.04375 0.000977516 0.000977516 -0.999999 
-0.176688 0.257743 0.04375 0.000977516 0.000977516 -0.999999 
-0.157159 0.251233 0.04375 0.000977516 0.000977516 -0.999999 
-0.152848 0.275229 0.04375 0.000977516 0.000977516 -0.999999 
-0.183316 0.130012 0.04375 0.000977516 0.000977516 -0.999999 
-0.166671 0.239108 0.04375 0.000977516 0.000977516 -0.999999 
-0.131887 0.28479 0.04375 0.000977516 0.000977516 -0.999999 
-0.128861 0.350218 0.04375 0.000977516 0.000977516 -0.999999 
-0.138183 0.339648 0.04375 0.000977516 0.000977516 -0.999999 
-0.155441 0.292599 0.04375 0.000977516 0.000977516 -0.999999 
-0.160495 0.282566 0.04375 0.000977516 0.000977516 -0.999999 
-0.136422 0.298649 0.04375 0.000977516 0.000977516 -0.999999 
-0.183746 0.157254 0.04375 0.000977516 0.000977516 -0.999999 
-0.174329 0.232502 0.04375 0.000977516 0.000977516 -0.999999 
-0.166359 0.158982 0.04375 0.000977516 0.000977516 -0.999999 
-0.149013 0.227973 0.04375 0.000977516 0.000977516 -0.999999 
-0.132451 0.312558 0.04375 0.000977516 0.000977516 -0.999999 
-0.14767 0.330848 0.04375 0.000977516 0.000977516 -0.999999 
-0.153581 0.262883 0.04375 0.000977516 0.000977516 -0.999999 
-0.182298 0.182107 0.04375 0.000977516 0.000977516 -0.999999 
-0.137037 0.380827 0.04375 0.000977516 0.000977516 -0.999999 
-0.145069 0.317658 0.04375 0.000977516 0.000977516 -0.999999 
-0.181445 0.335921 0.04375 0.000977516 0.000977516 -0.999999 
-0.160917 0.228895 0.04375 0.000977516 0.000977516 -0.999999 
-0.114633 0.38861 0.04375 0.000977516 0.000977516 -0.999999 
-0.17958 0.106854 0.04375 0.000977516 0.000977516 -0.999999 
-0.150678 0.37355 0.04375 0.000977516 0.000977516 -0.999999 
-0.167395 0.2995 0.04375 0.000977516 0.000977516 -0.999999 
-0.1817 0.321118 0.04375 0.000977516 0.000977516 -0.999999 
-0.178276 0.119679 0.04375 0.000977516 0.000977516 -0.999999 
-0.150521 0.354919 0.04375 0.000977516 0.000977516 -0.999999 
-0.12647 0.377913 0.04375 0.000977516 0.000977516 -0.999999 
-0.161598 0.319234 0.04375 0.000977516 0.000977516 -0.999999 
-0.14835 0.387178 0.04375 0.000977516 0.000977516 -0.999999 
-0.158443 0.196105 0.04375 0.000977516 0.000977516 -0.999999 
-0.171415 0.144522 0.04375 0.000977516 0.000977516 -0.999999 
-0.182926 0.276407 0.04375 0.000977516 0.000977516 -0.999999 
-0.138192 0.365608 0.04375 0.000977516 0.000977516 -0.999999 
-0.143061 0.288648 0.04375 0.000977516 0.000977516 -0.999999 
-0.16453 0.266475 0.04375 0.000977516 0.000977516 -0.999999 
0.031803 0.277351 0.04375 0.000977516 0.000977516 -0.999999 
0.0242238 0.197629 0.04375 0.000977516 0.000977516 -0.999999 
0.030318 0.265563 0.04375 0.000977516 0.000977516 -0.999999 
0.0394939 0.2222 0.04375 0.000977516 0.000977516 -0.999999 
0.0230924 0.23584 0.04375 0.000977516 0.000977516 -0.999999 
0.0423384 0.10977 0.04375 0.000977516 0.000977516 -0.999999 
-0.0523585 0.0815765 0.04375 0.000977516 0.000977516 -0.999999 
-0.0226125 0.166555 0.04375 0.000977516 0.000977516 -0.999999 
0.0298978 0.160552 0.04375 0.000977516 0.000977516 -0.999999 
0.0440593 0.235447 0.04375 0.000977516 0.000977516 -0.999999 
0.0387991 0.166449 0.04375 0.000977516 0.000977516 -0.999999 
-0.0186889 0.154308 0.04375 0.000977516 0.000977516 -0.999999 
0.0319661 0.212305 0.04375 0.000977516 0.000977516 -0.999999 
-0.0258748 0.0891155 0.04375 0.000977516 0.000977516 -0.999999 
0.00599535 0.113099 0.04375 0.000977516 0.000977516 -0.999999 
-0.00629445 0.159653 0.04375 0.000977516 0.000977516 -0.999999 
-0.0332792 0.0958915 0.04375 0.000977516 0.000977516 -0.999999 
-0.0138035 0.0824015 0.04375 0.000977516 0.000977516 -0.999999 
0.0578055 0.271664 0.04375 0.000977516 0.000977516 -0.999999 
0.0423315 0.262129 0.04375 0.000977516 0.000977516 -0.999999 
0.049577 0.326772 0.04375 0.000977516 0.000977516 -0.999999 
0.0440396 0.094741 0.04375 0.000977516 0.000977516 -0.999999 
0.05089 0.352941 0.04375 0.000977516 0.000977516 -0.999999 
0.0345048 0.307736 0.04375 0.000977516 0.000977516 -0.999999 
0.0539445 0.288565 0.04375 0.000977516 0.000977516 -0.999999 
0.0225872 0.217857 0.04375 0.000977516 0.000977516 -0.999999 
0.0346183 0.143889 0.04375 0.000977516 0.000977516 -0.999999 
0.00308307 0.223158 0.04375 0.000977516 0.000977516 -0.999999 
0.0588495 0.095277 0.04375 0.000977516 0.000977516 -0.999999 
0.025126 0.0929975 0.04375 0.000977516 0.000977516 -0.999999 
0.0247051 0.148344 0.04375 0.000977516 0.000977516 -0.999999 
0.0439116 0.1204 0.04375 0.000977516 0.000977516 -0.999999 
0.00748785 0.248592 0.04375 0.000977516 0.000977516 -0.999999 
0.00707675 0.198433 0.04375 0.000977516 0.000977516 -0.999999 
0.0453738 0.340111 0.04375 0.000977516 0.000977516 -0.999999 
0.0135705 0.090206 0.04375 0.000977516 0.000977516 -0.999999 
0.0190533 0.073477 0.04375 0.000977516 0.000977516 -0.999999 
0.058118 0.10622 0.04375 0.000977516 0.000977516 -0.999999 
0.0485002 0.298566 0.04375 0.000977516 0.000977516 -0.999999 
-0.0317839 0.076064 0.04375 0.000977516 0.000977516 -0.999999 
-0.0137391 0.193852 0.04375 0.000977516 0.000977516 -0.999999 
0.055006 0.0825865 0.04375 0.000977516 0.000977516 -0.999999 
0.0396721 0.197829 0.04375 0.000977516 0.000977516 -0.999999 
-0.0303785 0.123246 0.04375 0.000977516 0.000977516 -0.999999 
0.0464622 0.312871 0.04375 0.000977516 0.000977516 -0.999999 
0.051772 0.173008 0.04375 0.000977516 0.000977516 -0.999999 
0.024949 0.292659 0.04375 0.000977516 0.000977516 -0.999999 
0.023083 0.25543 0.04375 0.000977516 0.000977516 -0.999999 
0.0297741 0.125148 0.04375 0.000977516 0.000977516 -0.999999 
0.062707 0.127273 0.04375 0.000977516 0.000977516 -0.999999 
0.0476465 0.183821 0.04375 0.000977516 0.000977516 -0.999999 
0.0159799 0.168658 0.04375 0.000977516 0.000977516 -0.999999 
0.0543415 0.143114 0.04375 0.000977516 0.000977516 -0.999999 
0.0495306 0.194864 0.04375 0.000977516 0.000977516 -0.999999 
-0.0131231 0.100267 0.04375 0.000977516 0.000977516 -0.999999 
-0.0160033 0.122203 0.04375 0.000977516 0.000977516 -0.999999 
0.0435115 0.283881 0.04375 0.000977516 0.000977516 -0.999999 
0.053649 0.223973 0.04375 0.000977516 0.000977516 -0.999999 
-0.0047312 0.181269 0.04375 0.000977516 0.000977516 -0.999999 
0.0129104 0.228299 0.04375 0.000977516 0.000977516 -0.999999 
0.0127521 0.146341 0.04375 0.000977516 0.000977516 -0.999999 
0.0202509 0.266219 0.04375 0.000977516 0.000977516 -0.999999 
0.0053791 0.0726335 0.04375 0.000977516 0.000977516 -0.999999 
0.052741 0.258848 0.04375 0.000977516 0.000977516 -0.999999 
0.0489519 0.246098 0.04375 0.000977516 0.000977516 -0.999999 
-0.0248277 0.139658 0.04375 0.000977516 0.000977516 -0.999999 
0.0377271 0.0726495 0.04375 0.000977516 0.000977516 -0.999999 
-0.00649535 0.116438 0.04375 0.000977516 0.000977516 -0.999999 
0.044049 0.133455 0.04375 0.000977516 0.000977516 -0.999999 
0.00257853 0.264141 0.04375 0.000977516 0.000977516 -0.999999 
0.0079162 0.376859 0.04375 0.000977516 0.000977516 -0.999999 
-0.0334277 0.343392 0.04375 0.000977516 0.000977516 -0.999999 
-0.0276566 0.250897 0.04375 0.000977516 0.000977516 -0.999999 
-0.0115782 0.385923 0.04375 0.000977516 0.000977516 -0.999999 
-0.0556935 0.126502 0.04375 0.000977516 0.000977516 -0.999999 
-0.0405896 0.300564 0.04375 0.000977516 0.000977516 -0.999999 
-0.0399265 0.239749 0.04375 0.000977516 0.000977516 -0.999999 
-0.0457316 0.368198 0.04375 0.000977516 0.000977516 -0.999999 
-0.00627555 0.37064 0.04375 0.000977516 0.000977516 -0.999999 
0.0301313 0.371132 0.04375 0.000977516 0.000977516 -0.999999 
0.0147448 0.384757 0.04375 0.000977516 0.000977516 -0.999999 
-0.0116351 0.303791 0.04375 0.000977516 0.000977516 -0.999999 
-0.0540665 0.17302 0.04375 0.000977516 0.000977516 -0.999999 
-0.051325 0.310201 0.04375 0.000977516 0.000977516 -0.999999 
0.0335081 0.330761 0.04375 0.000977516 0.000977516 -0.999999 
-0.0494359 0.189136 0.04375 0.000977516 0.000977516 -0.999999 
-0.0565865 0.214687 0.04375 0.000977516 0.000977516 -0.999999 
0.00181587 0.356798 0.04375 0.000977516 0.000977516 -0.999999 
-0.0192755 0.262082 0.04375 0.000977516 0.000977516 -0.999999 
0.011945 0.312952 0.04375 0.000977516 0.000977516 -0.999999 
-0.0482616 0.20911 0.04375 0.000977516 0.000977516 -0.999999 
0.0223639 0.330703 0.04375 0.000977516 0.000977516 -0.999999 
-0.0385292 0.356447 0.04375 0.000977516 0.000977516 -0.999999 
-0.0424688 0.224145 0.04375 0.000977516 0.000977516 -0.999999 
0.0129382 0.294802 0.04375 0.000977516 0.000977516 -0.999999 
-0.0486263 0.333275 0.04375 0.000977516 0.000977516 -0.999999 
-0.00790795 0.28109 0.04375 0.000977516 0.000977516 -0.999999 
0.0145487 0.344833 0.04375 0.000977516 0.000977516 -0.999999 
0.040137 0.378412 0.04375 0.000977516 0.000977516 -0.999999 
-0.053688 0.143797 0.04375 0.000977516 0.000977516 -0.999999 
-0.0176935 0.367485 0.04375 0.000977516 0.000977516 -0.999999 
-0.0354038 0.142535 0.04375 0.000977516 0.000977516 -0.999999 
0.0203726 0.365027 0.04375 0.000977516 0.000977516 -0.999999 
-0.0373747 0.152463 0.04375 0.000977516 0.000977516 -0.999999 
-0.05575 0.198655 0.04375 0.000977516 0.000977516 -0.999999 
-0.0297059 0.313686 0.04375 0.000977516 0.000977516 -0.999999 
-0.0592005 0.333791 0.04375 0.000977516 0.000977516 -0.999999 
-0.0534095 0.375437 0.04375 0.000977516 0.000977516 -0.999999 
-0.0445345 0.1989 0.04375 0.000977516 0.000977516 -0.999999 
-0.052143 0.0999265 0.04375 0.000977516 0.000977516 -0.999999 
-0.0246351 0.193128 0.04375 0.000977516 0.000977516 -0.999999 
-0.0269079 0.283614 0.04375 0.000977516 0.000977516 -0.999999 
-0.0217978 0.358335 0.04375 0.000977516 0.000977516 -0.999999 
-0.0274773 0.222619 0.04375 0.000977516 0.000977516 -0.999999 
-0.00160404 0.332862 0.04375 0.000977516 0.000977516 -0.999999 
-0.056407 0.347248 0.04375 0.000977516 0.000977516 -0.999999 
-0.0629115 0.358674 0.04375 0.000977516 0.000977516 -0.999999 
0.0132851 0.276969 0.04375 0.000977516 0.000977516 -0.999999 
0.0266005 0.321066 0.04375 0.000977516 0.000977516 -0.999999 
0.049241 0.365344 0.04375 0.000977516 0.000977516 -0.999999 
-0.0058656 0.292366 0.04375 0.000977516 0.000977516 -0.999999 
-0.0342553 0.36607 0.04375 0.000977516 0.000977516 -0.999999 
-0.0402653 0.317309 0.04375 0.000977516 0.000977516 -0.999999 
0.0335879 0.348814 0.04375 0.000977516 0.000977516 -0.999999 
-0.0422493 0.379984 0.04375 0.000977516 0.000977516 -0.999999 
-0.00665475 0.234012 0.04375 0.000977516 0.000977516 -0.999999 
-0.0285963 0.175969 0.04375 0.000977516 0.000977516 -0.999999 
-0.0154036 0.223465 0.04375 0.000977516 0.000977516 -0.999999 
-0.0285905 0.206325 0.04375 0.000977516 0.000977516 -0.999999 
-0.061215 0.0926145 0.04375 0.000977516 0.000977516 -0.999999 
-0.0234661 0.327268 0.04375 0.000977516 0.000977516 -0.999999 
-0.0622925 0.181734 0.04375 0.000977516 0.000977516 -0.999999 
0.0550775 0.395846 0.04375 0.000977516 0.000977516 -0.999999 
0.00537615 0.390966 0.04375 0.000977516 0.000977516 -0.999999 
-0.0069351 0.320658 0.04375 0.000977516 0.000977516 -0.999999 
-0.0485343 0.282283 0.04375 0.000977516 0.000977516 -0.999999 
-0.00482768 0.249408 0.04375 0.000977516 0.000977516 -0.999999 
-0.0182195 0.27294 0.04375 0.000977516 0.000977516 -0.999999 
-0.0234522 0.338291 0.04375 0.000977516 0.000977516 -0.999999 
0.0251877 0.394619 0.04375 0.000977516 0.000977516 -0.999999 
-0.0606335 0.228561 0.04375 0.000977516 0.000977516 -0.999999 
0.185831 0.286633 0.04375 0.000977516 0.000977516 -0.999999 
0.137825 0.166531 0.04375 0.000977516 0.000977516 -0.999999 
0.169205 0.0731935 0.04375 0.000977516 0.000977516 -0.999999 
0.156285 0.27406 0.04375 0.000977516 0.000977516 -0.999999 
0.159913 0.0776725 0.04375 0.000977516 0.000977516 -0.999999 
0.179118 0.22723 0.04375 0.000977516 0.000977516 -0.999999 
0.170527 0.254445 0.04375 0.000977516 0.000977516 -0.999999 
0.121073 0.108201 0.04375 0.000977516 0.000977516 -0.999999 
0.163505 0.167351 0.04375 0.000977516 0.000977516 -0.999999 
0.142466 0.200885 0.04375 0.000977516 0.000977516 -0.999999 
0.155767 0.116096 0.04375 0.000977516 0.000977516 -0.999999 
0.137281 0.120702 0.04375 0.000977516 0.000977516 -0.999999 
0.177868 0.142188 0.04375 0.000977516 0.000977516 -0.999999 
0.185079 0.075459 0.04375 0.000977516 0.000977516 -0.999999 
0.164726 0.152247 0.04375 0.000977516 0.000977516 -0.999999 
0.17513 0.180173 0.04375 0.000977516 0.000977516 -0.999999 
0.155391 0.126548 0.04375 0.000977516 0.000977516 -0.999999 
0.129591 0.172611 0.04375 0.000977516 0.000977516 -0.999999 
0.151592 0.26443 0.04375 0.000977516 0.000977516 -0.999999 
0.17585 0.0825235 0.04375 0.000977516 0.000977516 -0.999999 
0.141096 0.0983585 0.04375 0.000977516 0.000977516 -0.999999 
0.165989 0.280614 0.04375 0.000977516 0.000977516 -0.999999 
0.126263 0.119527 0.04375 0.000977516 0.000977516 -0.999999 
0.179693 0.124535 0.04375 0.000977516 0.000977516 -0.999999 
0.119793 0.140904 0.04375 0.000977516 0.000977516 -0.999999 
0.126553 0.133458 0.04375 0.000977516 0.000977516 -0.999999 
0.150134 0.244147 0.04375 0.000977516 0.000977516 -0.999999 
0.178784 0.326355 0.04375 0.000977516 0.000977516 -0.999999 
0.168199 0.09036 0.04375 0.000977516 0.000977516 -0.999999 
0.138446 0.148282 0.04375 0.000977516 0.000977516 -0.999999 
0.152316 0.0982935 0.04375 0.000977516 0.000977516 -0.999999 
0.161115 0.2125 0.04375 0.000977516 0.000977516 -0.999999 
0.162149 0.290102 0.04375 0.000977516 0.000977516 -0.999999 
0.15829 0.187527 0.04375 0.000977516 0.000977516 -0.999999 
0.177227 0.275616 0.04375 0.000977516 0.000977516 -0.999999 
0.18146 0.243584 0.04375 0.000977516 0.000977516 -0.999999 
0.169635 0.221705 0.04375 0.000977516 0.000977516 -0.999999 
0.173613 0.337447 0.04375 0.000977516 0.000977516 -0.999999 
0.133234 0.066896 0.04375 0.000977516 0.000977516 -0.999999 
0.124054 0.083766 0.04375 0.000977516 0.000977516 -0.999999 
0.172416 0.303196 0.04375 0.000977516 0.000977516 -0.999999 
0.184079 0.196022 0.04375 0.000977516 0.000977516 -0.999999 
0.132824 0.0771205 0.04375 0.000977516 0.000977516 -0.999999 
0.166423 0.132491 0.04375 0.000977516 0.000977516 -0.999999 
0.147681 0.135865 0.04375 0.000977516 0.000977516 -0.999999 
0.15901 0.200178 0.04375 0.000977516 0.000977516 -0.999999 
0.149705 0.0870015 0.04375 0.000977516 0.000977516 -0.999999 
0.146476 0.220225 0.04375 0.000977516 0.000977516 -0.999999 
0.179781 0.0923095 0.04375 0.000977516 0.000977516 -0.999999 
0.145058 0.158103 0.04375 0.000977516 0.000977516 -0.999999 
0.15508 0.25355 0.04375 0.000977516 0.000977516 -0.999999 
0.11509 0.204528 0.04375 0.000977516 0.000977516 -0.999999 
0.16395 0.388642 0.04375 0.000977516 0.000977516 -0.999999 
0.100841 0.318676 0.04375 0.000977516 0.000977516 -0.999999 
0.154905 0.325129 0.04375 0.000977516 0.000977516 -0.999999 
0.156628 0.303237 0.04375 0.000977516 0.000977516 -0.999999 
0.119604 0.218676 0.04375 0.000977516 0.000977516 -0.999999 
0.110713 0.17561 0.04375 0.000977516 0.000977516 -0.999999 
0.144732 0.330777 0.04375 0.000977516 0.000977516 -0.999999 
0.17584 0.379795 0.04375 0.000977516 0.000977516 -0.999999 
0.102962 0.366286 0.04375 0.000977516 0.000977516 -0.999999 
0.131416 0.195278 0.04375 0.000977516 0.000977516 -0.999999 
0.120273 0.35337 0.04375 0.000977516 0.000977516 -0.999999 
0.134806 0.287719 0.04375 0.000977516 0.000977516 -0.999999 
0.141235 0.37791 0.04375 0.000977516 0.000977516 -0.999999 
0.126164 0.305185 0.04375 0.000977516 0.000977516 -0.999999 
0.116961 0.262681 0.04375 0.000977516 0.000977516 -0.999999 
0.112237 0.310622 0.04375 0.000977516 0.000977516 -0.999999 
0.113976 0.159323 0.04375 0.000977516 0.000977516 -0.999999 
0.135697 0.341094 0.04375 0.000977516 0.000977516 -0.999999 
0.16196 0.314053 0.04375 0.000977516 0.000977516 -0.999999 
0.112159 0.187843 0.04375 0.000977516 0.000977516 -0.999999 
0.133911 0.386911 0.04375 0.000977516 0.000977516 -0.999999 
0.123388 0.27636 0.04375 0.000977516 0.000977516 -0.999999 
0.108628 0.297882 0.04375 0.000977516 0.000977516 -0.999999 
0.132722 0.25397 0.04375 0.000977516 0.000977516 -0.999999 
0.167131 0.371352 0.04375 0.000977516 0.000977516 -0.999999 
0.105743 0.397268 0.04375 0.000977516 0.000977516 -0.999999 
0.136475 0.244686 0.04375 0.000977516 0.000977516 -0.999999 
0.126091 0.371581 0.04375 0.000977516 0.000977516 -0.999999 
0.131202 0.264728 0.04375 0.000977516 0.000977516 -0.999999 
0.142666 0.319615 0.04375 0.000977516 0.000977516 -0.999999 
0.115037 0.329191 0.04375 0.000977516 0.000977516 -0.999999 
0.109719 0.129629 0.04375 0.000977516 0.000977516 -0.999999 
0.126222 0.315856 0.04375 0.000977516 0.000977516 -0.999999 
0.110407 0.214192 0.04375 0.000977516 0.000977516 -0.999999 
0.138583 0.276306 0.04375 0.000977516 0.000977516 -0.999999 
0.106611 0.151651 0.04375 0.000977516 0.000977516 -0.999999 
0.12643 0.23068 0.04375 0.000977516 0.000977516 -0.999999 
0.147679 0.395839 0.04375 0.000977516 0.000977516 -0.999999 
0.160178 0.349547 0.04375 0.000977516 0.000977516 -0.999999 
0.112696 0.379764 0.04375 0.000977516 0.000977516 -0.999999 
0.102387 0.378845 0.04375 0.000977516 0.000977516 -0.999999 
0.107837 0.14026 0.04375 0.000977516 0.000977516 -0.999999 
0.140222 0.357094 0.04375 0.000977516 0.000977516 -0.999999 
0.122739 0.249224 0.04375 0.000977516 0.000977516 -0.999999 
0.134175 0.220163 0.04375 0.000977516 0.000977516 -0.999999 
0.102239 0.352756 0.04375 0.000977516 0.000977516 -0.999999 
0.268046 0.180944 0.04375 0.000977516 0.000977516 -0.999999 
0.32218 0.317758 0.04375 0.000977516 0.000977516 -0.999999 
0.30024 0.21564 0.04375 0.000977516 0.000977516 -0.999999 
0.341339 0.367559 0.04375 0.000977516 0.000977516 -0.999999 
0.313475 0.27777 0.04375 0.000977516 0.000977516 -0.999999 
0.316723 0.264906 0.04375 0.000977516 0.000977516 -0.999999 
0.306011 0.266289 0.04375 0.000977516 0.000977516 -0.999999 
0.31765 0.159005 0.04375 0.000977516 0.000977516 -0.999999 
0.293947 0.166432 0.04375 0.000977516 0.000977516 -0.999999 
0.317971 0.209184 0.04375 0.000977516 0.000977516 -0.999999 
0.307655 0.238208 0.04375 0.000977516 0.000977516 -0.999999 
0.23329 0.0786345 0.04375 0.000977516 0.000977516 -0.999999 
0.338327 0.180543 0.04375 0.000977516 0.000977516 -0.999999 
0.244257 0.110028 0.04375 0.000977516 0.000977516 -0.999999 
0.28428 0.207652 0.04375 0.000977516 0.000977516 -0.999999 
0.273618 0.198126 0.04375 0.000977516 0.000977516 -0.999999 
0.310255 0.288864 0.04375 0.000977516 0.000977516 -0.999999 
0.329087 0.205979 0.04375 0.000977516 0.000977516 -0.999999 
0.331008 0.300454 0.04375 0.000977516 0.000977516 -0.999999 
0.316022 0.103089 0.04375 0.000977516 0.000977516 -0.999999 
0.252038 0.0688225 0.04375 0.000977516 0.000977516 -0.999999 
0.261554 0.104434 0.04375 0.000977516 0.000977516 -0.999999 
0.328216 0.272197 0.04375 0.000977516 0.000977516 -0.999999 
0.293013 0.179079 0.04375 0.000977516 0.000977516 -0.999999 
0.344855 0.277508 0.04375 0.000977516 0.000977516 -0.999999 
0.225041 0.07124 0.04375 0.000977516 0.000977516 -0.999999 
0.292578 0.086008 0.04375 0.000977516 0.000977516 -0.999999 
0.304118 0.0742445 0.04375 0.000977516 0.000977516 -0.999999 
0.341931 0.345885 0.04375 0.000977516 0.000977516 -0.999999 
0.298864 0.108711 0.04375 0.000977516 0.000977516 -0.999999 
0.235586 0.0947225 0.04375 0.000977516 0.000977516 -0.999999 
0.251104 0.0835855 0.04375 0.000977516 0.000977516 -0.999999 
0.272712 0.0672395 0.04375 0.000977516 0.000977516 -0.999999 
0.284577 0.112813 0.04375 0.000977516 0.000977516 -0.999999 
0.299654 0.147173 0.04375 0.000977516 0.000977516 -0.999999 
0.323932 0.191083 0.04375 0.000977516 0.000977516 -0.999999 
0.321728 0.141102 0.04375 0.000977516 0.000977516 -0.999999 
0.283248 0.0786775 0.04375 0.000977516 0.000977516 -0.999999 
0.262691 0.081262 0.04375 0.000977516 0.000977516 -0.999999 
0.316114 0.184557 0.04375 0.000977516 0.000977516 -0.999999 
0.330243 0.244955 0.04375 0.000977516 0.000977516 -0.999999 
0.347692 0.212143 0.04375 0.000977516 0.000977516 -0.999999 
0.268141 0.13046 0.04375 0.000977516 0.000977516 -0.999999 
0.306814 0.084328 0.04375 0.000977516 0.000977516 -0.999999 
0.304725 0.134385 0.04375 0.000977516 0.000977516 -0.999999 
0.312878 0.169978 0.04375 0.000977516 0.000977516 -0.999999 
0.319833 0.245668 0.04375 0.000977516 0.000977516 -0.999999 
0.325781 0.328091 0.04375 0.000977516 0.000977516 -0.999999 
0.292107 0.24759 0.04375 0.000977516 0.000977516 -0.999999 
0.279245 0.17695 0.04375 0.000977516 0.000977516 -0.999999 
0.295157 0.123921 0.04375 0.000977516 0.000977516 -0.999999 
0.336476 0.233727 0.04375 0.000977516 0.000977516 -0.999999 
0.335562 0.321142 0.04375 0.000977516 0.000977516 -0.999999 
0.331498 0.073022 0.04375 0.000977516 0.000977516 -0.999999 
0.324755 0.11319 0.04375 0.000977516 0.000977516 -0.999999 
0.284516 0.197004 0.04375 0.000977516 0.000977516 -0.999999 
0.281603 0.162457 0.04375 0.000977516 0.000977516 -0.999999 
0.341554 0.140355 0.04375 0.000977516 0.000977516 -0.999999 
0.321741 0.175074 0.04375 0.000977516 0.000977516 -0.999999 
0.245506 0.0966615 0.04375 0.000977516 0.000977516 -0.999999 
0.295081 0.206381 0.04375 0.000977516 0.000977516 -0.999999 
0.327678 0.290817 0.04375 0.000977516 0.000977516 -0.999999 
0.331554 0.14897 0.04375 0.000977516 0.000977516 -0.999999 
0.306134 0.160116 0.04375 0.000977516 0.000977516 -0.999999 
0.31182 0.254867 0.04375 0.000977516 0.000977516 -0.999999 
0.274295 0.146684 0.04375 0.000977516 0.000977516 -0.999999 
0.342343 0.287843 0.04375 0.000977516 0.000977516 -0.999999 
0.342764 0.080743 0.04375 0.000977516 0.000977516 -0.999999 
0.249457 0.12977 0.04375 0.000977516 0.000977516 -0.999999 
0.329881 0.34001 0.04375 0.000977516 0.000977516 -0.999999 
0.262259 0.069617 0.04375 0.000977516 0.000977516 -0.999999 
0.317795 0.121794 0.04375 0.000977516 0.000977516 -0.999999 
0.344876 0.167677 0.04375 0.000977516 0.000977516 -0.999999 
0.282755 0.234722 0.04375 0.000977516 0.000977516 -0.999999 
0.247045 0.278028 0.04375 0.000977516 0.000977516 -0.999999 
0.243317 0.266795 0.04375 0.000977516 0.000977516 -0.999999 
0.294929 0.300774 0.04375 0.000977516 0.000977516 -0.999999 
0.239177 0.355491 0.04375 0.000977516 0.000977516 -0.999999 
0.272856 0.218494 0.04375 0.000977516 0.000977516 -0.999999 
0.290192 0.274651 0.04375 0.000977516 0.000977516 -0.999999 
0.306221 0.325273 0.04375 0.000977516 0.000977516 -0.999999 
0.300875 0.389798 0.04375 0.000977516 0.000977516 -0.999999 
0.26026 0.288575 0.04375 0.000977516 0.000977516 -0.999999 
0.24859 0.213922 0.04375 0.000977516 0.000977516 -0.999999 
0.235576 0.195373 0.04375 0.000977516 0.000977516 -0.999999 
0.292165 0.350835 0.04375 0.000977516 0.000977516 -0.999999 
0.313219 0.370777 0.04375 0.000977516 0.000977516 -0.999999 
0.276102 0.296493 0.04375 0.000977516 0.000977516 -0.999999 
0.309985 0.38364 0.04375 0.000977516 0.000977516 -0.999999 
0.270881 0.232973 0.04375 0.000977516 0.000977516 -0.999999 
0.262848 0.32237 0.04375 0.000977516 0.000977516 -0.999999 
0.225642 0.109638 0.04375 0.000977516 0.000977516 -0.999999 
0.221721 0.351792 0.04375 0.000977516 0.000977516 -0.999999 
0.232992 0.363452 0.04375 0.000977516 0.000977516 -0.999999 
0.307505 0.346889 0.04375 0.000977516 0.000977516 -0.999999 
0.244646 0.319816 0.04375 0.000977516 0.000977516 -0.999999 
0.24408 0.138993 0.04375 0.000977516 0.000977516 -0.999999 
0.245169 0.235479 0.04375 0.000977516 0.000977516 -0.999999 
0.251196 0.367625 0.04375 0.000977516 0.000977516 -0.999999 
0.24159 0.344113 0.04375 0.000977516 0.000977516 -0.999999 
0.322822 0.384824 0.04375 0.000977516 0.000977516 -0.999999 
0.29207 0.32643 0.04375 0.000977516 0.000977516 -0.999999 
0.257617 0.378941 0.04375 0.000977516 0.000977516 -0.999999 
0.260413 0.311606 0.04375 0.000977516 0.000977516 -0.999999 
0.25517 0.256447 0.04375 0.000977516 0.000977516 -0.999999 
0.240407 0.309076 0.04375 0.000977516 0.000977516 -0.999999 
0.271892 0.316423 0.04375 0.000977516 0.000977516 -0.999999 
0.281835 0.367769 0.04375 0.000977516 0.000977516 -0.999999 
0.27273 0.340836 0.04375 0.000977516 0.000977516 -0.999999 
0.273384 0.327588 0.04375 0.000977516 0.000977516 -0.999999 
0.234479 0.380452 0.04375 0.000977516 0.000977516 -0.999999 
0.24317 0.224285 0.04375 0.000977516 0.000977516 -0.999999 
0.266046 0.26111 0.04375 0.000977516 0.000977516 -0.999999 
0.22274 0.284976 0.04375 0.000977516 0.000977516 -0.999999 
0.224126 0.234322 0.04375 0.000977516 0.000977516 -0.999999 
0.233154 0.267161 0.04375 0.000977516 0.000977516 -0.999999 
0.2411 0.15405 0.04375 0.000977516 0.000977516 -0.999999 
0.274464 0.357978 0.04375 0.000977516 0.000977516 -0.999999 
0.2816 0.269093 0.04375 0.000977516 0.000977516 -0.999999 
0.221225 0.169208 0.04375 0.000977516 0.000977516 -0.999999 
0.257355 0.242948 0.04375 0.000977516 0.000977516 -0.999999 
0.280912 0.286412 0.04375 0.000977516 0.000977516 -0.999999 
0.324773 0.372382 0.04375 0.000977516 0.000977516 -0.999999 
0.30173 0.310026 0.04375 0.000977516 0.000977516 -0.999999 
0.223592 0.328676 0.04375 0.000977516 0.000977516 -0.999999 
0.262061 0.355499 0.04375 0.000977516 0.000977516 -0.999999 
0.280726 0.383797 0.04375 0.000977516 0.000977516 -0.999999 
0.341233 0.395938 0.04375 0.000977516 0.000977516 -0.999999 
0.263905 0.367215 0.04375 0.000977516 0.000977516 -0.999999 
0.222938 0.149566 0.04375 0.000977516 0.000977516 -0.999999 
0.339029 0.379017 0.04375 0.000977516 0.000977516 -0.999999 
0.235851 0.129249 0.04375 0.000977516 0.000977516 -0.999999 
0.294222 0.287124 0.04375 0.000977516 0.000977516 -0.999999 
0.284095 0.395772 0.04375 0.000977516 0.000977516 -0.999999 
0.236358 0.241087 0.04375 0.000977516 0.000977516 -0.999999 
0.250228 0.338782 0.04375 0.000977516 0.000977516 -0.999999 
0.239549 0.209308 0.04375 0.000977516 0.000977516 -0.999999 
0.234967 0.163223 0.04375 0.000977516 0.000977516 -0.999999 
0.229958 0.343682 0.04375 0.000977516 0.000977516 -0.999999 
0.272305 0.281213 0.04375 0.000977516 0.000977516 -0.999999 
0.311492 0.314627 0.04375 0.000977516 0.000977516 -0.999999 
0.269839 0.378663 0.04375 0.000977516 0.000977516 -0.999999 
0.280041 0.253412 0.04375 0.000977516 0.000977516 -0.999999 
0.271017 0.245393 0.04375 0.000977516 0.000977516 -0.999999 
0.281682 0.0634375 -0.0344764 0.000977516 0.999999 0.000977516 
0.293217 0.0634375 0.000403351 0.000977516 0.999999 0.000977516 
0.332056 0.0634375 -0.0347445 0.000977516 0.999999 0.000977516 
0.278829 0.0634375 -0.0151553 0.000977516 0.999999 0.000977516 
0.317106 0.0634375 -0.025197 0.000977516 0.999999 0.000977516 
0.267821 0.0634375 -0.0152227 0.000977516 0.999999 0.000977516 
0.288468 0.0634375 -0.0180911 0.000977516 0.999999 0.000977516 
0.272237 0.0634375 -0.00441414 0.000977516 0.999999 0.000977516 
0.303008 0.0634375 -0.0314963 0.000977516 0.999999 0.000977516 
0.347694 0.0634375 -0.011903 0.000977516 0.999999 0.000977516 
0.322775 0.0634375 0.00340201 0.000977516 0.999999 0.000977516 
0.323393 0.0634375 0.0184429 0.000977516 0.999999 0.000977516 
0.284869 0.0634375 0.0139378 0.000977516 0.999999 0.000977516 
0.300837 0.0634375 0.0111264 0.000977516 0.999999 0.000977516 
0.340369 0.0634375 -0.0230468 0.000977516 0.999999 0.000977516 
0.311221 0.0634375 0.0111175 0.000977516 0.999999 0.000977516 
0.340032 0.0634375 0.0023083 0.000977516 0.999999 0.000977516 
0.334503 0.0634375 0.0187079 0.000977516 0.999999 0.000977516 
0.000541235 0.0634375 -0.0364501 0.000977516 0.999999 0.000977516 
0.026321 0.0634375 -0.0410181 0.000977516 0.999999 0.000977516 
0.0548305 0.0634375 -0.039719 0.000977516 0.999999 0.000977516 
-0.0359511 0.0634375 -0.0209178 0.000977516 0.999999 0.000977516 
-0.0329483 0.0634375 -0.00772665 0.000977516 0.999999 0.000977516 
-0.052223 0.0634375 -0.0355081 0.000977516 0.999999 0.000977516 
0.000551275 0.0634375 -0.0250369 0.000977516 0.999999 0.000977516 
0.0114761 0.0634375 -0.0367693 0.000977516 0.999999 0.000977516 
-0.0226554 0.0634375 -0.0120303 0.000977516 0.999999 0.000977516 
-0.0522155 0.0634375 -0.00994335 0.000977516 0.999999 0.000977516 
-0.0396388 0.0634375 -0.0385453 0.000977516 0.999999 0.000977516 
-0.0085288 0.0634375 -0.0096903 0.000977516 0.999999 0.000977516 
-0.0328239 0.0634375 -0.0304555 0.000977516 0.999999 0.000977516 
-0.0242821 0.0634375 -0.0223051 0.000977516 0.999999 0.000977516 
-0.0252688 0.0634375 -0.000439242 0.000977516 0.999999 0.000977516 
0.055654 0.0634375 -0.0054076 0.000977516 0.999999 0.000977516 
0.0408294 0.0634375 -0.00689875 0.000977516 0.999999 0.000977516 
0.032145 0.0634375 0.00190085 0.000977516 0.999999 0.000977516 
-0.037273 0.0634375 0.0127409 0.000977516 0.999999 0.000977516 
0.0385404 0.0634375 0.0122497 0.000977516 0.999999 0.000977516 
-0.0147818 0.0634375 0.0075265 0.000977516 0.999999 0.000977516 
0.0375144 0.0634375 -0.0178011 0.000977516 0.999999 0.000977516 
0.0227895 0.0634375 0.0121568 0.000977516 0.999999 0.000977516 
0.0101898 0.0634375 -0.0088375 0.000977516 0.999999 0.000977516 
0.00335134 0.0634375 0.00790645 0.000977516 0.999999 0.000977516 
0.291941 0.363237 -0.04375 0.000977516 0.000977516 0.999999 
0.319098 0.229247 -0.04375 0.000977516 0.000977516 0.999999 
0.339955 0.2993 -0.04375 0.000977516 0.000977516 0.999999 
0.33092 0.340097 -0.04375 0.000977516 0.000977516 0.999999 
0.295734 0.33712 -0.04375 0.000977516 0.000977516 0.999999 
0.323252 0.259797 -0.04375 0.000977516 0.000977516 0.999999 
0.31927 0.20331 -0.04375 0.000977516 0.000977516 0.999999 
0.331749 0.178334 -0.04375 0.000977516 0.000977516 0.999999 
0.32746 0.298086 -0.04375 0.000977516 0.000977516 0.999999 
0.313655 0.319853 -0.04375 0.000977516 0.000977516 0.999999 
0.338556 0.261048 -0.04375 0.000977516 0.000977516 0.999999 
0.303382 0.293451 -0.04375 0.000977516 0.000977516 0.999999 
0.308615 0.261055 -0.04375 0.000977516 0.000977516 0.999999 
0.31851 0.36798 -0.04375 0.000977516 0.000977516 0.999999 
0.300101 0.376874 -0.04375 0.000977516 0.000977516 0.999999 
0.334965 0.327242 -0.04375 0.000977516 0.000977516 0.999999 
0.309618 0.348887 -0.04375 0.000977516 0.000977516 0.999999 
0.301254 0.326824 -0.04375 0.000977516 0.000977516 0.999999 
0.335804 0.35449 -0.04375 0.000977516 0.000977516 0.999999 
0.310685 0.249069 -0.04375 0.000977516 0.000977516 0.999999 
0.324038 0.330813 -0.04375 0.000977516 0.000977516 0.999999 
0.34051 0.199408 -0.04375 0.000977516 0.000977516 0.999999 
0.342909 0.125703 -0.04375 0.000977516 0.000977516 0.999999 
0.340311 0.217918 -0.04375 0.000977516 0.000977516 0.999999 
0.322652 0.389533 -0.04375 0.000977516 0.000977516 0.999999 
0.320754 0.276183 -0.04375 0.000977516 0.000977516 0.999999 
0.32763 0.285068 -0.04375 0.000977516 0.000977516 0.999999 
0.325939 0.309343 -0.04375 0.000977516 0.000977516 0.999999 
0.30926 0.310775 -0.04375 0.000977516 0.000977516 0.999999 
0.295267 0.350726 -0.04375 0.000977516 0.000977516 0.999999 
0.344852 0.181822 -0.04375 0.000977516 0.000977516 0.999999 
0.299287 0.271037 -0.04375 0.000977516 0.000977516 0.999999 
0.273493 0.378574 -0.04375 0.000977516 0.000977516 0.999999 
0.348767 0.152593 -0.04375 0.000977516 0.000977516 0.999999 
0.298414 0.389291 -0.04375 0.000977516 0.000977516 0.999999 
0.337651 0.381617 -0.04375 0.000977516 0.000977516 0.999999 
0.348169 0.270276 -0.04375 0.000977516 0.000977516 0.999999 
0.312127 0.338107 -0.04375 0.000977516 0.000977516 0.999999 
0.334545 0.314773 -0.04375 0.000977516 0.000977516 0.999999 
0.33358 0.24873 -0.04375 0.000977516 0.000977516 0.999999 
0.337181 0.146107 -0.04375 0.000977516 0.000977516 0.999999 
0.288389 0.391885 -0.04375 0.000977516 0.000977516 0.999999 
0.294049 0.31892 -0.04375 0.000977516 0.000977516 0.999999 
0.314885 0.215246 -0.04375 0.000977516 0.000977516 0.999999 
0.2849 0.344766 -0.04375 0.000977516 0.000977516 0.999999 
0.303158 0.281078 -0.04375 0.000977516 0.000977516 0.999999 
0.32432 0.358658 -0.04375 0.000977516 0.000977516 0.999999 
0.283843 0.0896895 -0.04375 0.000977516 0.000977516 0.999999 
0.315715 0.137672 -0.04375 0.000977516 0.000977516 0.999999 
0.323857 0.0699265 -0.04375 0.000977516 0.000977516 0.999999 
0.276561 0.149722 -0.04375 0.000977516 0.000977516 0.999999 
0.287771 0.136435 -0.04375 0.000977516 0.000977516 0.999999 
0.272065 0.211925 -0.04375 0.000977516 0.000977516 0.999999 
0.322428 0.107608 -0.04375 0.000977516 0.000977516 0.999999 
0.315295 0.0864375 -0.04375 0.000977516 0.000977516 0.999999 
0.286542 0.282948 -0.04375 0.000977516 0.000977516 0.999999 
0.318385 0.165285 -0.04375 0.000977516 0.000977516 0.999999 
0.301904 0.146151 -0.04375 0.000977516 0.000977516 0.999999 
0.312954 0.117458 -0.04375 0.000977516 0.000977516 0.999999 
0.28363 0.209736 -0.04375 0.000977516 0.000977516 0.999999 
0.340172 0.076084 -0.04375 0.000977516 0.000977516 0.999999 
0.268699 0.286084 -0.04375 0.000977516 0.000977516 0.999999 
0.290822 0.234563 -0.04375 0.000977516 0.000977516 0.999999 
0.264746 0.362041 -0.04375 0.000977516 0.000977516 0.999999 
0.280895 0.299708 -0.04375 0.000977516 0.000977516 0.999999 
0.273977 0.101376 -0.04375 0.000977516 0.000977516 0.999999 
0.291916 0.0834455 -0.04375 0.000977516 0.000977516 0.999999 
0.305875 0.093398 -0.04375 0.000977516 0.000977516 0.999999 
0.266908 0.142677 -0.04375 0.000977516 0.000977516 0.999999 
0.338715 0.0893095 -0.04375 0.000977516 0.000977516 0.999999 
0.32606 0.137754 -0.04375 0.000977516 0.000977516 0.999999 
0.265413 0.199931 -0.04375 0.000977516 0.000977516 0.999999 
0.266748 0.115115 -0.04375 0.000977516 0.000977516 0.999999 
0.313228 0.193437 -0.04375 0.000977516 0.000977516 0.999999 
0.278691 0.174759 -0.04375 0.000977516 0.000977516 0.999999 
0.290645 0.1497 -0.04375 0.000977516 0.000977516 0.999999 
0.288965 0.120011 -0.04375 0.000977516 0.000977516 0.999999 
0.286812 0.183095 -0.04375 0.000977516 0.000977516 0.999999 
0.323541 0.121574 -0.04375 0.000977516 0.000977516 0.999999 
0.30905 0.075415 -0.04375 0.000977516 0.000977516 0.999999 
0.266183 0.152798 -0.04375 0.000977516 0.000977516 0.999999 
0.272088 0.233326 -0.04375 0.000977516 0.000977516 0.999999 
0.264509 0.27572 -0.04375 0.000977516 0.000977516 0.999999 
0.278828 0.272793 -0.04375 0.000977516 0.000977516 0.999999 
0.280284 0.322986 -0.04375 0.000977516 0.000977516 0.999999 
0.268456 0.338389 -0.04375 0.000977516 0.000977516 0.999999 
0.321422 0.155647 -0.04375 0.000977516 0.000977516 0.999999 
0.301131 0.128052 -0.04375 0.000977516 0.000977516 0.999999 
0.292852 0.097481 -0.04375 0.000977516 0.000977516 0.999999 
0.299801 0.216724 -0.04375 0.000977516 0.000977516 0.999999 
0.292905 0.19423 -0.04375 0.000977516 0.000977516 0.999999 
0.269634 0.0758085 -0.04375 0.000977516 0.000977516 0.999999 
0.276968 0.064542 -0.04375 0.000977516 0.000977516 0.999999 
0.311572 0.174769 -0.04375 0.000977516 0.000977516 0.999999 
0.278405 0.336488 -0.04375 0.000977516 0.000977516 0.999999 
0.272074 0.1837 -0.04375 0.000977516 0.000977516 0.999999 
0.269702 0.327073 -0.04375 0.000977516 0.000977516 0.999999 
0.298528 0.243615 -0.04375 0.000977516 0.000977516 0.999999 
0.328065 -0.19559 -0.04375 0.000977516 0.000977516 0.999999 
0.332876 -0.208143 -0.04375 0.000977516 0.000977516 0.999999 
0.304386 -0.135041 -0.04375 0.000977516 0.000977516 0.999999 
0.302162 -0.101935 -0.04375 0.000977516 0.000977516 0.999999 
0.301431 -0.161318 -0.04375 0.000977516 0.000977516 0.999999 
0.279135 -0.073239 -0.04375 0.000977516 0.000977516 0.999999 
0.311343 -0.146404 -0.04375 0.000977516 0.000977516 0.999999 
0.312381 -0.217922 -0.04375 0.000977516 0.000977516 0.999999 
0.318389 -0.071112 -0.04375 0.000977516 0.000977516 0.999999 
0.297738 -0.12407 -0.04375 0.000977516 0.000977516 0.999999 
0.337607 -0.111611 -0.04375 0.000977516 0.000977516 0.999999 
0.340589 -0.324829 -0.04375 0.000977516 0.000977516 0.999999 
0.315675 -0.09679 -0.04375 0.000977516 0.000977516 0.999999 
0.334377 -0.243042 -0.04375 0.000977516 0.000977516 0.999999 
0.339119 -0.097052 -0.04375 0.000977516 0.000977516 0.999999 
0.328306 -0.270279 -0.04375 0.000977516 0.000977516 0.999999 
0.298638 -0.144971 -0.04375 0.000977516 0.000977516 0.999999 
0.334069 -0.0814415 -0.04375 0.000977516 0.000977516 0.999999 
0.33607 -0.175352 -0.04375 0.000977516 0.000977516 0.999999 
0.276859 -0.0853635 -0.04375 0.000977516 0.000977516 0.999999 
0.283252 -0.135504 -0.04375 0.000977516 0.000977516 0.999999 
0.32626 -0.251146 -0.04375 0.000977516 0.000977516 0.999999 
0.319912 -0.210893 -0.04375 0.000977516 0.000977516 0.999999 
0.345434 -0.202966 -0.04375 0.000977516 0.000977516 0.999999 
0.319947 -0.237066 -0.04375 0.000977516 0.000977516 0.999999 
0.333858 -0.31687 -0.04375 0.000977516 0.000977516 0.999999 
0.296231 -0.088432 -0.04375 0.000977516 0.000977516 0.999999 
0.344981 -0.272878 -0.04375 0.000977516 0.000977516 0.999999 
0.285069 -0.105142 -0.04375 0.000977516 0.000977516 0.999999 
0.326326 -0.222245 -0.04375 0.000977516 0.000977516 0.999999 
0.309203 -0.230157 -0.04375 0.000977516 0.000977516 0.999999 
0.318133 -0.084593 -0.04375 0.000977516 0.000977516 0.999999 
0.348281 -0.122216 -0.04375 0.000977516 0.000977516 0.999999 
0.32845 -0.184658 -0.04375 0.000977516 0.000977516 0.999999 
0.297541 -0.172172 -0.04375 0.000977516 0.000977516 0.999999 
0.287867 -0.0799245 -0.04375 0.000977516 0.000977516 0.999999 
0.29906 -0.0784735 -0.04375 0.000977516 0.000977516 0.999999 
0.322783 -0.139969 -0.04375 0.000977516 0.000977516 0.999999 
0.314517 -0.192327 -0.04375 0.000977516 0.000977516 0.999999 
0.321263 -0.28677 -0.04375 0.000977516 0.000977516 0.999999 
0.318621 -0.16301 -0.04375 0.000977516 0.000977516 0.999999 
0.322212 -0.17418 -0.04375 0.000977516 0.000977516 0.999999 
0.321108 -0.125711 -0.04375 0.000977516 0.000977516 0.999999 
0.344263 -0.347259 -0.04375 0.000977516 0.000977516 0.999999 
0.288888 -0.346184 -0.04375 0.000977516 0.000977516 0.999999 
0.277449 -0.27653 -0.04375 0.000977516 0.000977516 0.999999 
0.298585 -0.39318 -0.04375 0.000977516 0.000977516 0.999999 
0.293615 -0.275656 -0.04375 0.000977516 0.000977516 0.999999 
0.321171 -0.29893 -0.04375 0.000977516 0.000977516 0.999999 
0.288902 -0.229884 -0.04375 0.000977516 0.000977516 0.999999 
0.262578 -0.155445 -0.04375 0.000977516 0.000977516 0.999999 
0.332126 -0.377231 -0.04375 0.000977516 0.000977516 0.999999 
0.312369 -0.370726 -0.04375 0.000977516 0.000977516 0.999999 
0.287679 -0.312674 -0.04375 0.000977516 0.000977516 0.999999 
0.305523 -0.288027 -0.04375 0.000977516 0.000977516 0.999999 
0.287791 -0.300921 -0.04375 0.000977516 0.000977516 0.999999 
0.284319 -0.3328 -0.04375 0.000977516 0.000977516 0.999999 
0.264385 -0.300855 -0.04375 0.000977516 0.000977516 0.999999 
0.270021 -0.134879 -0.04375 0.000977516 0.000977516 0.999999 
0.272476 -0.120967 -0.04375 0.000977516 0.000977516 0.999999 
0.333311 -0.39143 -0.04375 0.000977516 0.000977516 0.999999 
0.294221 -0.383031 -0.04375 0.000977516 0.000977516 0.999999 
0.287589 -0.266041 -0.04375 0.000977516 0.000977516 0.999999 
0.286536 -0.20808 -0.04375 0.000977516 0.000977516 0.999999 
0.307106 -0.360022 -0.04375 0.000977516 0.000977516 0.999999 
0.273251 -0.16038 -0.04375 0.000977516 0.000977516 0.999999 
0.273697 -0.232297 -0.04375 0.000977516 0.000977516 0.999999 
0.275335 -0.170259 -0.04375 0.000977516 0.000977516 0.999999 
0.289843 -0.363595 -0.04375 0.000977516 0.000977516 0.999999 
0.275494 -0.186011 -0.04375 0.000977516 0.000977516 0.999999 
0.295292 -0.192074 -0.04375 0.000977516 0.000977516 0.999999 
0.270837 -0.383556 -0.04375 0.000977516 0.000977516 0.999999 
0.278241 -0.306536 -0.04375 0.000977516 0.000977516 0.999999 
0.295386 -0.331594 -0.04375 0.000977516 0.000977516 0.999999 
0.262884 -0.192336 -0.04375 0.000977516 0.000977516 0.999999 
0.316027 -0.355372 -0.04375 0.000977516 0.000977516 0.999999 
0.313684 -0.31488 -0.04375 0.000977516 0.000977516 0.999999 
0.32958 -0.351274 -0.04375 0.000977516 0.000977516 0.999999 
0.26274 -0.277029 -0.04375 0.000977516 0.000977516 0.999999 
0.306152 -0.272274 -0.04375 0.000977516 0.000977516 0.999999 
0.285342 -0.376123 -0.04375 0.000977516 0.000977516 0.999999 
0.271545 -0.262812 -0.04375 0.000977516 0.000977516 0.999999 
0.308939 -0.398073 -0.04375 0.000977516 0.000977516 0.999999 
0.29579 -0.211977 -0.04375 0.000977516 0.000977516 0.999999 
0.271595 -0.362307 -0.04375 0.000977516 0.000977516 0.999999 
0.27573 -0.349023 -0.04375 0.000977516 0.000977516 0.999999 
0.316015 -0.38356 -0.04375 0.000977516 0.000977516 0.999999 
0.262625 -0.113877 -0.04375 0.000977516 0.000977516 0.999999 
0.276904 -0.211871 -0.04375 0.000977516 0.000977516 0.999999 
0.270199 -0.250151 -0.04375 0.000977516 0.000977516 0.999999 
0.318771 -0.3256 -0.04375 0.000977516 0.000977516 0.999999 
0.328541 -0.33981 -0.04375 0.000977516 0.000977516 0.999999 
0.279581 -0.319268 -0.04375 0.000977516 0.000977516 0.999999 
0.278343 -0.148631 -0.04375 0.000977516 0.000977516 0.999999 
0.3016 -0.305373 -0.04375 0.000977516 0.000977516 0.999999 
0.27968 -0.288507 -0.04375 0.000977516 0.000977516 0.999999 
0.299195 -0.259074 -0.04375 0.000977516 0.000977516 0.999999 
0.279581 -0.224073 -0.04375 0.000977516 0.000977516 0.999999 
0.033644 -0.162757 -0.04375 0.000977516 0.000977516 0.999999 
-0.0395062 -0.119586 -0.04375 0.000977516 0.000977516 0.999999 
0.0263205 -0.120863 -0.04375 0.000977516 0.000977516 0.999999 
0.0060209 -0.211873 -0.04375 0.000977516 0.000977516 0.999999 
0.0403109 -0.236469 -0.04375 0.000977516 0.000977516 0.999999 
0.017924 -0.151478 -0.04375 0.000977516 0.000977516 0.999999 
0.0341964 -0.0693385 -0.04375 0.000977516 0.000977516 0.999999 
4.30333e-05 -0.165967 -0.04375 0.000977516 0.000977516 0.999999 
0.0532665 -0.198217 -0.04375 0.000977516 0.000977516 0.999999 
0.054224 -0.115501 -0.04375 0.000977516 0.000977516 0.999999 
0.0512295 -0.080747 -0.04375 0.000977516 0.000977516 0.999999 
0.0214719 -0.253088 -0.04375 0.000977516 0.000977516 0.999999 
0.0530845 -0.253096 -0.04375 0.000977516 0.000977516 0.999999 
0.0419356 -0.176543 -0.04375 0.000977516 0.000977516 0.999999 
0.014247 -0.114684 -0.04375 0.000977516 0.000977516 0.999999 
0.0487778 -0.301535 -0.04375 0.000977516 0.000977516 0.999999 
-0.0280281 -0.093682 -0.04375 0.000977516 0.000977516 0.999999 
0.0418682 -0.144091 -0.04375 0.000977516 0.000977516 0.999999 
0.0434867 -0.220068 -0.04375 0.000977516 0.000977516 0.999999 
0.0517315 -0.183245 -0.04375 0.000977516 0.000977516 0.999999 
0.0148484 -0.0956015 -0.04375 0.000977516 0.000977516 0.999999 
0.0286533 -0.0903805 -0.04375 0.000977516 0.000977516 0.999999 
-0.0236353 -0.153952 -0.04375 0.000977516 0.000977516 0.999999 
0.0398156 -0.199931 -0.04375 0.000977516 0.000977516 0.999999 
-0.00253125 -0.181065 -0.04375 0.000977516 0.000977516 0.999999 
0.00804255 -0.0866205 -0.04375 0.000977516 0.000977516 0.999999 
0.0358222 -0.300041 -0.04375 0.000977516 0.000977516 0.999999 
0.0498943 -0.0991605 -0.04375 0.000977516 0.000977516 0.999999 
0.0247939 -0.176706 -0.04375 0.000977516 0.000977516 0.999999 
-0.0195793 -0.101677 -0.04375 0.000977516 0.000977516 0.999999 
0.00754765 -0.1839 -0.04375 0.000977516 0.000977516 0.999999 
0.037193 -0.257698 -0.04375 0.000977516 0.000977516 0.999999 
0.0558115 -0.285473 -0.04375 0.000977516 0.000977516 0.999999 
-0.0182965 -0.167049 -0.04375 0.000977516 0.000977516 0.999999 
0.010727 -0.160074 -0.04375 0.000977516 0.000977516 0.999999 
0.0479851 -0.353231 -0.04375 0.000977516 0.000977516 0.999999 
0.0160356 -0.236278 -0.04375 0.000977516 0.000977516 0.999999 
0.0579635 -0.155153 -0.04375 0.000977516 0.000977516 0.999999 
0.0381314 -0.0989415 -0.04375 0.000977516 0.000977516 0.999999 
0.0610875 -0.378531 -0.04375 0.000977516 0.000977516 0.999999 
