ply
format ascii 1.0
comment Created by CloudCompare v2.11.3 (Anoia)
comment Created 05/05/2022 14:00
obj_info Generated by CloudCompare!
element vertex 871
property float x
property float y
property float z
property float nx
property float ny
property float nz
end_header
-94.0885 61.78 -25.7985 -0.285597 -0.416941 -0.862899 
-93.0966 61.5712 -25.9405 -0.154288 -0.573711 -0.804394 
-91.9774 61.4778 -25.8825 -0.0153413 -0.662466 -0.748935 
3.2621 62.6729 -25.7465 0.215268 0.118461 -0.969343 
-18.5454 62.812 -26.2875 -0.258731 0.278744 -0.924857 
1.3495 62.0943 -25.9415 0.118507 0.0678829 -0.99063 
-2.4282 63.018 -26.0585 0.0352197 0.139743 -0.989561 
0.0774002 63.7314 -25.9045 0.0659678 0.128464 -0.989518 
-1.4119 63.454 -26.1235 0.0211849 0.130454 -0.991228 
-2.5128 65.2874 -25.7905 -0.00817398 0.211356 -0.977375 
1.319 64.4 -25.8075 0.135613 0.191379 -0.972103 
-3.7209 64.3587 -25.8515 0.144655 0.293367 -0.944992 
-6.1505 65.5217 -26.1995 0.226749 0.373039 -0.899682 
-4.7118 65.4762 -25.6465 0.209451 0.394002 -0.894926 
-1.2308 65.091 -25.7165 0.0422589 0.220953 -0.974368 
-13.4022 66.5535 -25.9475 -0.194313 0.338985 -0.920506 
-7.7941 65.6566 -26.3715 0.137191 0.356142 -0.924306 
-7.0881 67.0487 -25.7385 0.206727 0.441712 -0.873014 
13.1441 79.3843 -25.3335 -0.0920433 -0.937774 -0.334824 
14.0908 79.3958 -25.8745 -0.103975 -0.933073 -0.344332 
10.5079 80.1466 -26.6055 -0.357695 -0.922769 -0.143356 
23.9903 79.1947 -25.1295 0.142883 -0.75051 -0.645228 
25.136 80.1589 -25.8525 0.185752 -0.634012 -0.750683 
9.4287 80.9279 -25.9985 -0.621287 -0.768711 0.151937 
28.5268 82.0347 -26.0575 0.0883033 -0.314992 -0.944977 
31.4566 81.6661 -25.7085 0.117716 -0.20885 -0.970837 
7.8281 82.0439 -25.7155 -0.671704 -0.735815 0.0859665 
30.2938 81.6242 -25.7455 0.138778 -0.297766 -0.944498 
6.5745 83.01 -25.3265 -0.0670759 -0.809192 -0.583703 
5.944 83.2723 -25.7935 -0.432107 -0.615627 -0.659005 
30.8529 83.5343 -26.0235 0.212062 -0.085569 -0.973503 
31.7817 83.7073 -25.9265 0.223293 0.010633 -0.974693 
5.4612 84.6057 -25.8545 -0.938193 -0.224442 -0.263475 
31.1246 84.5211 -25.9325 0.235492 0.17163 -0.956602 
30.7069 85.9473 -25.6325 0.271964 0.358161 -0.893172 
27.7806 87.2572 -26.0375 0.294301 0.555196 -0.77791 
17.3491 89.0121 -24.7955 0.0854074 0.974139 -0.209186 
15.5131 89.6389 -25.9415 0.773499 0.628377 -0.0827194 
14.4958 92.1048 -25.6855 0.86956 0.325512 0.371359 
7.0189 93.3291 -25.4415 -0.655829 0.107586 0.747203 
14.1331 93.8586 -26.0745 0.860119 0.415494 0.295905 
13.053 95.3635 -25.9955 0.588994 0.42308 0.688542 
7.3635 96.152 -25.7405 -0.467462 0.284204 0.837083 
11.739 96.4855 -25.6025 0.509415 0.28057 0.813497 
8.8123 96.8894 -25.4645 -0.230423 0.340563 0.911549 
11.0966 97.4806 -25.7115 0.258668 0.652224 0.712527 
9.432 97.9734 -25.8595 0.0333483 0.428192 0.903072 
10.5218 98.1441 -26.1375 0.223033 0.536817 0.813685 
-29.4954 19.0747 -25.2615 0.0469926 -0.710585 -0.702041 
-88.1713 20.0245 -24.9345 -0.279335 -0.950274 0.137663 
-26.9028 19.7587 -25.3995 0.130146 -0.662696 -0.737493 
-26.0548 20.2432 -25.6925 0.198933 -0.636895 -0.744843 
-35.5102 19.3965 -24.6725 -0.26484 -0.743771 -0.61373 
-24.252 19.8493 -24.9675 0.173835 -0.578947 -0.796619 
-78.3239 21.1217 -25.4735 0.446465 -0.89427 -0.0308369 
-93.2188 22.5395 -24.8475 -0.410124 -0.891764 0.191196 
-19.8396 23.1215 -25.7525 0.210166 -0.491395 -0.845199 
-19.477 22.1335 -25.0615 0.30651 -0.532026 -0.789304 
-93.8902 22.4834 -26.1915 -0.372799 -0.923186 0.0935386 
-40.2868 22.7035 -24.9425 -0.574835 -0.661982 -0.480984 
-40.6295 24.2969 -26.3005 -0.556631 -0.607388 -0.566782 
-70.5699 24.4219 -25.0415 0.237306 -0.970126 0.0504121 
-16.5453 23.8025 -25.0505 0.33491 -0.58407 -0.73939 
-68.5108 25.1305 -25.0245 0.325971 -0.945191 0.0188787 
-67.1316 25.7536 -24.6845 0.392326 -0.916332 0.0800942 
-12.8821 26.7014 -25.5515 0.441797 -0.481214 -0.757132 
-100.645 26.9588 -25.2375 -0.518723 -0.53551 0.66645 
-61.9356 27.366 -25.6175 0.229561 -0.961533 0.150854 
-102.208 28.1924 -25.1125 -0.5626 -0.579495 0.589632 
-57.4814 29.0143 -24.9115 0.265285 -0.953158 0.145307 
-56.3327 29.5297 -25.9035 0.440077 -0.895234 0.0699187 
-55.1634 30.0136 -25.4625 0.50617 -0.857795 0.0893241 
-46.9713 29.7495 -24.7585 -0.826129 -0.520721 -0.215313 
-104.833 31.8789 -25.3615 -0.727145 -0.495254 0.475377 
-48.3279 32.339 -25.7655 -0.719991 -0.667572 -0.189634 
-106.488 33.4593 -25.6145 -0.431876 -0.605293 0.668658 
-105.774 33.3626 -25.2405 -0.622456 -0.565103 0.541486 
-8.7206 33.1129 -25.3335 0.648065 -0.286429 -0.70567 
-7.8184 37.0069 -25.0395 0.65368 -0.0617763 -0.754246 
-89.8644 36.9762 -25.6905 0.368812 0.921338 0.122937 
-7.9715 38.9651 -25.1795 0.622453 0.0467903 -0.781257 
-77.5098 39.0876 -24.8155 -0.433755 0.894181 0.110895 
-106.372 39.2406 -25.3955 -0.934776 -0.278891 0.22003 
-106.476 39.6337 -25.3355 -0.966539 -0.25638 0.00842562 
-76.5306 39.6813 -24.7875 -0.455987 0.882142 0.117903 
-106.977 39.9778 -25.4455 -0.637689 0.322901 -0.699348 
-106.979 40.4932 -25.2045 -0.825323 0.407117 -0.391276 
-8.8195 41.2782 -25.4045 0.449171 0.0587062 -0.891515 
-6.6411 41.0691 -25.1235 0.126444 -0.288825 -0.948995 
-71.7269 42.5714 -26.3035 -0.50697 0.860606 0.0483487 
-7.4957 42.7946 -25.7685 0.069315 -0.32565 -0.942946 
-97.467 42.1855 -25.0825 0.743109 0.456411 0.489365 
-70.6994 43.1159 -25.3125 -0.460108 0.882225 0.0999011 
-5.5555 42.8511 -25.2525 0.0878075 -0.368791 -0.925355 
-3.8018 43.1242 -25.6115 0.0433753 -0.379863 -0.924025 
-2.9053 42.1845 -25.1785 0.172777 -0.344149 -0.922881 
-98.0784 43.2492 -24.8995 0.806995 0.325017 0.493075 
-2.636 44.2252 -25.5725 0.198868 -0.290654 -0.935934 
-2.0574 43.8099 -25.3405 0.157201 -0.338052 -0.927905 
-0.940998 43.7451 -25.2475 0.158476 -0.354818 -0.921406 
-106.245 44.8876 -25.2575 -0.956466 0.160963 0.24344 
-1.5661 45.3642 -25.9445 0.300132 -0.229011 -0.925999 
-0.4132 44.1192 -25.1915 0.39801 -0.183808 -0.898778 
-98.6782 45.3272 -25.4855 0.823894 0.376229 0.423853 
-0.5662 46.1434 -25.4805 0.324168 -0.215636 -0.921095 
0.909302 46.1281 -25.1905 0.252976 -0.28442 -0.924721 
-106.336 46.9778 -25.1955 -0.938692 -0.0190533 0.344229 
1.0858 48.5535 -25.4695 0.476205 -0.0856888 -0.875149 
-106.644 48.1846 -25.1945 -0.957048 0.0730278 -0.28058 
2.5021 48.013 -24.8915 0.0493229 -0.398582 -0.915805 
-61.3834 49.1153 -25.7885 -0.512307 0.848007 0.13574 
3.0235 50.4815 -25.7005 0.337508 -0.117924 -0.933907 
-106.055 51.2225 -25.4185 -0.903157 0.0694736 -0.423653 
-55.961 52.2482 -25.1325 -0.47642 0.847815 0.232883 
-100.82 53.5503 -24.3025 0.753738 0.24705 0.60897 
-54.9172 53.0746 -25.2795 -0.427408 0.877154 0.218916 
-106.983 53.8797 -25.3245 -0.196092 -0.680916 -0.705621 
-106.396 53.4879 -25.1795 -0.778572 -0.446988 -0.440486 
-106.079 54.0699 -25.7995 -0.801752 -0.210019 -0.55954 
-100.487 54.7522 -25.7185 0.861683 0.38691 0.328334 
-107.545 53.8386 -25.3685 0.125503 -0.804697 -0.580268 
-50.9778 54.9018 -25.4465 -0.345555 0.930131 0.124291 
3.5322 55.2626 -25.2765 0.339026 -0.0294249 -0.940317 
-102.379 55.9367 -25.1725 0.455916 0.727808 0.512284 
-47.0582 56.2117 -25.3405 -0.369986 0.91582 0.156154 
-29.1012 56.3529 -24.7665 -0.111135 0.724602 -0.680148 
-27.3927 56.0117 -25.2775 -0.108027 0.694034 -0.711792 
-32.197 56.2009 -25.4325 0.00605547 0.96282 -0.270074 
-30.5018 56.1872 -24.8665 0.0848287 0.925037 -0.370284 
-24.9307 55.6303 -25.9105 -0.0821936 0.375935 -0.922994 
-43.9567 57.0556 -24.8125 -0.11331 0.993384 0.0187016 
2.4461 57.064 -25.7195 0.186044 -0.0612145 -0.980633 
4.3364 56.7953 -25.4165 0.178802 -0.148368 -0.972634 
-103.791 57.8108 -25.0275 0.407978 0.351705 0.84253 
-24.3786 56.649 -25.6795 -0.254596 0.300624 -0.919133 
-109.264 58.2586 -25.4565 -0.301232 0.460432 0.835022 
-106.971 58.7538 -25.8955 -0.0999011 0.882225 0.460108 
-106.06 58.675 -25.1315 -0.297023 0.614918 0.730516 
6.6059 58.9147 -25.0555 0.354177 0.0703047 -0.932532 
-22.4887 60.4922 -25.1135 -0.393844 0.276143 -0.876717 
-21.6905 61.385 -25.1065 -0.404847 0.257357 -0.87742 
-95.4821 60.7979 -25.0615 -0.354222 -0.23469 -0.905233 
-93.9789 60.9834 -25.4205 -0.109711 -0.474463 -0.873412 
-92.9774 60.9778 -25.5235 -0.0851603 -0.584575 -0.806858 
4.6835 61.1719 -25.4805 0.300637 0.0932106 -0.949173 
-95.2988 61.9913 -25.2745 -0.35583 -0.35583 -0.864159 
-94.9821 62.4758 -25.6955 -0.397878 -0.535416 -0.744998 
-19.9973 62.4568 -25.7525 -0.422752 0.218051 -0.879622 
4.9862 62.1152 -25.2195 0.267185 0.0942248 -0.959028 
3.5214 64.0496 -25.3345 0.205598 0.194986 -0.959015 
-19.4347 64.2187 -25.5305 -0.305709 0.329569 -0.893267 
-19.8276 65.4507 -24.8855 -0.295091 0.408234 -0.863867 
-18.2639 64.5646 -25.6035 -0.225723 0.332115 -0.915832 
-3.7347 65.2932 -25.6495 -0.0420279 0.212541 -0.976248 
0.224503 65.9249 -25.5785 0.10605 0.278873 -0.954454 
-17.4651 67.2112 -24.9385 -0.153048 0.473721 -0.867274 
-5.1379 67.1226 -25.0665 -0.0136603 0.304252 -0.952494 
-5.9572 67.3993 -25.0645 0.238141 0.46263 -0.853969 
-12.1079 67.2736 -25.6935 -0.137903 0.371922 -0.917964 
-9.6444 68.8838 -25.1385 0.110606 0.427024 -0.89745 
-10.9717 67.8688 -25.7415 -0.0733872 0.366936 -0.927347 
19.2699 78.9618 -25.5635 0.0811137 -0.838175 -0.539335 
21.0271 78.9013 -25.0445 0.0551312 -0.810005 -0.583826 
11.5858 79.7272 -25.3855 -0.422091 -0.904866 -0.0552899 
27.2125 79.5615 -24.9015 -0.034963 -0.597169 -0.801353 
10.0462 80.4243 -25.6395 -0.520779 -0.846807 0.108195 
26.2505 80.047 -25.3715 0.172038 -0.619642 -0.765798 
28.5412 79.972 -25.3365 0.039924 -0.507999 -0.860432 
29.2242 80.9925 -25.7875 0.117477 -0.382835 -0.916317 
30.084 80.1978 -25.0985 0.0427137 -0.511187 -0.858408 
31.3513 80.3801 -25.3305 0.0196796 -0.415896 -0.909199 
8.9088 81.398 -25.5305 -0.574743 -0.80102 0.167445 
31.9529 82.217 -25.7075 0.26776 -0.145203 -0.952481 
32.9398 82.1942 -25.3145 0.28036 -0.158465 -0.946724 
6.0226 82.9778 -25.5555 -0.0768375 -0.729231 -0.679939 
6.0662 82.6048 -24.9405 0.249886 -0.814845 -0.523053 
6.9667 82.975 -25.5125 -0.507271 -0.773061 -0.380858 
33.6593 83.7308 -25.3055 0.34791 0.0113861 -0.937459 
32.8345 84.9362 -25.3925 0.279231 0.140284 -0.949921 
5.4055 84.5195 -25.1565 -0.962858 0.144624 -0.228011 
32.3462 85.3958 -25.4615 0.247207 0.290075 -0.924524 
30.4609 86.7067 -25.3445 0.268225 0.45215 -0.850656 
29.3291 87.0988 -25.5765 0.299214 0.520855 -0.799488 
21.0085 89.0063 -25.0225 -0.0412726 0.982287 -0.182779 
25.7063 88.5797 -25.4975 0.199085 0.816095 -0.542544 
7.392 88.1842 -24.6925 -0.767286 0.0676594 0.637726 
16.1382 89.2904 -24.6775 0.379982 0.924666 -0.0246405 
14.8652 91.0095 -25.4895 0.895904 0.426015 0.125964 
14.5372 91.2717 -25.0175 0.613672 0.492619 0.617035 
6.9395 91.705 -25.3385 -0.730381 0.0210282 0.682717 
14.0704 91.9248 -25.1795 0.589757 0.376196 0.714608 
14.0494 93.3999 -25.6585 0.708755 0.308365 0.634489 
13.4216 94.3462 -25.5635 0.614674 0.409231 0.674319 
7.1177 95.137 -25.6325 -0.53422 0.179077 0.82616 
12.2639 95.2452 -25.3625 0.444274 0.396158 0.803542 
10.1161 96.4683 -25.1225 -0.0919267 0.27578 0.956815 
10.3391 97.2749 -25.4705 -0.0459693 0.536308 0.84277 
10.9658 96.9818 -25.1465 0.202009 0.423186 0.883236 
-30.9359 18.698 -24.9105 -0.0709455 -0.722485 -0.687737 
-29.7385 18.4533 -24.5505 0.018162 -0.716702 -0.697143 
-27.7371 18.1987 -24.3715 0.0467843 -0.63655 -0.769815 
-83.938 19.3406 -24.7945 -0.056102 -0.995536 0.0759027 
-34.2914 19.3382 -24.9635 -0.139099 -0.764296 -0.629685 
-86.0742 19.659 -24.3295 -0.189976 -0.967973 0.164129 
-81.9226 19.5426 -25.2265 0.329014 -0.944183 -0.0163877 
-81.1083 19.9629 -24.9825 0.357609 -0.933399 0.0296932 
-36.6241 20.1826 -24.8925 -0.361504 -0.705014 -0.61014 
-90.1494 20.7691 -25.4615 -0.439626 -0.889211 0.126624 
-79.2758 20.8703 -25.1735 0.401287 -0.915147 0.038407 
-38.5819 20.9359 -24.5895 -0.508903 -0.660062 -0.552571 
-92.2496 21.8765 -25.2975 -0.422882 -0.895598 0.138113 
-76.9259 21.9639 -25.0725 0.0970584 -0.994012 -0.0502026 
-76.089 22.0615 -25.5705 0.325986 -0.945233 -0.0163622 
-18.3896 21.9448 -24.4095 0.323728 -0.5782 -0.748922 
-94.879 23.1847 -25.0275 -0.412635 -0.893319 0.178085 
-74.8404 22.8338 -24.9555 0.502857 -0.860633 0.0802881 
-73.5697 23.5906 -24.5575 0.385504 -0.914355 0.123862 
-72.835 23.8003 -24.5045 0.371126 -0.91731 0.144249 
-15.7994 23.1785 -24.4115 0.316208 -0.560185 -0.76564 
-41.6696 24.5027 -25.2765 -0.589149 -0.646218 -0.485083 
-97.6328 24.6419 -24.9525 -0.563017 -0.792566 0.234203 
-69.6529 24.8458 -25.4235 0.318983 -0.946699 -0.0448369 
-42.473 25.3132 -25.2295 -0.563884 -0.654779 -0.503288 
-98.683 25.4864 -24.9125 -0.521395 -0.729953 0.441945 
-98.9841 25.9393 -24.6485 -0.458206 -0.507831 0.72949 
-65.7278 26.3137 -25.2935 0.337212 -0.932452 0.129697 
-11.3789 26.9909 -24.4485 0.554033 -0.47369 -0.684591 
-99.8307 27.0964 -24.7175 -0.531063 -0.461142 0.710859 
-60.946 27.7176 -25.0035 0.333154 -0.905535 0.262708 
-47.6178 30.6656 -23.9445 -0.878461 -0.461371 -0.12427 
-9.9664 29.5747 -24.8195 0.655436 -0.351418 -0.668512 
-53.7898 31.3577 -24.5085 0.640559 -0.754569 0.142513 
-8.9023 30.9902 -24.3985 0.643364 -0.340413 -0.685712 
-107.903 34.4991 -24.5605 0.422933 -0.204835 0.882706 
-106.545 34.4275 -25.0895 -0.278715 -0.533809 0.798352 
-107.037 33.9755 -24.9425 0.384467 -0.0354287 0.922459 
-7.98 33.9292 -24.9315 0.73557 -0.152551 -0.660049 
-7.4163 34.6252 -24.3125 0.725515 -0.152979 -0.670988 
-87.6848 36.3172 -24.7935 0.0859333 0.981576 0.170656 
-86.9698 36.2094 -24.5575 -0.103526 0.974143 0.200816 
-82.959 36.6777 -24.6295 -0.281043 0.948017 0.149262 
-81.2972 37.4202 -25.5005 -0.392563 0.919458 0.0221713 
-93.2335 37.9967 -24.3045 0.551256 0.649033 0.524283 
-80.3317 37.9851 -25.4525 -0.388343 0.921514 0.00128166 
-93.4247 38.5524 -24.8735 0.565697 0.764412 0.309291 
-78.4204 38.7394 -24.5445 -0.415144 0.897339 0.149794 
-106.477 39.4778 -25.1185 -0.959019 -0.226196 -0.170639 
-75.6564 40.0804 -25.2135 -0.468366 0.879409 0.0852845 
-7.2957 39.6587 -24.7415 0.359771 -0.0929744 -0.928397 
-106.622 41.1098 -25.0605 -0.960108 0.274854 0.0514568 
-96.4341 41.034 -24.8535 0.688152 0.622458 0.372818 
-8.2718 41.3643 -25.2545 0.162179 -0.198507 -0.966588 
-97.035 41.7714 -25.2395 0.688052 0.615452 0.384451 
-4.8541 41.7395 -24.7225 0.114064 -0.369677 -0.922132 
-72.5305 41.8505 -24.6675 -0.533877 0.813893 0.229244 
-106.582 42.811 -25.2015 -0.943463 0.20522 0.260313 
-106.256 42.269 -24.1895 -0.897439 0.0987878 0.429936 
-1.6261 42.7532 -24.8005 0.221499 -0.348898 -0.910609 
-0.020298 42.639 -24.6605 0.230629 -0.313713 -0.921083 
-106.55 43.4978 -25.7235 -0.992229 0.0945522 -0.080882 
-98.4138 44.2293 -24.7905 0.81792 0.327484 0.473033 
-69.4172 43.6093 -25.3335 -0.507212 0.85583 0.101442 
0.523701 44.7388 -24.7475 0.340563 -0.230423 -0.911549 
-67.0702 44.9454 -23.4945 -0.563484 0.767807 0.304888 
-99.3007 45.1797 -24.3555 0.709463 0.362105 0.6046 
-66.4853 45.8034 -25.2215 -0.573356 0.802097 0.167041 
-99.428 46.4603 -24.9015 0.820669 0.232497 0.521964 
1.4163 46.6673 -25.1335 0.427218 -0.141454 -0.893015 
1.9265 47.817 -24.9115 0.350116 -0.195779 -0.916018 
3.404 48.5369 -25.1455 0.137311 -0.314048 -0.939425 
-99.4221 48.5117 -25.1585 0.891024 0.067273 0.448944 
-62.3636 48.1692 -24.9855 -0.543261 0.806379 0.233711 
-106.691 49.3195 -24.6865 -0.997949 -0.0157737 -0.0620432 
-59.2529 50.1863 -24.9205 -0.580861 0.775003 0.24894 
-57.8345 51.003 -24.7705 -0.491753 0.81854 0.296937 
-106.22 51.4778 -24.6955 -0.901442 0.101395 -0.420858 
-99.9039 51.3734 -24.8795 0.858879 0.144362 0.491413 
5.4401 50.6996 -24.5495 0.521813 -0.037174 -0.852249 
4.5468 51.804 -25.0925 0.471022 0.0146777 -0.881999 
4.5139 53.3732 -24.9205 0.479845 0.059462 -0.875336 
-106.511 53.4678 -24.7075 -0.720097 -0.49725 -0.483945 
-106.977 53.7777 -24.6955 -0.243819 -0.881039 -0.405368 
-107.491 53.6277 -24.4085 0.0209569 -0.64128 -0.767021 
-51.9309 54.1749 -24.7275 -0.426793 0.855127 0.294287 
4.8408 54.0556 -24.7675 0.33956 -0.0979758 -0.935468 
6.4729 54.1004 -24.2875 0.265587 -0.202286 -0.942626 
-50.9424 54.6442 -24.5345 -0.343582 0.861266 0.374396 
-49.9298 54.8758 -24.5215 -0.337712 0.872551 0.352994 
5.3066 56.7473 -25.1595 0.211932 -0.239278 -0.94754 
-109.049 55.4155 -24.7475 0.228238 0.572924 0.787188 
-109.516 56.3068 -24.9565 -0.00350149 0.213591 0.976917 
-108.379 55.331 -24.7665 -0.00961565 0.583807 0.811835 
-107.327 55.4249 -24.7405 0.077653 0.208307 0.974976 
-107.794 55.9405 -24.6295 -0.108135 -0.0412473 0.99328 
-36.1851 56.1318 -26.3025 0.184073 0.980518 -0.0685761 
-34.114 56.0556 -25.4005 -0.00563732 0.98653 -0.163482 
-30.137 56.3774 -24.4775 -0.106403 0.814787 -0.569913 
7.557 56.0043 -24.6365 0.248066 -0.188422 -0.950242 
-106.847 57.5266 -24.6335 -0.11524 0.247312 0.962058 
-44.7107 56.8822 -24.4845 -0.276398 0.956363 0.094728 
-38.1593 56.5862 -25.8305 0.122537 0.990606 -0.0606961 
-25.9726 55.9387 -25.6375 -0.125986 0.496702 -0.858729 
-108.614 57.9489 -25.0515 -0.215214 0.385042 0.897455 
6.246 57.7036 -25.2155 0.246926 -0.0714457 -0.966397 
7.7191 57.3358 -24.6405 0.421243 0.0170597 -0.906787 
-107.154 57.8578 -24.8155 -0.108494 0.530895 0.840464 
-105.426 58.8511 -25.0755 -0.00135976 0.572458 0.819933 
-24.1391 58.3467 -25.2165 -0.303106 0.36041 -0.882174 
7.0925 59.6701 -24.7485 0.316137 0.0239307 -0.948412 
-23.7271 59.7426 -24.6585 -0.367707 0.346167 -0.863111 
-94.7951 60.194 -24.9365 -0.153596 -0.426336 -0.891429 
-93.9774 60.4778 -25.1095 0.00134594 -0.523571 -0.851981 
-95.9769 61.603 -24.8205 -0.515074 -0.0955954 -0.851798 
7.1743 61.1552 -24.7915 0.218041 0.001166 -0.975939 
-20.8616 63.7292 -24.8365 -0.462614 0.283138 -0.840132 
5.3878 63.3858 -25.0985 0.201305 0.103778 -0.974016 
6.5764 63.8615 -24.7385 0.262223 0.165402 -0.950727 
-20.1521 64.4514 -25.1035 -0.466627 0.269504 -0.842393 
3.9028 65.1856 -25.0945 0.167968 0.228807 -0.958871 
-17.6356 66.2464 -25.3305 -0.260316 0.345617 -0.901546 
2.185 65.8349 -25.1125 0.158465 0.28036 -0.946724 
-15.5652 66.7762 -25.1665 -0.0565546 0.484163 -0.873148 
-14.7904 66.2963 -25.5245 -0.205188 0.382726 -0.900788 
-3.525 66.9763 -25.3435 -0.0209819 0.282639 -0.958997 
-4.5619 68.6163 -24.7755 -0.0374755 0.347617 -0.936887 
-2.1219 66.7536 -25.2805 0.0185189 0.290129 -0.956808 
-0.8918 67.312 -25.2145 0.0585452 0.334358 -0.940626 
-6.988 68.972 -24.4465 0.188167 0.51633 -0.835462 
-3.3759 68.7527 -24.6145 0.0115141 0.367171 -0.930082 
-14.2186 68.096 -25.0805 -0.223939 0.413769 -0.88241 
-13.2373 69.0073 -24.7415 -0.222994 0.403161 -0.887544 
-11.8434 69.7142 -24.8925 -0.111459 0.441603 -0.89026 
-10.2881 69.7736 -24.8165 0.0862461 0.496268 -0.863875 
14.7255 78.9552 -24.7325 -0.0962828 -0.891663 -0.442343 
16.7346 78.5539 -24.5805 -0.0795101 -0.784981 -0.614396 
17.6868 78.5361 -24.6305 0.00949683 -0.842504 -0.538606 
19.1259 78.427 -24.4705 0.0341246 -0.869496 -0.49276 
22.4638 78.9593 -25.1035 0.0585092 -0.786306 -0.61506 
12.1102 79.2481 -24.1665 -0.50922 -0.821872 -0.255384 
12.8022 79.0867 -24.5665 -0.191199 -0.933663 -0.302847 
28.2535 79.1781 -24.7855 0.0180416 -0.620353 -0.784115 
31.2272 78.9848 -24.4985 -0.0431983 -0.553217 -0.831916 
31.978 80.632 -25.3595 0.234765 -0.321182 -0.917457 
32.0756 79.1675 -24.5675 0.170984 -0.509977 -0.843023 
10.9306 80.1082 -25.0205 -0.461252 -0.881599 0.10015 
33.0271 80.303 -24.8345 0.250725 -0.344563 -0.904662 
9.9468 80.7696 -24.2575 -0.587236 -0.794496 0.154694 
7.507 82.3991 -25.1315 -0.517439 -0.850995 -0.0898035 
34.7363 82.2817 -24.7075 0.348842 -0.124489 -0.928877 
34.5631 84.1537 -24.8835 0.344386 0.0951415 -0.933995 
5.3317 83.9896 -24.8145 -0.822485 -0.369247 -0.432637 
5.6305 83.5078 -24.9505 -0.860641 -0.4755 -0.182201 
5.0224 84.4806 -24.8185 -0.651247 0.294267 -0.699488 
5.0226 84.0947 -24.6955 -0.425557 -0.276078 -0.86179 
33.538 85.1911 -25.1645 0.356975 0.248267 -0.900518 
5.5226 84.9088 -24.6955 -0.170741 0.95959 0.223684 
6.0211 84.8614 -25.0955 0.0412084 0.72612 0.686332 
6.5089 85.6221 -25.2385 -0.711095 0.311205 0.630472 
6.7251 84.4039 -24.5095 -0.388637 0.512221 0.765892 
30.1768 87.7966 -24.7075 0.198639 0.623633 -0.756059 
18.9794 88.9817 -25.6675 0.0173878 0.981833 -0.188948 
22.3975 88.8253 -25.2945 0.0479624 0.939805 -0.33833 
25.1354 89.0189 -24.7845 0.0727191 0.934771 -0.347729 
26.7877 88.4928 -25.0645 0.200212 0.805435 -0.557844 
7.3412 90.7879 -24.9525 -0.699779 0.0267521 0.713859 
15.4806 89.8327 -24.6805 0.632866 0.704084 0.322098 
7.7551 92.2858 -24.6775 -0.561092 0.109304 0.820505 
13.1861 92.0414 -24.4725 0.545366 0.329794 0.770592 
7.8406 93.6877 -24.9335 -0.480743 0.209477 0.851473 
8.9613 94.3345 -24.6555 -0.281421 0.374727 0.883392 
12.4378 93.7854 -24.6765 0.422019 0.365118 0.829813 
10.1338 94.9751 -24.8375 0.00902287 0.387984 0.921622 
8.8179 95.4068 -25.0085 -0.22946 0.257273 0.9387 
10.5574 95.0652 -24.9505 -0.0633572 0.533609 0.843355 
9.7627 95.5778 -24.9205 -0.0291966 0.185691 0.982174 
11.0445 95.6199 -24.9875 0.164172 0.249595 0.954332 
-28.4612 18.8409 -24.8285 0.0647309 -0.671763 -0.737932 
-26.3031 18.8676 -24.7005 0.129388 -0.611248 -0.780791 
-33.0998 18.8764 -24.4725 -0.142725 -0.740669 -0.656536 
-24.3615 18.4174 -23.9475 0.178819 -0.643443 -0.744315 
-37.0849 19.4785 -23.7905 -0.4497 -0.721844 -0.526033 
-36.1663 19.0783 -23.8765 -0.334502 -0.785839 -0.520158 
-21.9591 20.0669 -24.7235 0.224104 -0.557943 -0.799048 
-86.9425 19.8399 -25.0605 -0.212107 -0.973706 0.0831061 
-82.4604 19.483 -24.5225 0.160655 -0.977631 0.135748 
-80.9095 20.2517 -23.7935 0.321037 -0.907407 0.271196 
-20.8623 20.9455 -24.9235 0.290859 -0.50468 -0.812834 
-38.5131 20.4969 -23.8575 -0.459433 -0.784121 -0.417224 
-91.0306 21.7609 -23.6865 -0.431846 -0.843425 0.319597 
-92.441 22.1874 -24.2865 -0.452956 -0.8491 0.271773 
-39.3301 21.9884 -24.7755 -0.543396 -0.651066 -0.529937 
-42.0062 23.9369 -23.9085 -0.606198 -0.656297 -0.449221 
-95.252 23.6155 -24.1075 -0.42705 -0.846336 0.318346 
-96.4369 24.1456 -24.0895 -0.474037 -0.795418 0.377623 
-71.7981 24.6276 -23.8825 0.291638 -0.931268 0.218376 
-14.3276 24.8705 -25.0085 0.380726 -0.540859 -0.750013 
-97.717 25.1545 -24.1015 -0.600043 -0.529052 0.600043 
-97.9995 26.1007 -23.9175 -0.594763 -0.49704 0.63183 
-43.7497 25.9202 -24.8085 -0.615155 -0.661833 -0.428441 
-98.9268 26.7405 -24.2765 -0.556786 -0.502957 0.661078 
-45.0376 26.8463 -23.9105 -0.707885 -0.630131 -0.319115 
-61.9706 27.6738 -24.4935 0.278119 -0.912987 0.298504 
-45.7311 27.6235 -23.8215 -0.774218 -0.575539 -0.263329 
-100.48 27.8333 -24.7115 -0.466316 -0.553228 0.690281 
-60.0283 28.3766 -24.4375 0.287971 -0.916008 0.279288 
-59.3281 28.4958 -24.3795 0.293817 -0.921583 0.253686 
-101.631 28.9018 -24.2615 -0.445285 -0.595381 0.668762 
-46.4623 28.997 -24.4435 -0.780481 -0.577961 -0.23835 
-102.236 29.2554 -24.4515 -0.655439 -0.413175 0.632208 
-58.2267 29.0183 -24.4355 0.273919 -0.938555 0.209958 
-102.709 30.6662 -24.2655 -0.633199 -0.420471 0.649818 
-56.5386 29.5949 -24.4205 0.422897 -0.893101 0.15339 
-55.605 30.0075 -24.2675 0.396446 -0.909164 0.127479 
-53.9907 31.4538 -23.4205 0.634637 -0.729596 0.254805 
-103.997 31.4414 -24.6165 -0.624991 -0.493591 0.604776 
-52.7411 32.2344 -24.5005 0.63291 -0.752442 0.182364 
-48.4847 32.2754 -23.8225 -0.815605 -0.578238 -0.0207006 
-104.792 32.8272 -24.5625 -0.634732 -0.463907 0.617985 
-7.974 32.6921 -24.5005 0.733318 -0.282783 -0.618287 
-105.341 33.8207 -24.2175 -0.595335 -0.435245 0.67538 
-51.3328 33.0518 -25.6475 0.562254 -0.819284 0.112451 
-50.6554 33.4548 -25.4115 0.312124 -0.949111 0.0420411 
-49.1292 33.0043 -24.1825 -0.690759 -0.717158 0.0923945 
-50.4648 33.6384 -24.2635 0.088162 -0.981859 0.16787 
-108.738 34.6633 -24.0745 0.420376 -0.0693825 0.904693 
-107.168 34.9196 -24.6065 0.186347 -0.351356 0.917509 
-106.473 34.9605 -24.5215 -0.328361 -0.278297 0.902624 
-105.627 35.0724 -24.0865 -0.540711 -0.139966 0.829483 
-108.522 36.1263 -23.8825 0.309453 -0.262963 0.913832 
-107.216 35.9119 -24.4935 0.327469 -0.186924 0.926188 
-106.518 36.1354 -24.7215 -0.169192 -0.266646 0.948828 
-107.701 36.9184 -23.7625 0.239586 -0.311318 0.919608 
-6.9679 36.0703 -24.2105 0.683749 -0.104851 -0.722145 
-82.2755 37.1598 -25.7495 -0.334293 0.942327 0.0163993 
-6.9633 38.3447 -24.4035 0.594308 -0.122401 -0.794869 
-80.9017 37.4685 -24.0415 -0.423081 0.89349 0.150588 
-94.4733 38.8474 -24.0935 0.586053 0.619831 0.521874 
-6.5236 38.1125 -23.9995 0.447273 -0.257983 -0.856383 
-5.6095 39.4759 -24.5155 0.183864 -0.291694 -0.938674 
-6.7129 39.5814 -24.5945 0.138889 -0.295307 -0.945253 
-96.126 40.066 -24.2525 0.437525 0.700373 0.563958 
-95.1624 39.9366 -24.4685 0.493711 0.767452 0.408982 
-1.5034 40.7625 -24.2575 0.351978 -0.257725 -0.899827 
-106.483 40.7669 -24.2295 -0.838387 0.391667 0.379083 
-106.994 40.66 -24.4955 -0.603693 0.741406 0.293039 
-4.3889 40.369 -24.1675 0.260158 -0.288904 -0.921332 
-3.8992 40.6726 -24.2675 -0.0965222 -0.449038 -0.888284 
-3.7171 42.0117 -25.0705 -0.0880718 -0.462726 -0.882116 
-2.2256 40.8323 -24.5255 0.176414 -0.345771 -0.921586 
-106.442 41.5133 -24.3595 -0.952774 0.134212 0.272411 
-97.5768 41.4403 -24.2905 0.534678 0.645999 0.544798 
-72.082 41.7482 -23.7125 -0.512575 0.777756 0.363815 
0.131001 41.1253 -23.9165 0.0845746 -0.445057 -0.8915 
-98.6221 42.975 -24.1425 0.659194 0.272935 0.700693 
-70.7027 42.8753 -24.1415 -0.490375 0.834714 0.250568 
0.7131 42.2963 -24.3315 0.34447 -0.236914 -0.908412 
-106.26 43.6053 -24.3165 -0.947783 0.0368936 0.316776 
-68.9773 43.55 -23.6085 -0.515568 0.805674 0.291682 
0.927402 43.7321 -24.3885 0.424882 -0.15699 -0.891532 
1.5822 43.7244 -24.1115 0.302812 -0.288183 -0.908436 
2.5636 44.7569 -24.2665 0.375493 -0.234131 -0.896765 
1.8159 45.2977 -24.6915 0.324319 -0.251602 -0.911874 
2.9803 46.3188 -24.2145 0.29403 -0.251001 -0.92225 
2.6212 47.4276 -24.6135 0.100954 -0.345934 -0.932812 
4.1275 47.4542 -24.7045 0.15628 -0.330539 -0.930764 
4.8293 46.5117 -24.2075 0.188352 -0.338468 -0.921935 
-100.023 46.6314 -24.1685 0.760475 0.135959 0.634974 
4.6062 48.2901 -24.7385 0.396357 -0.154849 -0.904944 
-100.27 48.1383 -23.9065 0.721907 0.0441402 0.690581 
-99.8712 49.6028 -24.6265 0.820581 0.0816285 0.565671 
-60.2185 49.5513 -25.0385 -0.489501 0.847966 0.203331 
-106.654 49.9774 -24.1955 -0.978107 -0.0592426 0.19949 
-106.321 49.4778 -24.1955 -0.647856 -0.431349 0.62787 
-106.617 50.8297 -24.3245 -0.980556 0.133768 -0.143586 
-106.572 51.458 -24.2915 -0.920285 -0.137834 -0.366165 
-56.6364 51.417 -23.5875 -0.44599 0.78332 0.433016 
-100.842 52.322 -23.9135 0.665213 0.172802 0.726382 
-56.4686 51.7822 -24.2315 -0.37722 0.863757 0.334109 
-107.512 52.368 -24.2815 -0.334169 -0.556948 -0.760355 
-106.535 52.081 -24.3125 -0.43709 -0.0612743 -0.897328 
-106.31 52.327 -24.5615 -0.855729 -0.147741 -0.495884 
-54.6013 52.6505 -23.9025 -0.383609 0.816561 0.431361 
-107.046 53.3955 -24.3215 -0.164159 -0.280835 -0.945613 
5.8054 52.7813 -24.1985 0.422898 -0.0840285 -0.902273 
-100.996 54.8644 -24.7595 0.733714 0.468716 0.491903 
-106.583 54.9669 -24.7495 -0.144428 0.424704 0.893738 
-106.995 54.7052 -24.2135 0.338007 0.845795 0.412773 
7.8086 54.4001 -24.0175 0.165044 -0.290532 -0.942524 
-109.477 55.4778 -24.4675 0.532865 0.446544 0.718786 
-106.1 55.6503 -24.5675 -0.427011 0.0668484 0.901772 
-48.8429 55.368 -24.2725 -0.222025 0.892513 0.392588 
6.5359 55.173 -24.4785 0.20353 -0.249973 -0.94662 
-104.707 55.9505 -24.0985 0.0992904 0.437717 0.893614 
-103.111 55.9464 -24.6845 0.308726 0.686955 0.657861 
-102.082 55.465 -24.2705 0.403726 0.779888 0.47831 
-46.4914 56.2088 -24.3695 -0.386271 0.863339 0.324714 
-45.3656 56.4711 -23.9695 -0.371069 0.828985 0.41844 
-36.8363 56.3906 -24.4105 0.139422 0.983225 -0.117599 
-36.0794 56.5181 -23.4235 0.1222 0.978834 -0.164168 
-35.3524 56.2484 -24.8825 0.111891 0.988176 -0.104824 
-33.2086 56.3982 -24.6055 -0.145347 0.968552 -0.201943 
-106.903 56.821 -24.6005 -0.0836585 0.00317691 0.996489 
-104.602 56.5791 -24.3605 0.311176 0.32011 0.894818 
-39.9075 56.8732 -24.4045 0.0796369 0.996006 -0.0403639 
-31.0615 56.5695 -24.0935 -0.0414337 0.904858 -0.423693 
-28.4926 57.2361 -24.1785 -0.290673 0.510641 -0.80917 
-105.965 57.2781 -24.5055 -0.194461 0.1788 0.964477 
-105.524 57.3006 -24.3565 -0.0926616 0.293646 0.951413 
-27.4423 56.5211 -24.9025 -0.229666 0.479105 -0.847179 
-27.2249 58.4368 -24.2285 -0.297612 0.459663 -0.836742 
-25.6444 58.2038 -24.6705 -0.260851 0.405601 -0.876039 
8.4497 58.5905 -24.2585 0.238201 -0.13407 -0.961918 
9.4585 60.2024 -24.1955 0.298792 0.0287541 -0.953885 
-96.6166 60.4704 -24.4325 -0.395514 -0.0829084 -0.91471 
-96.0769 59.9986 -24.5715 -0.340563 -0.230423 -0.911549 
-96.9774 59.9778 -24.2875 -0.298682 -0.0602491 -0.952449 
8.9569 59.4341 -24.2805 0.21837 -0.0861003 -0.97206 
-96.4771 61.4778 -24.5015 -0.503147 -0.0230552 -0.863893 
7.8428 62.1681 -24.5895 0.251618 0.0771293 -0.964748 
-22.9052 62.8927 -24.0405 -0.415494 0.295905 -0.860119 
9.594 63.337 -24.1425 0.286382 0.112177 -0.951526 
8.4001 62.7908 -24.3265 0.21929 0.107744 -0.969692 
7.0949 64.6747 -24.3915 0.186238 0.157981 -0.96972 
-20.7039 66.0953 -24.2185 -0.420852 0.436977 -0.794943 
5.2687 65.3543 -24.7175 0.239237 0.278874 -0.930051 
-19.2831 66.1209 -24.6565 -0.327968 0.41812 -0.84712 
2.5633 67.0849 -24.7535 0.174963 0.328931 -0.928005 
5.1928 66.7742 -24.2405 0.0747381 0.202161 -0.976497 
-15.9423 67.9324 -24.4885 -0.181131 0.457982 -0.870313 
0.426102 67.9744 -24.6405 0.103382 0.337 -0.935812 
-6.4801 69.0729 -24.3635 -0.0381954 0.388539 -0.92064 
-1.9851 68.7332 -24.7075 0.0378688 0.369548 -0.92844 
1.0872 68.9003 -24.3865 0.133147 0.344535 -0.929283 
-8.3322 68.924 -25.0035 0.193883 0.5065 -0.840159 
-9.294 69.9337 -24.5495 0.190264 0.561658 -0.805196 
-7.523 70.0295 -23.8225 0.0659569 0.515025 -0.854634 
-4.4008 70.3151 -23.9375 -0.0198777 0.441285 -0.897147 
-2.7823 70.0717 -24.1375 0.0199728 0.448721 -0.893448 
-12.1755 70.5993 -24.3065 -0.0492451 0.569836 -0.820282 
15.1219 78.4894 -23.9875 -0.165895 -0.823498 -0.542522 
16.152 77.9719 -24.1315 -0.206529 -0.725181 -0.656855 
17.2344 78.0726 -24.1815 0.0849623 -0.807862 -0.583216 
18.1409 77.9695 -23.7745 0.0092869 -0.884909 -0.465672 
13.688 78.9763 -24.5475 -0.179128 -0.863073 -0.472248 
29.5011 79.9474 -25.0435 0.19702 -0.572731 -0.795715 
29.6952 78.5575 -23.9305 0.00137023 -0.601533 -0.798847 
32.8857 78.9958 -24.1815 0.179282 -0.481544 -0.857889 
33.9976 81.8182 -25.0595 0.330883 -0.168932 -0.928428 
35.0869 81.1054 -24.2915 0.285295 -0.262357 -0.921833 
35.9571 81.3381 -24.2305 0.296539 -0.209405 -0.93178 
5.5226 83.4778 -24.3005 -0.859166 -0.484846 -0.16358 
35.8763 82.9219 -24.5475 0.373242 -0.0299113 -0.927252 
5.0225 84.7627 -24.1955 -0.205413 0.975404 0.0799512 
5.6563 84.5671 -24.0245 0.612366 0.722236 0.321532 
35.4495 84.8433 -24.5155 0.425145 0.269716 -0.864005 
7.4672 86.2983 -24.4675 -0.67809 0.117219 0.725571 
34.2312 85.9775 -24.5035 0.377328 0.3618 -0.852481 
32.9633 87.2189 -24.4965 0.265699 0.456143 -0.849316 
32.1965 87.906 -24.2725 0.2097 0.552567 -0.806657 
7.9173 88.3864 -24.1115 -0.678459 0.0528484 0.732735 
31.0724 87.5104 -24.7925 0.165013 0.521798 -0.836958 
31.0801 88.4421 -24.0805 0.0829103 0.673464 -0.734556 
26.2409 88.9675 -24.4025 0.10311 0.914246 -0.39182 
27.158 89.0889 -24.0755 0.108798 0.883104 -0.456388 
28.3967 88.1959 -24.9535 0.216738 0.728179 -0.650215 
20.3106 89.0546 -23.8945 -0.00915071 0.999461 0.0315191 
24.6017 89.3429 -23.3875 -0.0603725 0.983717 -0.16928 
13.8443 90.5043 -24.2145 0.430843 0.450353 0.782021 
7.9821 90.9719 -24.4135 -0.543205 0.105744 0.832914 
9.5493 93.6735 -24.0585 -0.177236 0.319582 0.930835 
11.0536 93.8021 -24.2175 0.154339 0.383724 0.910459 
11.0237 94.9614 -24.7035 0.0585606 0.437161 0.897475 
-28.8586 17.5489 -23.7955 -0.0209959 -0.71806 -0.695664 
-30.6596 18.0041 -24.0535 -0.0708665 -0.741929 -0.666723 
-26.0624 17.4956 -23.4525 0.129981 -0.676796 -0.724605 
-34.6868 18.4477 -23.5985 -0.235969 -0.770415 -0.592266 
-33.2265 17.7563 -23.3625 -0.188956 -0.738924 -0.646751 
-37.5557 20.0659 -24.0655 -0.456238 -0.725003 -0.515963 
-88.0488 20.2414 -23.7925 -0.272278 -0.936914 0.219218 
-87.0604 20.1972 -23.4635 -0.237361 -0.945328 0.223641 
-20.2105 19.6329 -23.6235 0.34405 -0.611464 -0.712559 
-79.2508 21.0407 -24.0255 0.392063 -0.894256 0.215855 
-39.4159 20.8153 -23.4855 -0.555468 -0.708015 -0.436084 
-16.9666 22.1657 -24.0965 0.291993 -0.579199 -0.761097 
-77.2593 21.898 -24.4735 0.408923 -0.903565 0.127876 
-92.6214 22.7158 -23.1995 -0.362376 -0.806167 0.467737 
-41.2865 23.0043 -23.8805 -0.649443 -0.616052 -0.445762 
-94.2604 23.1005 -24.0235 -0.389142 -0.881955 0.265939 
-14.2141 23.1054 -23.4535 0.463892 -0.577771 -0.671554 
-43.3894 24.4957 -23.3265 -0.608761 -0.703931 -0.365913 
-12.1945 25.6885 -24.1275 0.508301 -0.541853 -0.669347 
-96.5247 24.541 -23.5855 -0.475845 -0.545969 0.689557 
-70.7659 24.7776 -23.1115 0.116074 -0.94594 0.302861 
-69.5432 25.0467 -23.4505 0.268173 -0.933691 0.237284 
-43.6894 25.4693 -24.0545 -0.65401 -0.630712 -0.417701 
-68.7549 25.1933 -23.7795 0.301717 -0.938217 0.169458 
-67.0831 26.0082 -23.0745 0.407884 -0.86618 0.288727 
-65.7809 26.5344 -23.9065 0.399893 -0.8898 0.219868 
-10.2138 27.4315 -23.8365 0.611311 -0.434747 -0.661282 
-63.0282 27.713 -23.0255 0.307135 -0.879042 0.364628 
-100.486 28.9408 -23.4415 -0.545375 -0.599406 0.585899 
-58.5664 29.295 -23.0785 0.254596 -0.919133 0.300624 
-9.1329 29.3766 -23.8205 0.631447 -0.359187 -0.687211 
-8.4948 30.0973 -23.6745 0.639782 -0.293434 -0.710335 
-7.9842 30.4211 -23.2575 0.764284 -0.27375 -0.583894 
-103.283 32.3138 -23.4385 -0.53944 -0.423964 0.727502 
-104.255 33.5506 -23.6325 -0.540974 -0.325869 0.775343 
-109.237 33.8923 -23.7465 0.373242 0.0299113 0.927252 
-104.433 34.2899 -23.5005 -0.487671 -0.226365 0.84317 
-51.2035 33.5109 -23.8615 0.418819 -0.886133 0.198388 
-105.791 34.4468 -24.2615 -0.572674 -0.330699 0.750122 
-6.3753 36.3291 -23.5745 0.701101 -0.130055 -0.701101 
-105.672 36.1401 -23.7935 -0.552783 -0.247585 0.795696 
-86.0044 36.4059 -24.1745 -0.109618 0.971447 0.210417 
-90.4164 36.7605 -24.0475 0.33745 0.882213 0.328371 
-81.7573 37.0348 -23.3155 -0.374017 0.905439 0.200727 
-106.493 36.9888 -24.0335 -0.193962 -0.403966 0.893975 
-92.8736 37.4781 -23.9625 0.169216 0.822119 0.543587 
-91.5565 37.5621 -24.1735 0.276385 0.915977 0.290855 
-79.8943 37.8972 -23.5125 -0.325561 0.909526 0.258405 
-6.0063 38.1052 -23.8775 0.0410515 -0.401245 -0.91505 
-107.954 38.0567 -23.5895 0.0647883 0.105707 0.992284 
-4.6648 38.2895 -23.9575 0.334311 -0.233005 -0.913206 
-3.9933 38.9634 -23.6615 0.501332 -0.220952 -0.836569 
-107.415 39.4852 -24.0055 -0.136149 0.197225 0.970858 
-2.8471 39.7833 -24.0405 -0.0934011 -0.444701 -0.890796 
-3.8042 39.6713 -23.7615 0.124806 -0.34973 -0.9285 
-1.2763 39.3044 -23.7115 0.310775 -0.340801 -0.887284 
-106.477 40.4778 -23.9725 -0.875387 0.19043 0.444336 
-106.381 41.0405 -23.6855 -0.815525 0.121961 0.565725 
-97.0583 41.0237 -23.9885 0.524474 0.602049 0.602049 
-0.658501 41.106 -23.9795 0.246022 -0.366823 -0.89717 
-98.3475 41.3635 -23.4875 0.467578 0.490709 0.735238 
-105.955 42.2984 -23.6775 -0.749372 0.139662 0.647253 
-70.7329 42.381 -23.1585 -0.495568 0.749115 0.43959 
1.8266 42.5678 -23.7295 0.46469 -0.168578 -0.869278 
-105.978 44.5808 -23.7085 -0.528916 -0.0516356 0.847102 
-99.0411 44.1184 -23.9425 0.643187 0.25443 0.722202 
-68.2008 44.397 -24.1695 -0.568569 0.800265 0.190539 
-100.261 45.3524 -23.6085 0.564034 0.213626 0.79764 
3.6273 46.1565 -24.0205 0.107262 -0.413723 -0.904062 
5.3305 45.7451 -23.8255 0.193992 -0.335592 -0.921816 
-64.8106 46.7776 -24.5645 -0.476858 0.841784 0.252995 
5.5822 47.0531 -24.0305 0.475193 -0.146772 -0.867554 
-100.5 46.7735 -23.6595 0.648834 0.0647395 0.758171 
5.8878 49.2247 -24.0845 0.525096 -0.114277 -0.843336 
-60.8901 48.7804 -23.6045 -0.487849 0.798153 0.353491 
-100.42 51.2467 -24.1195 0.737677 0.126672 0.663164 
-59.4889 49.4452 -23.5855 -0.49794 0.784779 0.369023 
-58.4677 50.5052 -24.2385 -0.477446 0.813721 0.331516 
-106.529 50.7125 -23.5985 -0.862941 0.147474 0.483305 
7.078 50.6418 -23.3755 0.508332 -0.0686178 -0.858423 
-106.473 51.4668 -23.9545 -0.811835 -0.00961565 0.583807 
-106.535 52.3245 -24.0425 -0.187968 0.0245175 0.981869 
-55.6349 51.7669 -23.6515 -0.380287 0.803898 0.457307 
-107.145 52.2821 -23.7625 -0.0437023 -0.610422 0.79087 
-107.477 52.3143 -23.6955 -0.112324 -0.99007 -0.0845323 
-107.008 52.798 -23.9435 0.361248 -0.171416 0.916579 
-107.17 53.499 -23.6665 0.325107 -0.0475453 0.944481 
-52.6857 53.6968 -24.2715 -0.425725 0.827711 0.365586 
-106.461 53.9612 -23.8115 -0.353299 0.152212 0.923045 
-101.645 53.4906 -23.6445 0.493687 0.193574 0.847822 
-106.467 54.3662 -24.0025 -0.191053 0.594557 0.781025 
-106.197 54.204 -23.6055 -0.538649 0.28907 0.791388 
-101.747 54.9217 -23.9275 0.549556 0.436656 0.712264 
-107.941 54.9944 -24.1575 0.097455 0.877095 0.470326 
-105.445 55.1889 -23.8915 -0.424095 0.43377 0.794976 
-108.502 55.0209 -23.8825 0.164591 0.954093 0.250232 
-108.977 55.0709 -23.6955 0.211884 0.933132 0.290464 
-102.587 55.2326 -23.6465 0.245971 0.593776 0.766112 
-47.9487 54.8375 -23.0525 -0.333612 0.817429 0.469587 
-47.2045 55.6448 -23.9725 -0.424612 0.828704 0.36463 
9.3203 55.1007 -23.8565 0.456125 -0.0309466 -0.889377 
8.5692 56.1883 -24.2305 0.439235 -0.0145093 -0.898255 
9.9036 56.1954 -23.3875 0.454501 -0.0645364 -0.888405 
-44.4146 56.8777 -23.8135 -0.259455 0.92865 0.265126 
-41.3376 57.0381 -23.9095 0.0330755 0.997601 0.0608163 
8.4371 57.9098 -24.1985 0.40913 -0.00129063 -0.912475 
9.5657 57.3033 -23.7135 0.302211 -0.175255 -0.936992 
-30.347 56.9483 -23.7655 -0.26596 0.686401 -0.676845 
-28.4445 58.9329 -23.3275 -0.382113 0.482076 -0.788411 
10.6944 58.1639 -23.8035 0.254765 -0.138603 -0.957018 
-26.1343 59.3286 -23.9395 -0.302152 0.477494 -0.825047 
-97.9773 59.9778 -23.7885 -0.471995 -0.181992 -0.862612 
-97.4774 59.4778 -23.9575 -0.471043 -0.178672 -0.863826 
-97.4774 59.9778 -24.0535 -0.461208 -0.168377 -0.87117 
-24.3192 60.5897 -24.0565 -0.430942 0.333784 -0.838378 
10.6977 59.951 -23.7505 0.279381 -0.00854002 -0.960142 
9.8137 62.1396 -24.0775 0.239985 -0.0131335 -0.970688 
9.5314 64.6267 -23.8365 0.343088 0.197881 -0.918223 
-21.8739 63.436 -24.4885 -0.452103 0.279285 -0.847114 
-23.1688 64.4876 -23.3385 -0.454843 0.393769 -0.798789 
-21.6679 65.0623 -23.9645 -0.506297 0.336999 -0.793785 
7.9296 65.4959 -24.2455 0.217891 0.175633 -0.96004 
6.0776 67.7588 -24.1425 0.179801 0.225084 -0.957606 
8.1477 66.8174 -23.7675 0.225507 0.22824 -0.947129 
3.4902 67.8247 -24.0965 0.181754 0.339556 -0.922858 
5.4987 67.6766 -24.1785 -0.00537821 0.100035 -0.994969 
-18.804 68.1307 -23.9885 -0.380707 0.461025 -0.801573 
-18.0007 68.4491 -24.0535 -0.163717 0.572259 -0.803565 
4.034 68.0635 -23.9955 -0.0240537 0.163794 -0.986201 
4.7485 69.5128 -23.9065 0.170197 0.314104 -0.934009 
-15.2239 69.1725 -24.2295 -0.266333 0.463389 -0.845185 
2.6364 69.9137 -23.6375 -0.102774 0.186975 -0.976974 
3.7436 70.0011 -23.8365 -0.0421819 0.218141 -0.975005 
-13.1679 70.4589 -24.2065 -0.264443 0.380978 -0.88596 
-10.4287 70.861 -24.0735 0.094704 0.619218 -0.779487 
0.0778008 70.4394 -23.9085 0.0864157 0.412875 -0.906679 
15.5933 77.8476 -23.4495 -0.362901 -0.876124 -0.317348 
16.7853 77.7767 -23.7325 0.0779963 -0.937277 -0.339747 
22.3395 78.0156 -23.6655 0.0849905 -0.813892 -0.574766 
13.9299 78.3238 -23.8845 -0.253012 -0.915181 -0.313735 
34.0499 79.8284 -24.4425 0.293169 -0.337814 -0.89439 
13.0226 78.8212 -23.6955 -0.280835 -0.945613 -0.164159 
11.1832 80.0461 -24.0635 -0.607649 -0.794195 -0.004115 
35.0086 79.3312 -23.7965 0.276164 -0.30831 -0.910318 
10.4865 80.4549 -23.6955 -0.48695 -0.861974 -0.140997 
6.6053 82.4316 -24.4245 -0.156683 -0.930392 -0.331392 
8.2378 82.1289 -24.0835 -0.429988 -0.89522 0.117013 
37.0237 82.3256 -23.8605 0.434119 -0.0813111 -0.897179 
6.5373 84.0128 -24.1535 -0.00693213 0.711237 0.702918 
6.0631 83.9708 -23.9505 0.585689 0.754853 0.295238 
7.6668 83.8542 -23.6795 -0.379624 0.52626 0.760878 
36.7278 83.4171 -23.9695 0.469191 0.1277 -0.873815 
36.3462 85.0474 -23.7275 0.473983 0.337654 -0.813222 
8.1546 85.5127 -23.6855 -0.63496 0.110492 0.764603 
34.5605 86.8758 -23.9205 0.469592 0.466297 -0.7497 
33.9311 87.8452 -23.7015 0.432373 0.554962 -0.710683 
32.8592 88.8383 -23.3275 0.276559 0.692196 -0.666618 
29.257 88.5728 -24.2565 0.174829 0.770767 -0.612661 
30.187 88.5531 -24.0125 0.0985359 0.733872 -0.672103 
8.4778 88.7063 -23.6895 -0.555442 0.124571 0.822172 
14.9871 89.5749 -24.1095 0.269496 0.674536 0.687294 
15.5531 89.3396 -23.9105 0.0915517 0.91415 0.394902 
16.0974 89.342 -24.1345 0.0376893 0.999277 -0.00509315 
18.2944 89.1519 -24.1265 0.0991007 0.992146 -0.0763189 
19.4065 88.9753 -23.2115 0.0392447 0.998089 0.0477301 
22.6499 89.0708 -24.2925 -0.0326958 0.99102 -0.129656 
9.1607 90.4283 -23.6685 -0.42405 0.248997 0.870736 
9.384 91.2063 -23.9305 -0.444831 0.278596 0.851181 
12.2726 91.0937 -23.6145 0.335986 0.323932 0.88441 
9.9334 91.4926 -23.6095 -0.446815 0.389162 0.805549 
10.4881 92.1725 -23.6595 -0.182809 0.255932 0.949252 
12.2228 92.4338 -24.0455 0.368103 0.322281 0.872144 
8.8749 92.7951 -24.1595 -0.352909 0.127706 0.926901 
11.1317 92.0971 -23.6115 0.115875 0.299677 0.946978 
9.7974 92.516 -23.9625 -0.23019 0.119596 0.965769 
10.3539 93.2139 -23.9695 -0.0230536 0.253589 0.967037 
-30.092 17.4407 -23.5975 -0.0737269 -0.744497 -0.663542 
-28.8061 16.9802 -23.0315 -0.085526 -0.778432 -0.621876 
-27.5038 16.5707 -22.7195 0.0324692 -0.741145 -0.67056 
-26.2509 16.9397 -22.9615 0.120698 -0.713757 -0.689915 
-24.852 17.3978 -23.0825 0.189634 -0.719991 -0.667572 
-21.9364 18.8913 -23.6815 0.251758 -0.663437 -0.704605 
-82.158 19.7224 -23.5755 0.239921 -0.92703 0.288189 
-17.9848 20.9181 -23.4965 0.330885 -0.576224 -0.747316 
-80.2113 20.4242 -23.8395 0.411704 -0.873174 0.260897 
-89.6321 21.1464 -23.5475 -0.458015 -0.853642 0.248028 
-78.2256 21.2771 -24.0265 0.421349 -0.882616 0.208457 
-40.6783 22.1668 -23.3465 -0.632924 -0.632924 -0.445886 
-91.6299 22.4271 -23.0625 -0.395443 -0.766476 0.506102 
-14.911 22.4055 -23.3525 0.424414 -0.600837 -0.677398 
-74.9662 23.0483 -23.6115 0.465032 -0.842001 0.273457 
-73.8717 24.0526 -22.6685 0.385385 -0.823106 0.417104 
-95.2431 24.0509 -23.2495 -0.464658 -0.602211 0.64918 
-72.6917 24.0453 -23.7345 0.409409 -0.877304 0.250444 
-72.0582 24.8429 -22.4965 0.324756 -0.89046 0.31877 
-44.4473 25.5627 -22.6615 -0.770366 -0.577379 -0.270498 
-97.2352 25.7363 -23.5165 -0.531351 -0.511236 0.675503 
-11.0406 25.8241 -23.3855 0.561409 -0.517576 -0.645705 
-98.8626 27.6825 -23.0515 -0.577244 -0.590787 0.563702 
-9.6183 27.3316 -23.1615 0.541793 -0.43244 -0.720733 
-101.233 29.7104 -23.1945 -0.511616 -0.521681 0.682714 
-57.2708 29.5455 -22.8115 0.325128 -0.904769 0.275109 
-47.057 29.5766 -23.2655 -0.871567 -0.480425 -0.0977856 
-102.007 30.1905 -23.6345 -0.691617 -0.348261 0.632756 
-55.4901 30.1976 -23.2425 0.394132 -0.890118 0.228803 
-53.4763 31.7839 -23.5495 0.621026 -0.749299 0.229952 
-7.3641 32.3946 -23.3265 0.717859 -0.314567 -0.621069 
-109.977 32.9778 -23.6065 0.275066 -0.0780419 0.958253 
-6.4912 33.2404 -23.0615 0.660589 -0.258216 -0.704945 
-109.995 34.0145 -23.5185 0.335874 -0.0190117 0.941715 
-110.477 34.4777 -23.2545 0.510592 -0.0629497 0.857515 
-109.793 35.143 -23.6125 0.476527 -0.115912 0.871485 
-6.5058 34.8774 -23.5215 0.727552 -0.146113 -0.670312 
-109.979 35.4765 -23.3535 0.606772 -0.138648 0.782691 
-88.4681 36.1406 -23.6495 0.194313 0.920506 0.338985 
-87.0375 35.9231 -23.5825 -0.0783133 0.935778 0.343782 
-104.692 36.3743 -23.2735 -0.459218 -0.0940905 0.883327 
-89.5968 36.5201 -23.6185 0.201996 0.915429 0.348121 
-84.0943 36.4336 -23.1835 -0.0909767 0.973326 0.210617 
-83.5534 36.5746 -24.3115 0.0125126 0.986224 0.164939 
-82.9159 36.2191 -22.7585 -0.194273 0.949627 0.245898 
-109.811 36.4061 -23.3645 0.163172 -0.111644 0.98026 
-110.517 36.5538 -23.3685 -0.0134292 -0.0444195 0.998923 
-109.052 37.0575 -23.4175 0.217761 -0.115884 0.969098 
-91.459 37.0577 -23.2895 0.401872 0.769576 0.496238 
-5.8846 36.8751 -23.2995 0.249897 -0.33758 -0.907519 
-5.0185 37.5079 -23.7435 -0.0116005 -0.387973 -0.921598 
-4.3752 37.2869 -23.5995 0.302576 -0.30848 -0.901825 
-109.815 37.9559 -23.2335 0.197001 -0.00345616 0.980397 
-105.93 37.2309 -23.6505 -0.397123 -0.170605 0.901769 
-93.4849 37.4698 -23.6955 0.431046 0.523531 0.734925 
-80.9425 37.1095 -22.7925 -0.29519 0.897438 0.327824 
-108.884 38.0106 -23.5825 0.11503 0.171926 0.978371 
-104.598 37.3274 -23.2285 -0.431464 -0.0901774 0.897612 
-94.1138 38.007 -23.5065 0.528938 0.512147 0.676705 
-106.533 38.3523 -23.6915 -0.174261 -0.024235 0.984401 
-77.8685 38.3314 -22.7485 -0.357064 0.81728 0.452281 
-1.832 38.116 -23.2585 0.0280567 -0.447572 -0.893808 
-105.971 39.104 -23.4485 -0.433611 -0.0306863 0.900577 
-95.5368 39.4557 -23.5435 0.387751 0.658352 0.645152 
-77.2166 38.7841 -23.2195 -0.447255 0.823392 0.34927 
-96.6347 39.556 -23.3925 0.262167 0.649856 0.713412 
-106.461 39.7929 -23.7995 -0.460525 0.0881856 0.883256 
-106.006 40.8979 -23.4425 -0.535135 0.0232667 0.844446 
0.358799 39.4124 -22.8815 0.0570182 -0.510383 -0.858055 
-96.9376 39.9565 -23.5035 0.460395 0.431112 0.776002 
-74.9574 40.0902 -23.4325 -0.391604 0.864601 0.314819 
-105.223 42.3802 -23.0355 -0.591716 0.167981 0.788451 
2.7717 41.872 -23.0495 0.410942 -0.257403 -0.874569 
-99.3845 42.6564 -23.5015 0.448755 0.220625 0.865993 
2.2386 42.9199 -23.6195 0.333413 -0.303511 -0.89259 
-100.321 43.8901 -23.1335 0.387873 0.148097 0.909737 
2.842 43.9839 -23.9005 0.338418 -0.296674 -0.893005 
-105.374 43.4628 -23.5355 -0.483092 0.0682177 0.872908 
-67.9602 44.1039 -22.9585 -0.518699 0.727504 0.449097 
4.5177 44.3758 -23.1775 0.254297 -0.351311 -0.901062 
3.8297 45.1495 -23.6365 0.36556 -0.219919 -0.904434 
6.2124 44.6992 -23.2525 0.249833 -0.371054 -0.894373 
-66.4479 45.4105 -23.4205 -0.506677 0.802106 0.316077 
-65.5453 45.9801 -23.8615 -0.490011 0.814583 0.310393 
-105.466 46.002 -23.3805 -0.484899 -0.0947179 0.869426 
-105.978 46.4777 -23.5925 -0.481663 -0.131626 0.866415 
6.1745 46.0144 -23.5515 0.478585 -0.122161 -0.869502 
-105.418 47.19 -23.1015 -0.463102 -0.174949 0.868867 
-62.1504 47.8879 -23.8115 -0.513455 0.796412 0.319519 
6.9498 47.2925 -23.0495 0.536327 -0.108422 -0.837017 
7.5344 48.8597 -23.0125 0.528454 -0.0959524 -0.843522 
-101.092 49.9275 -23.3865 0.543805 0.0842112 0.834976 
-106.411 50.0336 -23.3615 -0.854605 0.040038 0.517733 
-101.619 51.0419 -23.1905 0.452153 0.102826 0.885994 
-57.4425 50.5196 -23.2405 -0.466602 0.761298 0.45023 
7.7112 51.0319 -23.1385 0.34798 -0.220917 -0.911101 
-105.772 52.3062 -23.2795 -0.571964 0.0698909 0.817296 
6.5668 52.1686 -23.8125 0.318734 -0.192364 -0.928119 
8.4167 53.0674 -23.5115 0.205064 -0.285973 -0.936039 
10.003 52.7341 -23.1295 0.231029 -0.317127 -0.919813 
-105.187 53.7518 -23.1825 -0.304359 0.16664 0.937868 
-51.654 53.7262 -23.5965 -0.330305 0.81707 0.472541 
-50.6125 53.9096 -23.1035 -0.352975 0.775255 0.523821 
9.0244 54.3981 -23.8795 0.254009 -0.229025 -0.939695 
-107.349 54.7571 -23.6155 0.268808 0.660089 0.701445 
-108.037 54.2874 -23.3495 0.118867 0.353869 0.927711 
-102.82 54.5084 -23.3505 0.235948 0.258286 0.936812 
-49.4868 54.0198 -22.6215 -0.283 0.788922 0.545447 
-104.749 54.7177 -23.2655 -0.174537 0.402446 0.898651 
-103.611 55.204 -23.5355 0.082102 0.583356 0.808056 
-108.477 54.9778 -23.5885 0.111819 0.984726 0.133461 
-34.2501 56.2419 -23.6705 -0.10848 0.981192 -0.159672 
-42.9403 56.7644 -22.8175 -0.152291 0.937067 0.314185 
-38.3656 56.9263 -23.5355 0.122578 0.988793 -0.0852207 
-31.5626 56.8447 -23.2865 -0.250635 0.861274 -0.442029 
11.8529 56.8708 -23.2055 0.235052 -0.251742 -0.938817 
11.8777 58.568 -23.3705 0.278793 -0.0946598 -0.955675 
-97.9774 59.4778 -23.6755 -0.481875 -0.192452 -0.854844 
-23.7068 62.117 -24.0055 -0.451308 0.275714 -0.848706 
11.421 61.2408 -23.6425 0.321317 0.0422449 -0.946029 
11.7553 62.3355 -23.3475 0.376188 0.117128 -0.91911 
-24.3116 63.2438 -23.3215 -0.498229 0.293908 -0.815712 
12.2545 63.6785 -23.0075 0.202739 -0.0619142 -0.977274 
