ply
format ascii 1.0
element vertex 1729
property float x
property float y
property float z
end_header
-0.146418 0.277405 0.688205
-0.14498 0.277967 0.688723
-0.143595 0.278548 0.689322
-0.142153 0.279108 0.689832
-0.140698 0.279663 0.690318
-0.139237 0.280215 0.690793
-0.137793 0.280772 0.691293
-0.136312 0.281315 0.691731
-0.134926 0.281892 0.69232
-0.133535 0.282465 0.6929
-0.13215 0.283041 0.693488
-0.130827 0.283639 0.694174
-0.129611 0.284275 0.695031
-0.128445 0.28493 0.695971
-0.127379 0.285623 0.697075
-0.126218 0.286281 0.698025
-0.124998 0.286918 0.698882
-0.123661 0.28751 0.699546
-0.122364 0.288118 0.700275
-0.120978 0.288692 0.700858
-0.119813 0.28935 0.701805
-0.118658 0.290011 0.70277
-0.117648 0.29073 0.703981
-0.116788 0.291509 0.705443
-0.116396 0.292472 0.707702
-0.116056 0.29346 0.710058
-0.116126 0.294614 0.713122
-0.116543 0.295913 0.716794
-0.116974 0.297225 0.72051
-0.117071 0.298411 0.723674
-0.117173 0.299607 0.726865
-0.117037 0.300712 0.729662
-0.116807 0.301783 0.73231
-0.116344 0.302764 0.734567
-0.239337 0.25419 0.684227
-0.237852 0.254799 0.68484
-0.236166 0.255358 0.685187
-0.234059 0.255809 0.684975
-0.231882 0.25624 0.684665
-0.229773 0.256685 0.684439
-0.227686 0.257133 0.684234
-0.225935 0.257666 0.684471
-0.224463 0.258271 0.685079
-0.223093 0.258902 0.685821
-0.221841 0.259565 0.686722
-0.220822 0.26029 0.687939
-0.219691 0.260985 0.689007
-0.218826 0.261753 0.690439
-0.218045 0.262546 0.691989
-0.217324 0.263357 0.693627
-0.216526 0.264149 0.695164
-0.215901 0.264991 0.696944
-0.215058 0.265775 0.698429
-0.214329 0.266591 0.700078
-0.21354 0.267395 0.701647
-0.212586 0.268151 0.702993
-0.21144 0.268856 0.704072
-0.188247 0.270299 0.69259
-0.186331 0.27075 0.692506
-0.184349 0.271179 0.692321
-0.182038 0.271506 0.691652
-0.179261 0.271684 0.690291
-0.176495 0.271861 0.688934
-0.173846 0.272068 0.687734
-0.171329 0.272312 0.686715
-0.168963 0.272599 0.685906
-0.166962 0.272998 0.685629
-0.165094 0.273435 0.685543
-0.163342 0.273909 0.685623
-0.161524 0.274359 0.685601
-0.159758 0.274824 0.68565
-0.157994 0.275288 0.685699
-0.156146 0.275722 0.685614
-0.154451 0.276205 0.685756
-0.152815 0.276705 0.685984
-0.15114 0.277192 0.68615
-0.149419 0.277661 0.68624
-0.147949 0.278213 0.686711
-0.146381 0.278731 0.68703
-0.144937 0.279291 0.687537
-0.143555 0.27987 0.688139
-0.142171 0.28045 0.688737
-0.14078 0.281027 0.689324
-0.139389 0.281602 0.689908
-0.138005 0.28218 0.690502
-0.136627 0.282759 0.691105
-0.135299 0.283356 0.691786
-0.133969 0.283952 0.692464
-0.132642 0.284549 0.693145
-0.131367 0.285164 0.693909
-0.130143 0.285799 0.694757
-0.12897 0.286452 0.695686
-0.127904 0.287146 0.696791
-0.126694 0.287786 0.697664
-0.125429 0.288407 0.698446
-0.124037 0.288979 0.699022
-0.122688 0.289567 0.699667
-0.121303 0.290141 0.700251
-0.120188 0.290819 0.701281
-0.11909 0.291503 0.702342
-0.118188 0.292265 0.703732
-0.117478 0.293104 0.705449
-0.117143 0.294092 0.707803
-0.116855 0.295105 0.710248
-0.116978 0.296285 0.713402
-0.117291 0.297549 0.716895
-0.11757 0.298806 0.720351
-0.117552 0.29995 0.723317
-0.117597 0.301126 0.726407
-0.117369 0.302196 0.729044
-0.117141 0.303272 0.731694
-0.116628 0.304235 0.733862
-0.2403 0.254877 0.681835
-0.238753 0.25547 0.682363
-0.237241 0.256071 0.682937
-0.235509 0.256616 0.68322
-0.233352 0.257051 0.682941
-0.231266 0.257501 0.682748
-0.229302 0.257981 0.682711
-0.227353 0.258462 0.682688
-0.225663 0.259009 0.683004
-0.224196 0.259614 0.683616
-0.222814 0.260241 0.684341
-0.221503 0.260887 0.68516
-0.220355 0.261576 0.686199
-0.219156 0.262253 0.687172
-0.218166 0.262987 0.688428
-0.217314 0.26376 0.689877
-0.216534 0.264555 0.691429
-0.215807 0.265366 0.693056
-0.21532 0.266247 0.695022
-0.214676 0.267086 0.696777
-0.214095 0.267945 0.698626
-0.213427 0.268783 0.700361
-0.212486 0.269544 0.701721
-0.211329 0.270244 0.702784
-0.189095 0.271942 0.692689
-0.187194 0.272397 0.692632
-0.185168 0.272812 0.692386
-0.182826 0.273127 0.691677
-0.180031 0.273298 0.690297
-0.177252 0.273467 0.688926
-0.174546 0.273654 0.687647
-0.171967 0.273877 0.686541
-0.169591 0.274158 0.685723
-0.167522 0.274534 0.685348
-0.165546 0.274936 0.685102
-0.163787 0.275406 0.685175
-0.162019 0.275872 0.685228
-0.160197 0.276318 0.685197
-0.158379 0.276763 0.685165
-0.156522 0.277193 0.68507
-0.154715 0.277637 0.685044
-0.153018 0.278116 0.685179
-0.151284 0.278582 0.685254
-0.149504 0.279029 0.685255
-0.147972 0.279559 0.68563
-0.146404 0.280076 0.685949
-0.144908 0.280617 0.686375
-0.143578 0.281214 0.687057
-0.142252 0.281813 0.687744
-0.140923 0.28241 0.688426
-0.139592 0.283007 0.689105
-0.138263 0.283604 0.689785
-0.136938 0.284202 0.690472
-0.135662 0.284817 0.691237
-0.134386 0.285433 0.692001
-0.133111 0.286049 0.692766
-0.131835 0.286665 0.693531
-0.130559 0.287281 0.694295
-0.129337 0.287916 0.695144
-0.128224 0.288593 0.696174
-0.126969 0.289217 0.696973
-0.125704 0.289838 0.697757
-0.124408 0.290446 0.69849
-0.12311 0.291054 0.699219
-0.121781 0.29165 0.699896
-0.120767 0.292367 0.701095
-0.119768 0.293092 0.702322
-0.118921 0.293877 0.703805
-0.118321 0.294761 0.705708
-0.118044 0.295777 0.708161
-0.117813 0.296817 0.710702
-0.117942 0.298005 0.713867
-0.118155 0.299234 0.717193
-0.118277 0.300433 0.72038
-0.118191 0.301554 0.723229
-0.118133 0.302692 0.726142
-0.117861 0.303748 0.728702
-0.117584 0.304807 0.731265
-0.117059 0.305767 0.733411
-0.240625 0.255404 0.678625
-0.239378 0.25607 0.679538
-0.237942 0.256689 0.680207
-0.236433 0.257289 0.680779
-0.234719 0.257835 0.681082
-0.232704 0.258304 0.680987
-0.230764 0.258788 0.680983
-0.22889 0.259289 0.681064
-0.227015 0.259787 0.681137
-0.22534 0.260336 0.681472
-0.223873 0.26094 0.682081
-0.222431 0.261549 0.682722
-0.221112 0.262192 0.683528
-0.219906 0.262865 0.684486
-0.218642 0.263523 0.685367
-0.217574 0.264235 0.686515
-0.216654 0.264989 0.687865
-0.215873 0.265783 0.689409
-0.215272 0.266629 0.691206
-0.21487 0.267534 0.693281
-0.214351 0.26841 0.695205
-0.213957 0.269323 0.697308
-0.21342 0.270198 0.699222
-0.212507 0.270969 0.70062
-0.21149 0.27171 0.701875
-0.190006 0.273606 0.692877
-0.188211 0.274094 0.692975
-0.186248 0.274528 0.692827
-0.183848 0.274824 0.69204
-0.180985 0.274971 0.690567
-0.17808 0.275099 0.689018
-0.17525 0.275244 0.687564
-0.1725 0.275409 0.686211
-0.170102 0.275681 0.685364
-0.168019 0.276051 0.68497
-0.165982 0.276432 0.684639
-0.164166 0.276883 0.684627
-0.162449 0.277365 0.684759
-0.160579 0.277793 0.684657
-0.158716 0.278222 0.68456
-0.156902 0.278666 0.68453
-0.15509 0.279107 0.684499
-0.153338 0.279567 0.684552
-0.151548 0.280012 0.684542
-0.149708 0.280437 0.684452
-0.148067 0.280929 0.684662
-0.146447 0.281427 0.684899
-0.144904 0.28195 0.685251
-0.143578 0.282548 0.685939
-0.142303 0.283164 0.686703
-0.141027 0.28378 0.687468
-0.139751 0.284395 0.688233
-0.138476 0.285011 0.688997
-0.1372 0.285627 0.689762
-0.135924 0.286243 0.690526
-0.134649 0.286859 0.691291
-0.133373 0.287474 0.692056
-0.132097 0.28809 0.69282
-0.130822 0.288706 0.693585
-0.129601 0.289343 0.694437
-0.128486 0.290019 0.695462
-0.127234 0.290644 0.696267
-0.126011 0.29128 0.697118
-0.124818 0.291929 0.69802
-0.123582 0.292561 0.698851
-0.122366 0.2932 0.699717
-0.121455 0.29396 0.701088
-0.120562 0.294728 0.702492
-0.119722 0.295518 0.703989
-0.119132 0.29641 0.70591
-0.118814 0.297413 0.708295
-0.11854 0.298439 0.710766
-0.118618 0.299612 0.713842
-0.118787 0.300829 0.717092
-0.118845 0.302006 0.720169
-0.118741 0.303124 0.722988
-0.118671 0.304261 0.725878
-0.118352 0.305301 0.728356
-0.118032 0.306345 0.730845
-0.117542 0.307323 0.733051
-0.120598 0.308441 0.742647
-0.117193 0.308364 0.735512
-0.239767 0.25661 0.676419
-0.238483 0.257265 0.677281
-0.237123 0.257901 0.678043
-0.235592 0.258493 0.678583
-0.233894 0.259041 0.678902
-0.232081 0.259558 0.679069
-0.230275 0.260075 0.67924
-0.228476 0.260592 0.679416
-0.226738 0.261125 0.679668
-0.225073 0.261674 0.680015
-0.223547 0.262262 0.680543
-0.222101 0.262869 0.681178
-0.220719 0.263493 0.681896
-0.219447 0.264148 0.682762
-0.21812 0.264787 0.683554
-0.216985 0.26548 0.684607
-0.216055 0.26623 0.68594
-0.215326 0.267039 0.687551
-0.214744 0.26789 0.689368
-0.214464 0.268831 0.691605
-0.214021 0.269728 0.693628
-0.213697 0.270664 0.695825
-0.213238 0.271563 0.697842
-0.212406 0.272358 0.699349
-0.211413 0.273105 0.700637
-0.190608 0.275178 0.692618
-0.188817 0.275667 0.692727
-0.186913 0.276119 0.692666
-0.184518 0.276414 0.691889
-0.18165 0.276557 0.690415
-0.178732 0.276677 0.688852
-0.175884 0.276813 0.687377
-0.173013 0.276937 0.685851
-0.170548 0.277185 0.684909
-0.168399 0.277532 0.68442
-0.166352 0.277908 0.684076
-0.164487 0.278342 0.683994
-0.162827 0.278841 0.684212
-0.161013 0.279286 0.684195
-0.159153 0.279716 0.684104
-0.157339 0.280158 0.684078
-0.15558 0.280616 0.684128
-0.153828 0.281075 0.684183
-0.151939 0.281485 0.684026
-0.150088 0.281906 0.683919
-0.148383 0.282375 0.684032
-0.146707 0.282853 0.684183
-0.145116 0.283358 0.684464
-0.143841 0.283973 0.685229
-0.142565 0.284589 0.685993
-0.141289 0.285205 0.686758
-0.140014 0.285821 0.687522
-0.138738 0.286437 0.688287
-0.137462 0.287052 0.689052
-0.136187 0.287668 0.689816
-0.134911 0.288284 0.690581
-0.133635 0.2889 0.691346
-0.13236 0.289516 0.69211
-0.131084 0.290131 0.692875
-0.129861 0.290767 0.693724
-0.128692 0.291424 0.69466
-0.127476 0.292063 0.695523
-0.126305 0.292719 0.696459
-0.125183 0.293395 0.697476
-0.124065 0.294073 0.698502
-0.123016 0.294778 0.699643
-0.122166 0.295563 0.701116
-0.121325 0.296354 0.702608
-0.120541 0.297169 0.704202
-0.119953 0.298065 0.706126
-0.119531 0.299031 0.708338
-0.119238 0.300053 0.710777
-0.119255 0.301205 0.713752
-0.119377 0.302407 0.716919
-0.119342 0.303551 0.719838
-0.119283 0.304692 0.722731
-0.119156 0.30581 0.725523
-0.118839 0.306853 0.728002
-0.118473 0.307881 0.73041
-0.118034 0.308883 0.732703
-0.117689 0.309929 0.735171
-0.240204 0.257159 0.673377
-0.239052 0.257846 0.674403
-0.237761 0.258499 0.675252
-0.236439 0.259142 0.676059
-0.234838 0.259714 0.676504
-0.233161 0.260265 0.676847
-0.231475 0.260813 0.677176
-0.229743 0.261347 0.677442
-0.228014 0.261881 0.677707
-0.226346 0.262429 0.67805
-0.224735 0.262992 0.678466
-0.223144 0.26356 0.678907
-0.22169 0.264164 0.679527
-0.220244 0.264769 0.680157
-0.218913 0.265406 0.68094
-0.217523 0.266026 0.681644
-0.216321 0.266699 0.682602
-0.215324 0.26743 0.683838
-0.214602 0.26824 0.685453
-0.214026 0.269094 0.687273
-0.213763 0.27004 0.689527
-0.213442 0.270974 0.691711
-0.213234 0.271943 0.694062
-0.21281 0.272854 0.696124
-0.212089 0.27368 0.69778
-0.211269 0.27448 0.699304
-0.191088 0.276715 0.692185
-0.189317 0.277209 0.692322
-0.18744 0.277669 0.692304
-0.1851 0.277979 0.69161
-0.18223 0.278117 0.690137
-0.179351 0.278246 0.688637
-0.176499 0.278379 0.68716
-0.17362 0.278495 0.685628
-0.171099 0.278723 0.684607
-0.168886 0.279047 0.684029
-0.166784 0.279404 0.683604
-0.164867 0.279819 0.683447
-0.16321 0.280319 0.68367
-0.16145 0.280782 0.683738
-0.159643 0.281227 0.683728
-0.157836 0.281671 0.683713
-0.156135 0.282148 0.683853
-0.154393 0.28261 0.683928
-0.152552 0.283036 0.683845
-0.150744 0.283471 0.683808
-0.149033 0.283938 0.683914
-0.147297 0.284394 0.683977
-0.145643 0.284877 0.684161
-0.144257 0.285454 0.684756
-0.142877 0.286033 0.68536
-0.141552 0.28663 0.686048
-0.140276 0.287246 0.686812
-0.139 0.287862 0.687577
-0.137725 0.288478 0.688341
-0.136449 0.289094 0.689106
-0.135173 0.289709 0.689871
-0.133898 0.290325 0.690635
-0.132622 0.290941 0.6914
-0.131347 0.291557 0.692165
-0.130168 0.29221 0.693085
-0.128997 0.292865 0.694019
-0.127831 0.293524 0.694963
-0.126718 0.294203 0.695993
-0.125704 0.294922 0.697188
-0.124662 0.295631 0.698338
-0.123719 0.296379 0.699655
-0.122925 0.297188 0.701222
-0.122141 0.298004 0.702811
-0.121403 0.29884 0.704482
-0.120813 0.299739 0.706406
-0.120275 0.300661 0.708424
-0.119949 0.301674 0.710809
-0.1199 0.302804 0.713672
-0.11993 0.303973 0.716684
-0.119815 0.305088 0.719464
-0.119757 0.306232 0.722357
-0.119629 0.307354 0.725144
-0.119319 0.308403 0.727636
-0.118912 0.309418 0.729972
-0.118486 0.310428 0.732288
-0.118135 0.311474 0.734745
-0.240861 0.257763 0.670631
-0.239791 0.25847 0.671757
-0.238606 0.259148 0.672737
-0.237293 0.259793 0.673553
-0.236054 0.260457 0.674466
-0.234465 0.261031 0.674925
-0.2328 0.261583 0.675282
-0.231128 0.262132 0.675626
-0.229398 0.262665 0.675892
-0.227613 0.263181 0.676083
-0.22594 0.263727 0.676417
-0.224272 0.264272 0.676754
-0.222614 0.264819 0.677102
-0.221091 0.265403 0.677628
-0.219577 0.265988 0.678163
-0.218246 0.266623 0.678943
-0.216913 0.267257 0.679719
-0.215721 0.267932 0.680686
-0.214777 0.268678 0.68199
-0.214117 0.269505 0.683684
-0.21355 0.270362 0.685511
-0.213288 0.27131 0.687762
-0.213088 0.27228 0.690107
-0.212893 0.273255 0.692471
-0.21248 0.274169 0.694542
-0.21178 0.275003 0.696225
-0.19134 0.278181 0.691424
-0.189577 0.278676 0.691574
-0.187752 0.279151 0.691631
-0.185471 0.279478 0.691025
-0.182667 0.279633 0.689653
-0.179853 0.27978 0.68825
-0.177062 0.279929 0.686865
-0.174188 0.280044 0.685346
-0.171666 0.280269 0.684327
-0.169396 0.280572 0.683668
-0.167286 0.280925 0.683235
-0.165311 0.281319 0.682995
-0.163601 0.2818 0.683142
-0.161838 0.282262 0.683204
-0.160034 0.282707 0.683202
-0.158234 0.283152 0.6832
-0.156586 0.283647 0.683422
-0.154901 0.284128 0.683583
-0.153066 0.284555 0.683512
-0.151319 0.28501 0.683571
-0.149605 0.285475 0.683675
-0.147913 0.285947 0.683808
-0.1462 0.286408 0.683903
-0.144748 0.286962 0.684399
-0.143301 0.287517 0.6849
-0.141914 0.288092 0.685493
-0.140539 0.288672 0.686101
-0.139263 0.289288 0.686866
-0.137987 0.289904 0.687631
-0.136712 0.29052 0.688395
-0.135436 0.291136 0.68916
-0.13416 0.291751 0.689925
-0.132934 0.292386 0.690767
-0.131662 0.293003 0.691539
-0.130489 0.293658 0.692468
-0.12937 0.294334 0.693486
-0.12831 0.295034 0.694601
-0.12726 0.295739 0.695736
-0.12636 0.296504 0.697117
-0.125413 0.297251 0.698425
-0.124469 0.298001 0.699743
-0.123676 0.298814 0.701312
-0.122887 0.299629 0.702894
-0.122154 0.300471 0.704575
-0.121463 0.301331 0.706333
-0.12086 0.30223 0.708244
-0.120425 0.303201 0.710445
-0.120264 0.304289 0.713117
-0.12025 0.305443 0.716051
-0.120183 0.306581 0.718911
-0.120182 0.307754 0.721898
-0.120108 0.308901 0.724778
-0.119853 0.309979 0.727362
-0.119402 0.310976 0.729621
-0.119022 0.31201 0.732015
-0.118617 0.313036 0.734378
-0.241335 0.258319 0.667662
-0.240349 0.259045 0.668889
-0.23929 0.259754 0.670026
-0.23804 0.260414 0.670919
-0.236718 0.261056 0.67172
-0.235457 0.261714 0.672601
-0.233876 0.262287 0.673066
-0.232271 0.262853 0.673499
-0.23065 0.263413 0.673907
-0.228858 0.263927 0.67409
-0.227015 0.264426 0.674201
-0.225346 0.26497 0.674537
-0.223612 0.265495 0.674785
-0.221826 0.266005 0.67496
-0.220293 0.266583 0.675467
-0.218772 0.267164 0.675989
-0.217448 0.267799 0.676773
-0.216136 0.268437 0.677574
-0.215063 0.269144 0.678696
-0.214134 0.269893 0.680016
-0.213532 0.270738 0.681783
-0.213023 0.271612 0.683684
-0.212767 0.272562 0.685937
-0.212564 0.273532 0.688273
-0.212426 0.274526 0.690707
-0.211949 0.275422 0.692687
-0.21125 0.276256 0.694366
-0.192012 0.279779 0.691264
-0.190221 0.280266 0.691377
-0.188234 0.280688 0.691203
-0.186018 0.281033 0.690694
-0.183276 0.281206 0.689414
-0.180483 0.281356 0.688047
-0.177702 0.281505 0.686683
-0.174835 0.28162 0.685179
-0.172204 0.281806 0.684005
-0.16987 0.282086 0.683254
-0.167741 0.282431 0.682796
-0.165703 0.282803 0.682465
-0.163936 0.283263 0.682528
-0.162221 0.28374 0.682664
-0.160418 0.284185 0.682664
-0.158618 0.284629 0.682663
-0.157027 0.285143 0.682973
-0.15539 0.28564 0.683208
-0.153612 0.286085 0.683227
-0.15193 0.286563 0.683388
-0.150237 0.287036 0.683527
-0.148602 0.287527 0.68375
-0.146877 0.287984 0.683831
-0.14531 0.288497 0.68415
-0.143794 0.289026 0.684546
-0.142337 0.289577 0.685032
-0.140851 0.290116 0.685469
-0.139525 0.290714 0.686156
-0.13825 0.291329 0.686921
-0.136974 0.291945 0.687685
-0.135698 0.292561 0.68845
-0.134423 0.293177 0.689214
-0.133249 0.293831 0.690141
-0.132031 0.294469 0.690999
-0.130918 0.295148 0.692025
-0.129862 0.295849 0.693145
-0.128916 0.296595 0.694445
-0.127923 0.297323 0.695673
-0.127027 0.298092 0.697062
-0.126074 0.298839 0.698362
-0.125168 0.299606 0.699742
-0.124316 0.300397 0.701216
-0.123522 0.301212 0.702792
-0.12279 0.302057 0.704476
-0.122051 0.3029 0.706154
-0.121358 0.303765 0.707915
-0.120815 0.304693 0.709934
-0.120501 0.305721 0.712348
-0.120379 0.306835 0.715096
-0.120354 0.307994 0.718025
-0.120411 0.309194 0.721107
-0.120451 0.310393 0.724176
-0.120353 0.31154 0.727028
-0.120005 0.312586 0.729464
-0.119614 0.313616 0.731838
-0.119145 0.314619 0.734089
-0.241841 0.258881 0.664747
-0.240773 0.259585 0.665864
-0.23975 0.260302 0.667039
-0.238652 0.260999 0.668123
-0.23737 0.26165 0.668971
-0.235994 0.262276 0.669699
-0.234736 0.262933 0.670579
-0.233155 0.263504 0.671039
-0.231546 0.264067 0.671463
-0.229918 0.264623 0.67186
-0.228121 0.265133 0.672032
-0.226333 0.265643 0.672213
-0.224722 0.266201 0.672622
-0.222997 0.266726 0.672877
-0.221213 0.267234 0.673052
-0.219668 0.267806 0.673541
-0.218087 0.268368 0.673979
-0.216711 0.268987 0.674689
-0.215414 0.269629 0.675505
-0.214361 0.27034 0.67665
-0.213439 0.27109 0.677974
-0.212838 0.271934 0.679738
-0.212333 0.27281 0.681636
-0.212131 0.273778 0.683958
-0.211933 0.27475 0.686294
-0.211795 0.275745 0.688723
-0.211225 0.276614 0.690567
-0.210532 0.277449 0.692249
-0.209782 0.278269 0.693856
-0.19277 0.281407 0.691223
-0.190688 0.2818 0.690923
-0.188581 0.282182 0.69058
-0.186487 0.282565 0.690248
-0.183876 0.282778 0.689163
-0.181205 0.282965 0.687976
-0.178532 0.283146 0.686774
-0.175654 0.283254 0.68526
-0.172951 0.283414 0.683986
-0.170495 0.283652 0.683061
-0.168299 0.283973 0.682509
-0.166194 0.284321 0.68208
-0.164369 0.284761 0.68206
-0.162651 0.285236 0.682193
-0.160896 0.285696 0.682267
-0.159043 0.286121 0.68219
-0.157395 0.286614 0.682414
-0.155808 0.287128 0.682727
-0.154087 0.287593 0.682835
-0.152471 0.288094 0.683096
-0.15084 0.288587 0.683331
-0.149315 0.289118 0.683726
-0.147651 0.289597 0.683904
-0.146092 0.290113 0.684239
-0.144461 0.290601 0.684462
-0.142935 0.291127 0.684841
-0.141324 0.291619 0.685087
-0.139887 0.292176 0.685601
-0.138512 0.292755 0.68621
-0.137286 0.293389 0.687053
-0.136014 0.294006 0.687824
-0.134789 0.294642 0.688669
-0.13372 0.295337 0.689763
-0.132563 0.295999 0.690718
-0.131467 0.296685 0.691773
-0.130508 0.297426 0.693051
-0.129615 0.298194 0.694437
-0.128585 0.29891 0.695608
-0.12769 0.29968 0.696999
-0.126726 0.300424 0.698283
-0.125758 0.301169 0.699563
-0.124898 0.301958 0.701025
-0.124105 0.302777 0.702603
-0.123376 0.303624 0.704292
-0.122637 0.304469 0.705971
-0.121941 0.305335 0.707728
-0.121298 0.306226 0.709581
-0.12088 0.307214 0.711819
-0.120636 0.308278 0.714359
-0.120556 0.309418 0.71719
-0.120571 0.310604 0.720198
-0.120687 0.311839 0.723393
-0.120707 0.31304 0.726442
-0.120463 0.314133 0.729055
-0.120069 0.315166 0.731424
-0.119591 0.316167 0.733658
-0.242565 0.259498 0.66212
-0.24147 0.260194 0.663197
-0.240293 0.260869 0.664172
-0.239167 0.261558 0.665214
-0.237983 0.262232 0.666183
-0.236599 0.262854 0.666897
-0.235223 0.263478 0.667621
-0.233967 0.264134 0.668498
-0.232387 0.264704 0.668957
-0.230781 0.265264 0.66938
-0.229156 0.26582 0.669776
-0.227362 0.266327 0.669949
-0.225577 0.266836 0.67013
-0.223974 0.267393 0.670546
-0.222256 0.267918 0.670808
-0.220479 0.268424 0.670988
-0.218943 0.268997 0.671484
-0.217418 0.269572 0.671994
-0.21605 0.270192 0.672711
-0.214814 0.270849 0.673604
-0.213764 0.271561 0.674749
-0.212841 0.27231 0.676067
-0.212246 0.273156 0.677832
-0.211797 0.274049 0.679803
-0.211547 0.275004 0.682053
-0.21141 0.275996 0.684466
-0.211265 0.27699 0.68688
-0.210694 0.277859 0.688719
-0.209973 0.278685 0.690356
-0.195452 0.282593 0.691245
-0.193617 0.283066 0.691307
-0.191343 0.283397 0.690738
-0.189128 0.283742 0.690243
-0.187099 0.284145 0.690008
-0.184552 0.284375 0.689019
-0.181937 0.284578 0.68792
-0.179308 0.284772 0.686786
-0.176414 0.284872 0.685254
-0.173642 0.285006 0.683884
-0.171112 0.285217 0.682856
-0.16879 0.285493 0.68212
-0.166627 0.28582 0.68161
-0.164804 0.286259 0.681594
-0.163038 0.286717 0.681657
-0.161332 0.287193 0.681806
-0.159526 0.287633 0.681802
-0.157875 0.288125 0.682023
-0.156291 0.28864 0.682342
-0.154672 0.289141 0.682606
-0.153111 0.289661 0.682954
-0.151539 0.290176 0.683282
-0.150121 0.290745 0.683842
-0.148572 0.291267 0.684201
-0.147031 0.29179 0.684568
-0.145407 0.292281 0.684805
-0.143864 0.292801 0.685163
-0.142082 0.29323 0.685147
-0.140474 0.293723 0.685397
-0.13908 0.294295 0.685978
-0.137856 0.294931 0.686827
-0.136596 0.295554 0.687618
-0.135432 0.296213 0.68856
-0.134464 0.296949 0.689817
-0.133314 0.297615 0.690785
-0.13217 0.298285 0.691767
-0.131214 0.299028 0.693051
-0.130309 0.299793 0.69442
-0.129219 0.300487 0.695494
-0.128275 0.30124 0.696808
-0.127307 0.301984 0.698086
-0.126289 0.30271 0.699287
-0.125432 0.303502 0.700753
-0.124649 0.304327 0.702348
-0.123919 0.305175 0.704035
-0.123133 0.306004 0.705636
-0.122375 0.306846 0.707291
-0.12162 0.307692 0.708957
-0.121135 0.308654 0.71108
-0.120777 0.309674 0.713426
-0.12069 0.310813 0.716242
-0.120757 0.312024 0.719334
-0.120991 0.313314 0.722727
-0.121084 0.31455 0.725897
-0.120956 0.315697 0.728705
-0.120576 0.31674 0.731097
-0.123977 0.319451 0.740019
-0.243933 0.260279 0.660311
-0.242574 0.260906 0.661054
-0.241208 0.261532 0.661787
-0.239871 0.262164 0.662558
-0.238591 0.262812 0.6634
-0.237255 0.263445 0.664171
-0.235744 0.264032 0.664718
-0.234299 0.264635 0.665349
-0.233034 0.265287 0.666209
-0.231462 0.265856 0.666675
-0.229872 0.266419 0.667115
-0.228324 0.266992 0.667607
-0.226602 0.267517 0.66787
-0.224829 0.268025 0.668062
-0.223297 0.268601 0.668568
-0.221593 0.269126 0.668845
-0.219828 0.269633 0.669038
-0.218294 0.270205 0.669533
-0.216777 0.27078 0.67005
-0.215346 0.27138 0.670678
-0.214161 0.27205 0.671635
-0.213165 0.272777 0.672848
-0.212242 0.273525 0.674162
-0.211643 0.274371 0.675917
-0.21125 0.275281 0.677958
-0.211004 0.276238 0.680208
-0.210818 0.277216 0.682548
-0.210676 0.278212 0.684959
-0.210192 0.279109 0.686912
-0.209409 0.279916 0.68846
-0.198223 0.283807 0.691379
-0.196189 0.284219 0.691169
-0.194344 0.284689 0.691219
-0.191955 0.28498 0.69049
-0.189712 0.285315 0.689959
-0.187749 0.285739 0.689822
-0.185269 0.285989 0.688932
-0.182647 0.286187 0.687827
-0.180014 0.286377 0.686693
-0.177055 0.286452 0.685072
-0.174221 0.286562 0.683617
-0.171678 0.286766 0.682573
-0.169297 0.28702 0.681755
-0.167123 0.287341 0.681231
-0.165302 0.287781 0.68122
-0.163492 0.288222 0.681221
-0.161733 0.288679 0.681293
-0.159975 0.289135 0.681361
-0.158328 0.289628 0.681591
-0.156746 0.290143 0.681914
-0.155184 0.290664 0.682266
-0.153673 0.291202 0.682691
-0.152152 0.291735 0.6831
-0.150843 0.292345 0.683828
-0.149407 0.292907 0.684362
-0.147985 0.293475 0.684916
-0.146479 0.294011 0.68534
-0.144943 0.294534 0.685714
-0.143086 0.294936 0.685587
-0.1414 0.295401 0.685721
-0.13994 0.295949 0.686203
-0.138667 0.296567 0.686976
-0.137414 0.297194 0.687781
-0.136263 0.29786 0.688748
-0.135295 0.298597 0.690006
-0.134143 0.299265 0.690976
-0.132941 0.299913 0.691867
-0.131968 0.300652 0.693124
-0.131002 0.301395 0.694397
-0.129905 0.302087 0.695463
-0.128902 0.302817 0.696682
-0.127933 0.303564 0.697961
-0.12687 0.304272 0.699089
-0.126016 0.305068 0.700563
-0.125193 0.305878 0.702092
-0.124468 0.306731 0.703787
-0.123671 0.307557 0.705372
-0.122902 0.308397 0.707007
-0.122086 0.309219 0.708571
-0.121541 0.310158 0.710594
-0.121126 0.311156 0.712844
-0.120984 0.312276 0.715566
-0.121053 0.313492 0.718656
-0.121289 0.314786 0.722048
-0.121391 0.316031 0.72523
-0.121279 0.317188 0.728065
-0.120907 0.318237 0.730468
-0.245655 0.26115 0.658946
-0.244116 0.261731 0.659464
-0.242498 0.262291 0.659881
-0.240959 0.26287 0.660396
-0.239503 0.263471 0.661013
-0.238032 0.264067 0.66161
-0.236495 0.264645 0.662122
-0.234906 0.265208 0.662566
-0.233384 0.265789 0.663093
-0.231992 0.266404 0.663786
-0.230426 0.266972 0.664253
-0.228912 0.267553 0.664787
-0.227451 0.268148 0.665387
-0.225808 0.268691 0.665749
-0.224103 0.269217 0.666028
-0.222574 0.26979 0.666533
-0.220933 0.270331 0.666889
-0.219239 0.270856 0.667172
-0.217775 0.271446 0.667757
-0.216265 0.272021 0.668279
-0.214826 0.272617 0.668894
-0.21358 0.273268 0.669766
-0.212519 0.273975 0.670888
-0.211539 0.274706 0.67212
-0.210931 0.275549 0.673858
-0.210601 0.276478 0.675977
-0.210359 0.277437 0.678226
-0.210175 0.278417 0.680563
-0.210023 0.279412 0.682955
-0.209499 0.280296 0.684846
-0.208709 0.281101 0.686379
-0.198637 0.285333 0.690841
-0.196568 0.285732 0.690582
-0.19476 0.286213 0.690688
-0.192409 0.286514 0.690015
-0.190221 0.286866 0.689566
-0.188263 0.287289 0.689438
-0.185837 0.287555 0.68863
-0.183212 0.28775 0.687525
-0.180575 0.287935 0.686389
-0.177676 0.288027 0.68486
-0.174851 0.288138 0.683423
-0.172313 0.28834 0.682391
-0.169871 0.288571 0.681487
-0.167685 0.288887 0.680949
-0.165808 0.289306 0.680858
-0.163997 0.289746 0.680859
-0.162246 0.290206 0.680945
-0.160538 0.290678 0.68109
-0.158892 0.291171 0.681324
-0.157317 0.291689 0.681661
-0.155811 0.292229 0.682099
-0.154356 0.292788 0.682611
-0.15289 0.293342 0.683105
-0.151587 0.293955 0.683846
-0.150257 0.294557 0.684545
-0.148893 0.295147 0.685192
-0.147452 0.295708 0.685719
-0.145974 0.296254 0.686187
-0.144229 0.296699 0.68624
-0.142486 0.297142 0.686289
-0.140954 0.297664 0.686664
-0.139668 0.298279 0.687421
-0.138425 0.298911 0.688246
-0.137276 0.29958 0.689219
-0.136307 0.30032 0.690481
-0.135182 0.300999 0.691495
-0.133917 0.301625 0.69229
-0.132842 0.302325 0.693389
-0.131762 0.303025 0.694481
-0.130604 0.303694 0.695451
-0.129544 0.304404 0.69658
-0.128531 0.305133 0.697789
-0.127513 0.305862 0.698992
-0.126668 0.306663 0.700481
-0.125832 0.307471 0.70199
-0.125007 0.308284 0.703521
-0.124202 0.309108 0.705093
-0.123383 0.309929 0.706646
-0.122518 0.310733 0.70813
-0.121925 0.311654 0.710071
-0.121464 0.312635 0.712242
-0.12122 0.313714 0.714789
-0.12123 0.314908 0.717777
-0.121458 0.316203 0.721152
-0.121562 0.317452 0.724334
-0.121491 0.31863 0.727234
-0.121114 0.319679 0.729625
-0.247551 0.262067 0.657797
-0.245833 0.262601 0.658094
-0.244262 0.263174 0.658572
-0.242487 0.263691 0.658792
-0.240832 0.264239 0.659159
-0.239234 0.264801 0.659596
-0.237685 0.265375 0.660092
-0.236024 0.265918 0.660445
-0.234365 0.266461 0.660797
-0.232768 0.267019 0.661224
-0.231298 0.267611 0.661814
-0.229733 0.268177 0.662279
-0.228297 0.268777 0.66291
-0.226907 0.26939 0.663598
-0.225334 0.269951 0.664048
-0.223691 0.270492 0.664405
-0.222165 0.271065 0.664912
-0.220467 0.271587 0.665191
-0.218772 0.27211 0.665471
-0.217249 0.272681 0.665975
-0.215678 0.273237 0.666414
-0.214181 0.273813 0.666948
-0.212991 0.27448 0.667891
-0.211879 0.27517 0.668939
-0.210909 0.275904 0.67018
-0.210303 0.276748 0.671914
-0.20996 0.277674 0.674012
-0.209715 0.278632 0.67625
-0.209537 0.279616 0.678589
-0.209387 0.280612 0.680978
-0.208946 0.281522 0.682976
-0.20833 0.282381 0.684744
-0.207486 0.283172 0.686202
-0.19881 0.286781 0.689963
-0.196717 0.28717 0.689672
-0.194922 0.287654 0.689795
-0.192557 0.287948 0.689105
-0.190548 0.288356 0.688912
-0.188593 0.28878 0.688791
-0.186223 0.289062 0.688065
-0.183655 0.289273 0.687045
-0.181126 0.289492 0.68607
-0.178297 0.289604 0.684646
-0.175592 0.289753 0.683389
-0.173072 0.289959 0.682388
-0.17062 0.290185 0.681474
-0.168371 0.290477 0.680848
-0.166419 0.290869 0.68065
-0.164552 0.291289 0.680572
-0.162799 0.291747 0.680656
-0.161092 0.29222 0.680806
-0.159448 0.292713 0.681044
-0.157874 0.293231 0.681384
-0.156422 0.293791 0.681905
-0.155028 0.294372 0.682512
-0.153629 0.294951 0.683111
-0.152333 0.295567 0.683864
-0.151048 0.296188 0.684635
-0.149723 0.296793 0.685344
-0.148341 0.297377 0.685965
-0.146934 0.297951 0.686547
-0.145258 0.298422 0.68671
-0.143515 0.298866 0.686766
-0.141988 0.299391 0.687153
-0.140691 0.300004 0.687898
-0.139437 0.300633 0.688708
-0.138332 0.301321 0.689756
-0.137359 0.302062 0.691013
-0.13618 0.302722 0.691948
-0.134852 0.303324 0.692647
-0.13372 0.304004 0.693656
-0.132541 0.304666 0.694594
-0.131328 0.305314 0.695478
-0.130257 0.306021 0.696591
-0.129197 0.306733 0.697725
-0.128132 0.307444 0.698853
-0.127273 0.308241 0.70032
-0.126374 0.309024 0.701727
-0.125485 0.309813 0.703155
-0.124729 0.31066 0.704806
-0.123925 0.311489 0.706386
-0.123077 0.312301 0.707897
-0.122536 0.313248 0.709926
-0.12207 0.31423 0.712089
-0.121717 0.315265 0.714453
-0.121674 0.31644 0.71735
-0.12184 0.317713 0.720615
-0.121834 0.318917 0.723609
-0.121699 0.320071 0.726397
-0.121255 0.321092 0.72867
-0.247941 0.263574 0.657208
-0.246238 0.264112 0.657526
-0.244556 0.264654 0.657865
-0.242668 0.265141 0.657944
-0.240876 0.265651 0.65814
-0.239207 0.266193 0.658487
-0.237551 0.266737 0.658846
-0.235831 0.267263 0.659122
-0.234106 0.267786 0.659389
-0.232433 0.268322 0.659719
-0.230902 0.268896 0.660228
-0.229394 0.269476 0.660764
-0.227961 0.270076 0.661396
-0.226581 0.27069 0.662095
-0.224949 0.271233 0.662467
-0.223238 0.271752 0.662733
-0.221581 0.272286 0.663065
-0.219875 0.272804 0.663331
-0.218181 0.273324 0.663609
-0.216727 0.273913 0.6642
-0.215215 0.274484 0.664715
-0.213775 0.275076 0.665321
-0.212582 0.275741 0.666258
-0.211422 0.276416 0.667239
-0.21039 0.277131 0.668393
-0.209722 0.277956 0.670038
-0.20938 0.278883 0.672131
-0.209137 0.279843 0.674367
-0.20902 0.280847 0.676784
-0.20893 0.281863 0.679247
-0.208704 0.282841 0.681535
-0.208266 0.283757 0.683543
-0.207496 0.284571 0.685102
-0.206801 0.285411 0.686769
-0.19488 0.289028 0.688616
-0.19269 0.289377 0.688174
-0.190819 0.289829 0.688178
-0.188864 0.290251 0.688058
-0.186499 0.290532 0.687343
-0.183934 0.290741 0.68633
-0.181471 0.290979 0.685451
-0.178756 0.291127 0.684197
-0.176125 0.291298 0.68305
-0.173724 0.291544 0.682227
-0.171328 0.291787 0.681399
-0.169061 0.292071 0.68075
-0.167039 0.292438 0.680453
-0.165162 0.292853 0.680363
-0.163352 0.29329 0.680366
-0.1617 0.293782 0.680599
-0.160102 0.294292 0.680909
-0.15858 0.294829 0.68133
-0.157184 0.29541 0.681939
-0.155849 0.296014 0.682636
-0.154508 0.296615 0.683326
-0.153163 0.297214 0.684009
-0.15182 0.297814 0.684693
-0.150428 0.298395 0.685303
-0.149087 0.298995 0.685989
-0.14769 0.299574 0.68659
-0.146086 0.300072 0.686868
-0.144411 0.300543 0.687033
-0.142979 0.301105 0.687572
-0.141626 0.301697 0.688233
-0.140368 0.302327 0.689042
-0.139269 0.303019 0.690103
-0.138245 0.303742 0.691282
-0.137013 0.304383 0.692136
-0.135682 0.304985 0.692831
-0.134499 0.305646 0.693765
-0.13332 0.306309 0.694704
-0.132147 0.306975 0.695654
-0.13108 0.307685 0.696778
-0.12996 0.308375 0.697817
-0.128846 0.309067 0.698867
-0.127872 0.309819 0.70015
-0.126865 0.310558 0.701381
-0.12591 0.311321 0.702699
-0.125207 0.312192 0.70444
-0.124418 0.313029 0.706042
-0.123687 0.313893 0.707748
-0.123252 0.314888 0.709953
-0.122827 0.315892 0.712186
-0.122469 0.316928 0.714541
-0.122463 0.318125 0.717502
-0.122534 0.319361 0.720607
-0.122369 0.320499 0.723329
-0.122117 0.321604 0.725917
-0.125624 0.324401 0.73494
-0.248378 0.265094 0.656677
-0.246664 0.265629 0.656982
-0.244863 0.266139 0.657175
-0.242786 0.266574 0.657018
-0.240923 0.267064 0.657125
-0.239257 0.267605 0.657475
-0.237549 0.268134 0.657769
-0.235834 0.268659 0.65805
-0.234108 0.269181 0.658315
-0.232431 0.269714 0.65864
-0.230841 0.270271 0.659072
-0.229278 0.270834 0.659537
-0.22778 0.271415 0.660084
-0.226331 0.272009 0.660692
-0.224625 0.272529 0.660966
-0.222849 0.273027 0.661145
-0.22118 0.273556 0.66146
-0.219471 0.274071 0.661721
-0.217779 0.274589 0.661998
-0.216324 0.275177 0.662587
-0.214762 0.275732 0.663031
-0.213265 0.276305 0.66356
-0.212072 0.276969 0.664492
-0.210905 0.277641 0.66546
-0.20982 0.278338 0.666539
-0.209143 0.279161 0.668169
-0.208785 0.280084 0.670235
-0.208544 0.281046 0.672466
-0.208382 0.282037 0.674815
-0.208423 0.283095 0.677451
-0.208441 0.284151 0.680069
-0.208261 0.285149 0.682425
-0.207716 0.286036 0.684291
-0.207231 0.286944 0.686246
-0.194778 0.29038 0.687352
-0.192815 0.290802 0.687231
-0.19109 0.291301 0.687444
-0.189135 0.291722 0.687325
-0.186883 0.292039 0.686774
-0.184383 0.292267 0.685857
-0.181989 0.292527 0.685081
-0.179443 0.29273 0.684076
-0.176932 0.29294 0.683108
-0.174532 0.293185 0.682291
-0.172138 0.293427 0.681473
-0.16986 0.293706 0.680812
-0.167725 0.294032 0.680352
-0.165782 0.294423 0.680167
-0.163914 0.294838 0.680088
-0.16226 0.295329 0.680321
-0.160664 0.29584 0.680635
-0.159145 0.296377 0.681062
-0.157854 0.296998 0.681829
-0.156577 0.297624 0.682619
-0.155299 0.298249 0.683406
-0.153946 0.298846 0.684079
-0.152586 0.299441 0.68474
-0.151075 0.299978 0.685171
-0.149673 0.300555 0.685766
-0.148224 0.301114 0.686289
-0.146719 0.301651 0.686723
-0.1451 0.302142 0.686977
-0.143673 0.302707 0.687526
-0.142328 0.303303 0.688201
-0.14107 0.303934 0.689013
-0.139919 0.304607 0.689994
-0.138851 0.305314 0.691106
-0.137619 0.305956 0.691961
-0.136333 0.306577 0.692731
-0.13515 0.307239 0.693665
-0.133976 0.307905 0.694615
-0.132856 0.308594 0.695652
-0.131791 0.309307 0.69678
-0.130567 0.309954 0.697654
-0.129439 0.310642 0.698684
-0.128354 0.311349 0.699786
-0.127293 0.312067 0.700929
-0.126336 0.31283 0.702245
-0.125737 0.313747 0.704156
-0.125061 0.314635 0.705945
-0.124443 0.315551 0.70784
-0.124012 0.316551 0.710054
-0.123634 0.317578 0.712364
-0.123277 0.318619 0.714723
-0.123187 0.319783 0.717541
-0.123159 0.32098 0.720479
-0.122922 0.32209 0.723079
-0.122557 0.323149 0.725475
-0.250623 0.266105 0.655952
-0.248883 0.266633 0.65623
-0.247143 0.26716 0.656504
-0.245218 0.267636 0.656543
-0.243072 0.268051 0.656303
-0.241184 0.268533 0.656379
-0.239394 0.26904 0.656574
-0.237617 0.269548 0.656781
-0.23584 0.270056 0.656984
-0.234162 0.270589 0.65731
-0.232499 0.271125 0.657651
-0.230919 0.271683 0.658096
-0.229359 0.272247 0.658565
-0.227847 0.272823 0.659093
-0.226262 0.273377 0.659525
-0.224419 0.273856 0.65962
-0.22257 0.274332 0.659704
-0.220837 0.274839 0.659934
-0.219074 0.275337 0.660121
-0.217387 0.275855 0.660404
-0.215944 0.276444 0.661006
-0.214388 0.276999 0.661455
-0.21289 0.27757 0.661981
-0.211636 0.278215 0.662829
-0.210403 0.278866 0.663706
-0.209301 0.279557 0.664757
-0.208559 0.28036 0.666295
-0.208142 0.281266 0.668276
-0.207957 0.282246 0.670578
-0.207859 0.283258 0.673007
-0.207921 0.284325 0.675665
-0.208011 0.285405 0.678374
-0.208061 0.286478 0.681042
-0.20768 0.287419 0.683128
-0.207373 0.288386 0.685326
-0.194619 0.291711 0.68601
-0.192937 0.292225 0.686286
-0.191305 0.292755 0.686632
-0.189346 0.293172 0.686507
-0.187206 0.293525 0.686118
-0.184777 0.293775 0.685306
-0.18251 0.294077 0.684716
-0.18014 0.294338 0.683968
-0.17774 0.294585 0.683166
-0.175342 0.294829 0.682357
-0.173054 0.295107 0.681697
-0.17073 0.295368 0.680975
-0.168532 0.295671 0.680428
-0.166579 0.296058 0.680231
-0.164643 0.296448 0.680056
-0.162885 0.296901 0.680136
-0.161294 0.297414 0.680462
-0.159827 0.29797 0.680969
-0.158546 0.298596 0.681754
-0.157327 0.299244 0.682631
-0.156048 0.29987 0.68342
-0.154691 0.300467 0.68409
-0.153269 0.301039 0.684661
-0.151688 0.301549 0.684986
-0.150173 0.302083 0.685411
-0.148711 0.302638 0.685914
-0.147197 0.303171 0.686336
-0.145575 0.30366 0.686587
-0.144154 0.304228 0.687148
-0.142861 0.304845 0.687905
-0.141653 0.305496 0.688797
-0.140505 0.306171 0.689782
-0.139486 0.306899 0.690973
-0.138251 0.307541 0.691826
-0.136962 0.308161 0.692593
-0.135729 0.308804 0.693449
-0.134558 0.309473 0.694405
-0.133401 0.310148 0.695385
-0.132337 0.310862 0.696516
-0.131109 0.311509 0.697385
-0.129968 0.312192 0.698395
-0.128875 0.312896 0.699485
-0.127814 0.313616 0.700629
-0.126866 0.314384 0.701962
-0.126325 0.315329 0.703965
-0.125707 0.316244 0.705852
-0.1251 0.317167 0.707765
-0.124673 0.318172 0.709985
-0.1243 0.319206 0.712307
-0.123951 0.320254 0.714677
-0.123822 0.321404 0.71743
-0.123791 0.322605 0.720362
-0.123496 0.323693 0.722863
-0.123109 0.324744 0.725221
-0.251276 0.267685 0.655685
-0.249561 0.26822 0.655996
-0.247754 0.268728 0.656189
-0.245721 0.269174 0.656097
-0.243499 0.269567 0.655764
-0.241537 0.270027 0.655748
-0.239612 0.270496 0.655774
-0.237754 0.270981 0.655881
-0.235962 0.271483 0.656065
-0.234285 0.272015 0.656391
-0.232632 0.272553 0.656747
-0.231124 0.273131 0.657283
-0.229563 0.273693 0.65775
-0.227919 0.274231 0.658108
-0.226186 0.274742 0.658349
-0.22427 0.275198 0.65835
-0.222358 0.275653 0.658352
-0.220579 0.276145 0.65852
-0.21882 0.276641 0.658711
-0.217133 0.277158 0.658992
-0.215629 0.277728 0.659511
-0.214072 0.278281 0.659959
-0.212576 0.278851 0.660485
-0.211314 0.279492 0.661319
-0.210073 0.28014 0.662183
-0.208913 0.280813 0.663155
-0.208052 0.281579 0.664529
-0.207569 0.282465 0.666415
-0.207379 0.283445 0.668704
-0.207279 0.284458 0.671125
-0.207464 0.285565 0.673944
-0.207632 0.286673 0.676753
-0.207816 0.287791 0.679598
-0.207636 0.288797 0.681957
-0.207549 0.289838 0.684453
-0.207271 0.290821 0.686698
-0.195424 0.293365 0.686027
-0.193283 0.293724 0.685658
-0.191635 0.294248 0.685981
-0.189671 0.294662 0.685851
-0.187586 0.295032 0.685543
-0.185226 0.295303 0.684831
-0.183095 0.29565 0.684441
-0.1808 0.295936 0.683805
-0.178507 0.296219 0.683162
-0.176165 0.296481 0.682439
-0.173933 0.296777 0.681865
-0.17161 0.297038 0.681149
-0.169409 0.297338 0.680602
-0.16739 0.297701 0.680314
-0.165388 0.298067 0.680045
-0.163561 0.298494 0.680027
-0.161919 0.298987 0.680278
-0.160506 0.299565 0.68087
-0.159282 0.300212 0.681742
-0.158123 0.300884 0.682711
-0.156801 0.301495 0.683437
-0.155435 0.302089 0.684096
-0.15395 0.302638 0.684575
-0.152315 0.303128 0.684822
-0.15069 0.30362 0.68508
-0.149159 0.304147 0.68548
-0.147584 0.304656 0.685808
-0.145957 0.305143 0.686053
-0.144544 0.305714 0.686627
-0.143301 0.306351 0.687463
-0.142146 0.307024 0.688438
-0.141042 0.307718 0.689493
-0.140024 0.308447 0.690686
-0.138789 0.30909 0.691541
-0.137499 0.30971 0.692308
-0.136262 0.310352 0.69316
-0.135089 0.311021 0.694113
-0.133928 0.311695 0.695087
-0.132819 0.312392 0.696147
-0.13159 0.313039 0.697015
-0.13039 0.313698 0.697932
-0.129303 0.314406 0.699032
-0.128297 0.31515 0.700266
-0.12751 0.315989 0.701862
-0.127037 0.316966 0.703979
-0.126474 0.317908 0.705956
-0.12591 0.318853 0.707942
-0.125433 0.31984 0.71008
-0.125006 0.320853 0.712311
-0.124658 0.321905 0.714684
-0.12453 0.32306 0.717438
-0.124402 0.324222 0.720207
-0.124047 0.325286 0.722607
-0.127684 0.328169 0.731783
-0.251987 0.269282 0.655488
-0.250269 0.269816 0.655797
-0.248459 0.270323 0.655989
-0.246416 0.270766 0.655887
-0.244117 0.271135 0.655461
-0.24203 0.271561 0.655292
-0.240014 0.272003 0.655206
-0.238021 0.272449 0.655144
-0.236148 0.272927 0.655227
-0.234477 0.273461 0.655562
-0.232831 0.274 0.655926
-0.231334 0.27458 0.656476
-0.229768 0.27514 0.656937
-0.227994 0.275639 0.657129
-0.226122 0.276108 0.657191
-0.224132 0.276541 0.657096
-0.222159 0.276976 0.657017
-0.220339 0.277454 0.657131
-0.21864 0.277966 0.6574
-0.217005 0.278496 0.657748
-0.215488 0.279061 0.658248
-0.21393 0.279613 0.658693
-0.212495 0.280201 0.659298
-0.211183 0.280826 0.660065
-0.209881 0.281454 0.660845
-0.208653 0.282106 0.661725
-0.207729 0.282852 0.66301
-0.207131 0.283702 0.664738
-0.206925 0.284679 0.667001
-0.20688 0.285711 0.66949
-0.207133 0.286842 0.672396
-0.20749 0.288013 0.675457
-0.2078 0.289175 0.678469
-0.207847 0.290257 0.681135
-0.207987 0.291375 0.683941
-0.207997 0.292455 0.686581
-0.207908 0.293508 0.689097
-0.197531 0.295465 0.687875
-0.194775 0.295615 0.686648
-0.192563 0.295946 0.686179
-0.190297 0.296255 0.685623
-0.188144 0.2966 0.68522
-0.185793 0.296873 0.684527
-0.183738 0.297245 0.684248
-0.181568 0.297574 0.683796
-0.179342 0.297879 0.683254
-0.177047 0.298156 0.682604
-0.174816 0.298452 0.682037
-0.172495 0.298712 0.68133
-0.170243 0.298993 0.680713
-0.168147 0.299326 0.680316
-0.166128 0.299685 0.680024
-0.164293 0.30011 0.679999
-0.162644 0.3006 0.680243
-0.161286 0.301199 0.680918
-0.160061 0.301847 0.681791
-0.158909 0.302523 0.682774
-0.157527 0.303112 0.683412
-0.156111 0.303688 0.683999
-0.154564 0.304213 0.684384
-0.152925 0.304701 0.684629
-0.151195 0.305152 0.684729
-0.149663 0.305679 0.685128
-0.148127 0.306203 0.685519
-0.146554 0.306712 0.685851
-0.14515 0.307286 0.68644
-0.143965 0.307947 0.687368
-0.142802 0.308618 0.688333
-0.141645 0.309292 0.689307
-0.140584 0.310006 0.690434
-0.139349 0.310649 0.691289
-0.138062 0.311271 0.692062
-0.136815 0.31191 0.6929
-0.135634 0.312576 0.693842
-0.134467 0.313249 0.694808
-0.133293 0.31392 0.695766
-0.132067 0.314568 0.696639
-0.130825 0.315211 0.697488
-0.129794 0.315943 0.69868
-0.128846 0.316713 0.700008
-0.128178 0.317606 0.701799
-0.127765 0.318612 0.704014
-0.127307 0.319603 0.706167
-0.126739 0.32055 0.708147
-0.126246 0.321533 0.710261
-0.125807 0.322545 0.712473
-0.125402 0.323575 0.714752
-0.125216 0.324709 0.717409
-0.125034 0.32585 0.720086
-0.124626 0.326894 0.722397
-0.252539 0.270838 0.655094
-0.250847 0.271379 0.655437
-0.248949 0.271861 0.655522
-0.246901 0.272301 0.655416
-0.244539 0.272652 0.654915
-0.242444 0.273073 0.654737
-0.240297 0.273477 0.654488
-0.238292 0.273919 0.654412
-0.236351 0.274376 0.654411
-0.234682 0.274909 0.654749
-0.233041 0.275448 0.655118
-0.231604 0.276046 0.655746
-0.229979 0.276588 0.656132
-0.228134 0.277065 0.656234
-0.226187 0.277511 0.6562
-0.224183 0.277937 0.656087
-0.222221 0.278374 0.656023
-0.220408 0.278852 0.656146
-0.21871 0.279364 0.656415
-0.217059 0.279888 0.656742
-0.215479 0.280432 0.657159
-0.213866 0.280966 0.657531
-0.21244 0.281556 0.658148
-0.211133 0.282182 0.658919
-0.209831 0.28281 0.659699
-0.208598 0.28346 0.660569
-0.207609 0.284186 0.661767
-0.206877 0.284995 0.663312
-0.206605 0.285952 0.665481
-0.206556 0.286984 0.66796
-0.206816 0.288121 0.670869
-0.207314 0.28934 0.674115
-0.207812 0.290566 0.677378
-0.20814 0.291743 0.680426
-0.208482 0.292931 0.683506
-0.208701 0.294085 0.686434
-0.20868 0.295164 0.689043
-0.208563 0.296216 0.691531
-0.199418 0.297498 0.689406
-0.196338 0.297536 0.687733
-0.193678 0.297713 0.686637
-0.191141 0.297927 0.685703
-0.188973 0.298266 0.685285
-0.186665 0.298552 0.684656
-0.184619 0.298927 0.684394
-0.182514 0.299278 0.684041
-0.180282 0.29958 0.683496
-0.177981 0.299854 0.682842
-0.175696 0.300129 0.682202
-0.173367 0.300384 0.681487
-0.171108 0.300662 0.680866
-0.169008 0.300993 0.680468
-0.166924 0.301327 0.680086
-0.165029 0.301729 0.679974
-0.163321 0.302198 0.680134
-0.161967 0.302798 0.680818
-0.160684 0.303425 0.681605
-0.159529 0.304102 0.682586
-0.158137 0.304687 0.683211
-0.156712 0.30526 0.683786
-0.155106 0.305762 0.684085
-0.153468 0.306251 0.684332
-0.151734 0.3067 0.684429
-0.150207 0.307228 0.684838
-0.148724 0.307774 0.685313
-0.147214 0.308307 0.685743
-0.145818 0.308885 0.686348
-0.144639 0.30955 0.687288
-0.143471 0.31022 0.688245
-0.142264 0.310875 0.689143
-0.141195 0.311587 0.69026
-0.140018 0.312255 0.691208
-0.138782 0.312899 0.692064
-0.137543 0.313542 0.692917
-0.136304 0.314186 0.693769
-0.135017 0.314809 0.694546
-0.133783 0.315455 0.695408
-0.132549 0.316101 0.696271
-0.131314 0.316747 0.697131
-0.130393 0.317528 0.698501
-0.129599 0.318367 0.700082
-0.128996 0.31929 0.701979
-0.128601 0.320308 0.704226
-0.128196 0.321327 0.706467
-0.127566 0.322249 0.708347
-0.126968 0.323189 0.710287
-0.126473 0.324179 0.712408
-0.126003 0.325184 0.714579
-0.125763 0.326297 0.717145
-0.125575 0.327439 0.719811
-0.125163 0.328484 0.722114
-0.253038 0.272381 0.654633
-0.251383 0.272931 0.655024
-0.249429 0.273398 0.655042
-0.247374 0.273834 0.654929
-0.245008 0.274182 0.654424
-0.242844 0.274582 0.654164
-0.240635 0.274967 0.65384
-0.238627 0.275406 0.653761
-0.236632 0.275847 0.653693
-0.234956 0.276377 0.654022
-0.233253 0.276898 0.654315
-0.23175 0.277476 0.654858
-0.230118 0.278015 0.655235
-0.22821 0.278472 0.655257
-0.226145 0.278881 0.655072
-0.224134 0.279303 0.654949
-0.222168 0.279736 0.65488
-0.220297 0.280196 0.654928
-0.218606 0.280708 0.655206
-0.217012 0.281248 0.655606
-0.215435 0.281792 0.656027
-0.213882 0.282343 0.656477
-0.212524 0.282953 0.657181
-0.211223 0.283581 0.657961
-0.209923 0.284209 0.65874
-0.208679 0.284855 0.659596
-0.207565 0.285542 0.660625
-0.206704 0.286311 0.661995
-0.206418 0.287265 0.664141
-0.206421 0.288316 0.666686
-0.206763 0.289482 0.669701
-0.207402 0.290751 0.673135
-0.207978 0.292007 0.676499
-0.208379 0.293212 0.679642
-0.20888 0.294457 0.682938
-0.209177 0.29564 0.68597
-0.209208 0.29674 0.688649
-0.209096 0.297798 0.691143
-0.208226 0.297199 0.693724
-0.208559 0.298716 0.693058
-0.205803 0.297478 0.693016
-0.206787 0.299215 0.69326
-0.203913 0.299335 0.691916
-0.201018 0.299441 0.690528
-0.197793 0.299427 0.68866
-0.194832 0.299497 0.687148
-0.192079 0.299634 0.685915
-0.18978 0.299926 0.685314
-0.187465 0.300208 0.684681
-0.185406 0.300578 0.684404
-0.183352 0.300946 0.684128
-0.181066 0.301228 0.68351
-0.178809 0.301516 0.682925
-0.176503 0.301782 0.682258
-0.17417 0.302035 0.681542
-0.171856 0.30229 0.680846
-0.169807 0.30264 0.680526
-0.16772 0.302972 0.680144
-0.165828 0.303374 0.680041
-0.164125 0.303845 0.680212
-0.162818 0.304464 0.680968
-0.161481 0.305072 0.681679
-0.160308 0.305743 0.682634
-0.158855 0.306306 0.683171
-0.157369 0.306856 0.683656
-0.155706 0.307336 0.683872
-0.154061 0.307821 0.684111
-0.152276 0.30825 0.684133
-0.150751 0.308779 0.684547
-0.149278 0.309328 0.685039
-0.147832 0.309888 0.68557
-0.146446 0.31047 0.686192
-0.145268 0.311137 0.687135
-0.14409 0.311804 0.688078
-0.142918 0.312474 0.689034
-0.141848 0.313187 0.69015
-0.14073 0.313881 0.691192
-0.139604 0.314572 0.692225
-0.138425 0.315242 0.693175
-0.137136 0.315865 0.693952
-0.135736 0.316442 0.694552
-0.134431 0.317059 0.695302
-0.133186 0.317702 0.696149
-0.131961 0.318353 0.697028
-0.131152 0.319185 0.698581
-0.130472 0.320075 0.700347
-0.129922 0.321025 0.702334
-0.129475 0.322024 0.704497
-0.129018 0.323023 0.706653
-0.128339 0.323927 0.708455
-0.127738 0.324869 0.710391
-0.127243 0.325862 0.712513
-0.126731 0.326852 0.714616
-0.126536 0.32799 0.717257
-0.126339 0.329132 0.719909
-0.125879 0.330159 0.722131
-0.255187 0.273373 0.653772
-0.253605 0.273944 0.654256
-0.251899 0.27448 0.654585
-0.249894 0.274931 0.654542
-0.247783 0.27535 0.654362
-0.245413 0.275694 0.653855
-0.243183 0.276075 0.653514
-0.24097 0.276457 0.653187
-0.238901 0.276877 0.653033
-0.236901 0.277315 0.65296
-0.235169 0.277828 0.653219
-0.233397 0.278327 0.653424
-0.231818 0.278882 0.653871
-0.230118 0.2794 0.654162
-0.228151 0.279838 0.654108
-0.226146 0.280262 0.653999
-0.224198 0.280701 0.653959
-0.222294 0.281151 0.65397
-0.220425 0.28161 0.654021
-0.218791 0.282138 0.654373
-0.217204 0.282679 0.654783
-0.215635 0.283226 0.655214
-0.214092 0.283779 0.655677
-0.212792 0.284407 0.656457
-0.211491 0.285035 0.657236
-0.21019 0.285662 0.658016
-0.208889 0.28629 0.658796
-0.207707 0.286956 0.659733
-0.206832 0.287721 0.661083
-0.206479 0.288656 0.663136
-0.206491 0.289713 0.66569
-0.206961 0.290924 0.668875
-0.207739 0.292243 0.672492
-0.208337 0.293511 0.675883
-0.208803 0.294742 0.679113
-0.209368 0.296013 0.682493
-0.209701 0.297212 0.685572
-0.209728 0.298315 0.688245
-0.20959 0.299367 0.690701
-0.208996 0.300268 0.692536
-0.207558 0.300881 0.693203
-0.205158 0.301162 0.692527
-0.202485 0.301344 0.691458
-0.19934 0.301355 0.689713
-0.19625 0.301379 0.688027
-0.193309 0.301448 0.686537
-0.190882 0.301694 0.68576
-0.188501 0.301952 0.685039
-0.18637 0.302295 0.684665
-0.184256 0.302641 0.684306
-0.181949 0.302914 0.683664
-0.179633 0.303179 0.682997
-0.177256 0.303419 0.682235
-0.174918 0.303667 0.681516
-0.172595 0.303918 0.68081
-0.170562 0.304272 0.680518
-0.168589 0.304647 0.680307
-0.166808 0.30509 0.680372
-0.165158 0.305582 0.680626
