ply
format ascii 1.0
element vertex 1627
property float x
property float y
property float z
end_header
-0.16091 0.00205709 0.897153
-0.158959 0.00201826 0.896726
-0.156998 0.00198713 0.896266
-0.155057 0.00194698 0.895845
-0.152893 0.00203878 0.894845
-0.150584 0.00221695 0.893463
-0.148197 0.00244598 0.891859
-0.145774 0.00270162 0.890142
-0.143407 0.00293032 0.888546
-0.14114 0.00310576 0.887189
-0.139042 0.00318426 0.886257
-0.137055 0.00320166 0.885601
-0.135149 0.00317385 0.885145
-0.133107 0.00322992 0.884321
-0.131209 0.00320234 0.883863
-0.129249 0.00321549 0.88323
-0.127262 0.00324804 0.882512
-0.125368 0.00322642 0.882035
-0.123585 0.00313898 0.881848
-0.121824 0.00304023 0.881713
-0.120146 0.00289008 0.881802
-0.1186 0.0026576 0.882251
-0.116991 0.00246586 0.882522
-0.115311 0.00232054 0.882592
-0.113654 0.00216124 0.882722
-0.112025 0.00198463 0.882928
-0.110479 0.00175578 0.883362
-0.108983 0.00149443 0.883942
-0.107622 0.00114287 0.884911
-0.106227 0.00081315 0.885784
-0.104824 0.000487548 0.886639
-0.103412 0.000167398 0.887473
-0.102001 -0.000154123 0.888309
-0.100589 -0.000475786 0.889146
-0.0992082 -0.000819826 0.89008
-0.0977935 -0.00114087 0.890918
-0.0963488 -0.0014425 0.891667
-0.094901 -0.00174266 0.89241
-0.0934231 -0.00202227 0.893063
-0.0919151 -0.00228109 0.893625
-0.0905574 -0.00264578 0.89465
-0.0891499 -0.00297742 0.895526
-0.0877768 -0.00333459 0.896513
-0.0864887 -0.00375466 0.897772
-0.0852906 -0.00424226 0.899322
-0.0840482 -0.00470055 0.900744
-0.0828341 -0.00518195 0.902266
-0.0815733 -0.0056321 0.90365
-0.0800854 -0.0059139 0.904311
-0.0784904 -0.00611594 0.904626
-0.0767717 -0.00622323 0.904534
-0.0749984 -0.00628571 0.904255
-0.0731758 -0.00630922 0.903802
-0.0713501 -0.00632555 0.903328
-0.0695252 -0.00634054 0.902842
-0.0676196 -0.00628866 0.902073
-0.0657754 -0.00628037 0.901496
-0.0639649 -0.00629549 0.901019
-0.0621143 -0.00627618 0.900391
-0.0600741 -0.00609899 0.899095
-0.057933 -0.00583405 0.897425
-0.0557224 -0.00550533 0.895484
-0.0535034 -0.00516167 0.893483
-0.0513749 -0.00488484 0.891767
-0.0494492 -0.00476905 0.890745
-0.0477112 -0.00480649 0.890375
-0.0460373 -0.00489538 0.890226
-0.0444494 -0.00505597 0.890381
-0.0429431 -0.00528523 0.890829
-0.0414139 -0.00549311 0.891188
-0.039979 -0.00578378 0.891897
-0.195857 0.00481789 0.903581
-0.194057 0.00466042 0.90366
-0.192137 0.00456563 0.903455
-0.190157 0.00450234 0.903104
-0.188001 0.00453354 0.902333
-0.185962 0.0045061 0.901825
-0.183846 0.00452226 0.901124
-0.181823 0.00449297 0.900631
-0.179807 0.0044627 0.900146
-0.177925 0.00436327 0.899972
-0.176013 0.00428141 0.899716
-0.174145 0.00417852 0.899561
-0.172273 0.0040792 0.899388
-0.170286 0.00404375 0.898927
-0.168375 0.00396934 0.898643
-0.16643 0.00391639 0.898267
-0.164494 0.00385997 0.897905
-0.162602 0.00378259 0.897641
-0.160747 0.0036861 0.897462
-0.158785 0.00365108 0.897008
-0.156745 0.0036631 0.896349
-0.154732 0.00366209 0.895745
-0.152535 0.00376964 0.89466
-0.150194 0.00396371 0.893192
-0.147806 0.00419029 0.891581
-0.145383 0.00444337 0.88986
-0.143015 0.00466969 0.888256
-0.140751 0.00484009 0.886903
-0.138687 0.00489789 0.886056
-0.136633 0.00495257 0.885221
-0.13465 0.00496911 0.884559
-0.13256 0.00505382 0.883598
-0.13058 0.00507487 0.882918
-0.128536 0.00513822 0.882054
-0.126582 0.00515054 0.881417
-0.12477 0.00507948 0.881151
-0.123113 0.00491355 0.881303
-0.121505 0.00471865 0.881586
-0.11994 0.00449889 0.881982
-0.118427 0.00424497 0.882523
-0.116843 0.00403709 0.882865
-0.11516 0.00389222 0.882929
-0.113476 0.00374929 0.882983
-0.111822 0.00358902 0.883114
-0.110243 0.00338067 0.883458
-0.108711 0.00314291 0.883933
-0.107315 0.00281471 0.884802
-0.105919 0.00248733 0.885671
-0.104516 0.00216308 0.886522
-0.103103 0.00184428 0.887351
-0.10169 0.00152433 0.888181
-0.10022 0.00124337 0.888846
-0.0988091 0.000921314 0.889688
-0.0973955 0.000600431 0.890525
-0.0959493 0.000300532 0.891267
-0.0945016 1.64809e-06 0.892007
-0.093051 -0.000295772 0.89274
-0.0915427 -0.000553161 0.893298
-0.0901216 -0.000872821 0.894125
-0.0886765 -0.00117525 0.894881
-0.0872336 -0.0014804 0.895646
-0.0858784 -0.00184886 0.896689
-0.0846479 -0.00230985 0.89813
-0.0834668 -0.00280916 0.89974
-0.0822936 -0.00331779 0.901386
-0.0811057 -0.00381927 0.902998
-0.0797149 -0.00417171 0.903968
-0.0782129 -0.00444276 0.904581
-0.0765616 -0.00460196 0.904707
-0.0748555 -0.00471752 0.904648
-0.0730937 -0.00478787 0.904398
-0.0712948 -0.00482832 0.904013
-0.0694399 -0.00482177 0.90343
-0.0675286 -0.00476753 0.902643
-0.0656544 -0.00473934 0.901965
-0.0638421 -0.00475508 0.901482
-0.0620438 -0.00477919 0.901036
-0.060118 -0.00469767 0.900135
-0.0581263 -0.00455867 0.898988
-0.0560979 -0.00438387 0.89769
-0.0539996 -0.00414672 0.896124
-0.0519508 -0.00394242 0.894706
-0.0500448 -0.00385035 0.893771
-0.0482975 -0.00388581 0.893383
-0.0466139 -0.00397202 0.893216
-0.0449889 -0.0041068 0.893256
-0.0434211 -0.00428764 0.893496
-0.195602 0.00652384 0.903684
-0.19379 0.00637207 0.903735
-0.19191 0.00625476 0.903621
-0.189864 0.00622502 0.903115
-0.187697 0.00626004 0.902316
-0.185663 0.0062291 0.901817
-0.183547 0.00624237 0.901115
-0.181524 0.00621115 0.900622
-0.179544 0.00615984 0.900218
-0.177667 0.00605674 0.900055
-0.175803 0.00594861 0.899914
-0.174019 0.00579896 0.899959
-0.1722 0.00567024 0.899916
-0.170249 0.00561294 0.899545
-0.168372 0.00551892 0.899347
-0.166461 0.00544438 0.899055
-0.16453 0.00538391 0.898707
-0.1626 0.00532432 0.898353
-0.160699 0.00525106 0.898061
-0.158687 0.00524212 0.897483
-0.1566 0.00527811 0.896703
-0.154557 0.00529215 0.896022
-0.15237 0.00539108 0.894962
-0.149994 0.00560206 0.893405
-0.147565 0.00584782 0.891688
-0.145064 0.00614187 0.88976
-0.142616 0.00641141 0.887947
-0.140315 0.00660076 0.886493
-0.138216 0.00667719 0.885552
-0.136129 0.00675044 0.884624
-0.134075 0.0068085 0.883767
-0.131975 0.00689663 0.882775
-0.129946 0.00694635 0.881958
-0.127876 0.0070256 0.881014
-0.125957 0.00701595 0.880467
-0.12422 0.00689845 0.880398
-0.122607 0.0067066 0.880666
-0.121052 0.00648014 0.881088
-0.119556 0.00621714 0.881674
-0.118043 0.00596454 0.882212
-0.116485 0.00574009 0.882621
-0.114834 0.00557503 0.882773
-0.113157 0.00542806 0.882842
-0.11151 0.00526235 0.882995
-0.109927 0.00505702 0.883325
-0.108326 0.00486389 0.883599
-0.106826 0.00460469 0.884166
-0.105361 0.00432444 0.884829
-0.103922 0.00402537 0.885572
-0.102514 0.00370522 0.88641
-0.101141 0.00336125 0.887352
-0.0997441 0.0030321 0.888227
-0.0983709 0.00268623 0.889177
-0.0969925 0.00234296 0.890116
-0.0955206 0.00206215 0.890778
-0.0940763 0.00176195 0.891524
-0.0926301 0.00146295 0.892267
-0.0911526 0.0011849 0.892916
-0.0897031 0.000887198 0.893652
-0.0882531 0.000588371 0.894389
-0.0867749 0.000309975 0.895041
-0.0853547 -1.04146e-05 0.895875
-0.0840871 -0.000440978 0.897195
-0.0829281 -0.000953866 0.898868
-0.0817857 -0.00148142 0.900607
-0.0806614 -0.00202608 0.902419
-0.0793945 -0.00246892 0.903785
-0.0779915 -0.00281264 0.904719
-0.0764387 -0.00304582 0.905167
-0.0748009 -0.00321402 0.905333
-0.0730708 -0.00331085 0.90519
-0.0712745 -0.00335537 0.904817
-0.0693848 -0.003325 0.90412
-0.0674442 -0.00325223 0.903236
-0.0655657 -0.00322209 0.902544
-0.063727 -0.00321987 0.901973
-0.0619275 -0.00324474 0.901523
-0.0601072 -0.00325044 0.900988
-0.0582311 -0.003207 0.900246
-0.0563251 -0.00313617 0.899381
-0.0543666 -0.00301747 0.898315
-0.052446 -0.00292507 0.897361
-0.0505588 -0.00285526 0.896509
-0.0487836 -0.00287263 0.896038
-0.196958 0.008483 0.903271
-0.195197 0.0083039 0.903441
-0.19339 0.00814972 0.9035
-0.191546 0.00801352 0.903468
-0.189497 0.0079835 0.902952
-0.187385 0.00798772 0.902281
-0.185398 0.00793201 0.90189
-0.183329 0.00791949 0.901298
-0.181307 0.00788534 0.900804
-0.179372 0.00781007 0.90051
-0.177536 0.00768294 0.900443
-0.175719 0.00754856 0.900415
-0.173984 0.00737209 0.900581
-0.17224 0.00720161 0.90072
-0.170292 0.0071415 0.900359
-0.168416 0.00704408 0.900165
-0.166541 0.00694842 0.899965
-0.164612 0.00688441 0.899623
-0.162609 0.00686241 0.899089
-0.160665 0.00681087 0.898693
-0.158599 0.00682864 0.897981
-0.156431 0.00690695 0.896998
-0.154312 0.00696182 0.896124
-0.15212 0.00706066 0.895051
-0.149743 0.00726819 0.893487
-0.147277 0.0075316 0.891671
-0.144731 0.00784757 0.889627
-0.142246 0.00813411 0.887713
-0.139862 0.00836953 0.886038
-0.137689 0.00848674 0.884897
-0.13557 0.00857739 0.883879
-0.13348 0.00865563 0.882922
-0.131388 0.00873787 0.881946
-0.12937 0.0087804 0.88115
-0.127312 0.00885102 0.880233
-0.125428 0.0088195 0.879774
-0.123731 0.00867782 0.879811
-0.122152 0.0084662 0.880165
-0.120626 0.0082223 0.880666
-0.119165 0.00793811 0.881342
-0.117654 0.00768548 0.881882
-0.116066 0.00748012 0.882207
-0.114417 0.00731423 0.882358
-0.112741 0.00716634 0.882429
-0.111065 0.0070189 0.882496
-0.109417 0.00685544 0.882637
-0.107769 0.00669352 0.882772
-0.106193 0.00648593 0.883113
-0.104659 0.00625085 0.883572
-0.103193 0.00597248 0.884227
-0.101822 0.0056316 0.885162
-0.100517 0.00524481 0.886297
-0.0991919 0.00486959 0.88738
-0.0978907 0.00447746 0.88854
-0.0965784 0.004091 0.889673
-0.0951421 0.00378762 0.890438
-0.0937028 0.00348468 0.891197
-0.0922905 0.00316318 0.892041
-0.0908495 0.00286097 0.8928
-0.089407 0.00255887 0.893556
-0.0879592 0.0022597 0.894298
-0.086478 0.00198414 0.894939
-0.0849968 0.00170756 0.89558
-0.0836668 0.0013233 0.896701
-0.0824725 0.000839298 0.898259
-0.0813252 0.000318394 0.899979
-0.0802039 -0.000225516 0.901797
-0.0790305 -0.000734237 0.903461
-0.0777269 -0.00115067 0.904715
-0.0762724 -0.00145667 0.905483
-0.0747292 -0.00169628 0.905963
-0.0730551 -0.00183781 0.906006
-0.0712585 -0.00188462 0.905636
-0.0693647 -0.00185351 0.904928
-0.0674233 -0.00178287 0.904043
-0.0655142 -0.0017328 0.903251
-0.0636486 -0.00171166 0.90259
-0.0618436 -0.00173524 0.902123
-0.0600744 -0.00178325 0.901766
-0.0582813 -0.00180925 0.901315
-0.0564598 -0.00180986 0.900752
-0.0545861 -0.00176394 0.899991
-0.0527117 -0.00171371 0.899208
-0.0508186 -0.00164318 0.898343
-0.0490155 -0.00164278 0.897783
-0.0494163 -0.0049026 0.904265
-0.196301 0.0103867 0.902457
-0.194661 0.0101473 0.902897
-0.19288 0.00998002 0.903011
-0.191096 0.0098146 0.903115
-0.189099 0.00975646 0.902717
-0.187078 0.0097138 0.902254
-0.185134 0.00963395 0.901964
-0.183154 0.00957337 0.901581
-0.181178 0.0095153 0.901196
-0.179251 0.00943288 0.900921
-0.177459 0.00928283 0.900961
-0.175719 0.00910653 0.901119
-0.173989 0.00892614 0.901298
-0.172251 0.00875138 0.901455
-0.170308 0.00868637 0.901106
-0.168425 0.00859083 0.900896
-0.166518 0.00851003 0.900619
-0.164588 0.00844385 0.900278
-0.162545 0.00844105 0.899648
-0.160592 0.00839302 0.899228
-0.158516 0.00841328 0.898492
-0.156309 0.00851006 0.897411
-0.154108 0.00860772 0.896329
-0.151873 0.00872797 0.895145
-0.149443 0.00896176 0.893443
-0.146902 0.00926435 0.891432
-0.144322 0.00959469 0.889296
-0.141765 0.00991929 0.88719
-0.139341 0.0101744 0.885406
-0.137122 0.0103166 0.884135
-0.134964 0.0104289 0.883009
-0.132849 0.0105194 0.88198
-0.130841 0.0105521 0.881219
-0.128873 0.0105639 0.880553
-0.126896 0.0105849 0.87985
-0.12506 0.0105238 0.879516
-0.123392 0.0103649 0.879629
-0.121806 0.0101567 0.879964
-0.120272 0.00991892 0.880437
-0.118742 0.00967829 0.880922
-0.117199 0.00944527 0.88137
-0.115584 0.00925774 0.881616
-0.113905 0.00911035 0.881679
-0.112197 0.00898238 0.881656
-0.110517 0.0088385 0.881705
-0.108801 0.00871878 0.881644
-0.107087 0.00860032 0.881583
-0.105471 0.00841902 0.8818
-0.103899 0.008211 0.882139
-0.102403 0.00795495 0.882699
-0.101097 0.00757314 0.883816
-0.0998672 0.00714091 0.885167
-0.0986143 0.0067208 0.886456
-0.0973833 0.00628386 0.88782
-0.0961358 0.00585649 0.889143
-0.0947296 0.0055338 0.889996
-0.0933194 0.00521266 0.890839
-0.0919111 0.0048896 0.891692
-0.0904793 0.00458263 0.892476
-0.0890433 0.0042763 0.89325
-0.0876007 0.0039752 0.894006
-0.0861224 0.00369826 0.894654
-0.0846134 0.00344261 0.895205
-0.0832535 0.00308095 0.896228
-0.0819979 0.00264329 0.897588
-0.0807895 0.00216891 0.899108
-0.0796659 0.00163113 0.900914
-0.0785844 0.0010581 0.90287
-0.077384 0.000569117 0.904457
-0.0760582 0.000168619 0.905644
-0.0746574 -0.000177563 0.906593
-0.0730435 -0.000365011 0.906839
-0.0712709 -0.00043244 0.906551
-0.0693794 -0.000407291 0.905853
-0.0674317 -0.000334432 0.904951
-0.0654934 -0.000264932 0.904062
-0.0636226 -0.000242701 0.903387
-0.061792 -0.000248613 0.902834
-0.060019 -0.000295912 0.902467
-0.0582256 -0.000324129 0.902017
-0.0564321 -0.000349885 0.901555
-0.0545853 -0.000328922 0.90089
-0.0550231 -0.00214917 0.908328
-0.19582 0.0122002 0.902041
-0.194217 0.011944 0.902563
-0.192432 0.0117774 0.902667
-0.190685 0.0115931 0.902852
-0.188747 0.0115056 0.902591
-0.186817 0.0114151 0.902337
-0.18497 0.0112861 0.902274
-0.183076 0.0111809 0.902092
-0.181145 0.0110969 0.901817
-0.179264 0.0109894 0.901651
-0.177469 0.0108387 0.901685
-0.175732 0.0106595 0.901855
-0.174036 0.0104605 0.90212
-0.17234 0.0102619 0.90238
-0.170438 0.0101721 0.902134
-0.168597 0.0100525 0.90203
-0.166682 0.00997343 0.901739
-0.164707 0.00992906 0.90129
-0.16258 0.00996871 0.900451
-0.160546 0.0099616 0.899832
-0.158355 0.0100418 0.898808
-0.156068 0.01018 0.897524
-0.153786 0.0103184 0.896235
-0.151501 0.0104645 0.894921
-0.14903 0.0107178 0.893108
-0.146521 0.0109982 0.891177
-0.14392 0.0113369 0.888979
-0.141295 0.0116958 0.886693
-0.138794 0.011991 0.884703
-0.136495 0.0121783 0.883216
-0.134263 0.0123306 0.881889
-0.132193 0.0123948 0.88097
-0.130264 0.0123809 0.880412
-0.128381 0.0123415 0.879969
-0.126511 0.0122982 0.879547
-0.124749 0.0121935 0.87941
-0.123086 0.0120308 0.879536
-0.121469 0.0118419 0.879783
-0.119925 0.01161 0.880229
-0.118356 0.0113933 0.880604
-0.116748 0.0112003 0.88087
-0.1151 0.0110328 0.881019
-0.113385 0.0109083 0.880974
-0.111605 0.0108255 0.880741
-0.109859 0.0107239 0.880596
-0.108112 0.0106243 0.880441
-0.106367 0.0105262 0.880282
-0.104754 0.0103454 0.880498
-0.103187 0.0101352 0.880845
-0.101724 0.00985899 0.881494
-0.100454 0.00945719 0.88271
-0.0992592 0.00900522 0.884157
-0.098045 0.00856233 0.885555
-0.0968521 0.00810363 0.887027
-0.0956379 0.00765643 0.888446
-0.0942645 0.0073139 0.889393
-0.0928855 0.00697315 0.890327
-0.0915067 0.00663182 0.891267
-0.0901015 0.00630707 0.892129
-0.0886407 0.00601985 0.892824
-0.0871696 0.00573892 0.893487
-0.0856901 0.00546374 0.894127
-0.0841821 0.00520828 0.894677
-0.082798 0.00486593 0.89562
-0.0815117 0.00445221 0.896878
-0.0802665 0.00400742 0.898276
-0.0791353 0.00347816 0.900052
-0.0781206 0.00286101 0.902221
-0.0770194 0.00230241 0.904127
-0.0758559 0.00178488 0.905844
-0.0745794 0.00134769 0.907203
-0.0730527 0.00109338 0.90774
-0.0713384 0.000980197 0.907651
-0.0694752 0.000981263 0.907054
-0.067526 0.00105097 0.906151
-0.0655861 0.00111829 0.905262
-0.0636791 0.00116469 0.904468
-0.0617889 0.00120155 0.903714
-0.0599857 0.00117522 0.903245
-0.0581644 0.00116642 0.902701
-0.0563696 0.00113968 0.902237
-0.0568589 -0.000703122 0.909831
-0.196747 0.0143619 0.900658
-0.195284 0.0140375 0.901498
-0.193706 0.0137702 0.902074
-0.191978 0.013576 0.902305
-0.19029 0.0133634 0.902626
-0.188447 0.0132275 0.902583
-0.18661 0.0130905 0.902548
-0.184853 0.0129144 0.902694
-0.183005 0.0127843 0.902621
-0.18112 0.0126743 0.902456
-0.17928 0.0125454 0.902391
-0.177484 0.0123935 0.902425
-0.175739 0.0122173 0.902577
-0.174087 0.0119943 0.902949
-0.172435 0.0117715 0.90332
-0.17061 0.0116391 0.903267
-0.16885 0.0114752 0.903365
-0.166966 0.0113776 0.903155
-0.164911 0.0113715 0.902514
-0.16269 0.0114579 0.901445
-0.160526 0.0115178 0.900503
-0.158176 0.0116813 0.899078
-0.155772 0.0118781 0.897499
-0.153415 0.0120555 0.896016
-0.151084 0.0122237 0.89458
-0.148579 0.0124922 0.892678
-0.146043 0.0127849 0.89067
-0.143413 0.0131362 0.888392
-0.140754 0.0135099 0.88601
-0.138178 0.0138452 0.883816
-0.135835 0.014054 0.882208
-0.133641 0.0141843 0.880973
-0.131615 0.0142212 0.880165
-0.129761 0.014163 0.879803
-0.127983 0.0140629 0.879635
-0.126179 0.0139794 0.879391
-0.124458 0.0138493 0.879361
-0.122807 0.0136794 0.879519
-0.121159 0.0135085 0.879681
-0.119517 0.013335 0.879854
-0.117873 0.0131642 0.880018
-0.116194 0.0130149 0.88008
-0.114475 0.0128921 0.880025
-0.112723 0.0127908 0.879869
-0.110937 0.0127121 0.879613
-0.109187 0.0126132 0.879446
-0.107446 0.0125113 0.8793
-0.105742 0.0123864 0.879254
-0.104138 0.0122016 0.879487
-0.102576 0.0119901 0.879842
-0.101149 0.0116931 0.880589
-0.0999168 0.0112698 0.881912
-0.0987589 0.0107953 0.883463
-0.0976084 0.010314 0.885047
-0.0964421 0.00984071 0.886596
-0.0952024 0.00941261 0.887934
-0.0938306 0.00907011 0.888883
-0.0924557 0.00872884 0.889826
-0.0910799 0.00838629 0.890771
-0.0896738 0.00806414 0.891628
-0.0882021 0.00778495 0.892284
-0.086693 0.00753142 0.892826
-0.0851814 0.00728042 0.89336
-0.083675 0.00702524 0.89391
-0.0822943 0.00668173 0.894857
-0.0809791 0.00629161 0.896019
-0.0796975 0.00587537 0.897296
-0.0785848 0.00533625 0.899125
-0.0776022 0.00470069 0.901393
-0.0765813 0.00408738 0.903556
-0.0755804 0.00345479 0.905804
-0.0744613 0.00290321 0.907682
-0.0730581 0.00255762 0.908631
-0.0714369 0.00237352 0.908858
-0.0696898 0.00228424 0.908656
-0.0677467 0.00234441 0.907781
-0.0657709 0.00243446 0.906777
-0.0637997 0.00252555 0.90577
-0.0618151 0.00263157 0.904696
-0.0599257 0.00266865 0.903932
-0.0603804 0.000882379 0.91134
-0.198077 0.0147462 0.899519
-0.199565 0.0150563 0.898744
-0.199287 0.0167655 0.898791
-0.197738 0.0164857 0.899431
-0.196301 0.0161523 0.900324
-0.194811 0.015844 0.9011
-0.193226 0.0155799 0.901657
-0.191539 0.0153663 0.901979
-0.189899 0.0151292 0.902409
-0.188186 0.0149298 0.902666
-0.186443 0.0147452 0.902849
-0.184775 0.014524 0.903205
-0.18298 0.0143668 0.90326
-0.181137 0.0142344 0.903196
-0.179288 0.0141065 0.903112
-0.177492 0.0139544 0.903147
-0.175746 0.0137771 0.903299
-0.174131 0.0135341 0.903763
-0.172527 0.0132864 0.904254
-0.170754 0.0131244 0.904332
-0.169044 0.0129331 0.904556
-0.167201 0.0128104 0.904453
-0.165097 0.0128277 0.903693
-0.162857 0.0129198 0.90258
-0.160525 0.0130649 0.901221
-0.158037 0.0132982 0.89945
-0.155462 0.0135836 0.897437
-0.15298 0.0138253 0.895634
-0.150515 0.014064 0.89385
-0.148052 0.014307 0.892048
-0.14549 0.0146098 0.889968
-0.142861 0.0149566 0.887686
-0.140199 0.0153294 0.885291
-0.137615 0.015665 0.883068
-0.135243 0.0158876 0.881378
-0.133054 0.0160128 0.880148
-0.131069 0.0160259 0.879443
-0.12926 0.015942 0.879197
-0.127518 0.0158208 0.87912
-0.125789 0.0156937 0.879074
-0.124138 0.0155216 0.879233
-0.122495 0.0153475 0.879409
-0.120815 0.015195 0.879481
-0.1191 0.0150649 0.879449
-0.117344 0.0149615 0.879299
-0.115562 0.014874 0.87907
-0.113776 0.0147924 0.87882
-0.111989 0.0147131 0.878558
-0.110235 0.0146148 0.878383
-0.108522 0.0144944 0.878314
-0.106822 0.0143669 0.878277
-0.10519 0.0141988 0.878432
-0.103657 0.0139695 0.878868
-0.102133 0.0137347 0.879326
-0.100709 0.0134374 0.880078
-0.0994779 0.0130152 0.881402
-0.0982941 0.0125608 0.882873
-0.0971432 0.012082 0.884452
-0.0959472 0.0116308 0.885909
-0.0947311 0.0111898 0.887314
-0.0934204 0.0108081 0.888443
-0.0920855 0.0104421 0.889506
-0.0906882 0.0101157 0.890382
-0.0892786 0.00979683 0.891225
-0.0877387 0.00956492 0.891667
-0.0861316 0.00937997 0.891899
-0.0845533 0.00917563 0.892217
-0.0830472 0.00892233 0.892759
-0.0816461 0.00859557 0.893635
-0.0803058 0.0082255 0.894709
-0.0790161 0.00781829 0.895951
-0.0779269 0.00726723 0.897849
-0.0770044 0.00659348 0.900304
-0.0760861 0.00591103 0.902796
-0.0752463 0.00516573 0.90557
-0.0742855 0.00450157 0.90797
-0.0730385 0.00404217 0.909441
-0.0715428 0.00376379 0.91009
-0.0699223 0.0035773 0.91032
-0.0680144 0.00360711 0.909573
-0.0659782 0.00373741 0.908371
-0.0662536 0.00211996 0.915079
-0.200178 0.0189316 0.897348
-0.198799 0.0185731 0.898367
-0.1973 0.0182709 0.899115
-0.195864 0.0179386 0.900008
-0.194379 0.0176279 0.900792
-0.192842 0.0173413 0.901459
-0.191183 0.0171149 0.901843
-0.189595 0.0168526 0.902391
-0.187929 0.0166296 0.902758
-0.186271 0.0164025 0.903141
-0.184653 0.0161568 0.903616
-0.182862 0.0159961 0.90368
-0.181061 0.0158422 0.903717
-0.17925 0.0156945 0.903724
-0.177488 0.0155221 0.903841
-0.175749 0.0153405 0.904012
-0.174181 0.0150737 0.904595
-0.172573 0.0148255 0.905077
-0.170848 0.0146395 0.905275
-0.169185 0.0144204 0.905619
-0.16744 0.0142454 0.905761
-0.165453 0.0141983 0.905295
-0.163364 0.0142059 0.904567
-0.16083 0.0144524 0.902708
-0.158122 0.0147977 0.900387
-0.155282 0.0152193 0.897704
-0.152513 0.0156107 0.895169
-0.149785 0.0159888 0.892706
-0.147365 0.0162054 0.891006
-0.144815 0.016499 0.888948
-0.14222 0.0168236 0.886749
-0.139594 0.0171731 0.884438
-0.137014 0.0175026 0.88222
-0.134648 0.0177199 0.880538
-0.132504 0.0178177 0.87942
-0.130562 0.0178067 0.878822
-0.128795 0.0176975 0.878685
-0.127095 0.0175519 0.878716
-0.125407 0.0174005 0.878779
-0.123793 0.0172077 0.879036
-0.122153 0.0170315 0.879216
-0.120436 0.0169002 0.879185
-0.11867 0.0168002 0.879012
-0.11687 0.0167221 0.878733
-0.115011 0.0166814 0.878283
-0.113198 0.0166148 0.877953
-0.11142 0.0165302 0.877712
-0.109675 0.016427 0.877553
-0.108003 0.0162817 0.877597
-0.106375 0.0161109 0.877762
-0.104787 0.0159152 0.878039
-0.103291 0.0156635 0.878578
-0.101796 0.0154107 0.87912
-0.100368 0.0151165 0.879859
-0.0990759 0.0147349 0.880999
-0.0978284 0.0143236 0.882279
-0.0966429 0.0138698 0.883752
-0.0953843 0.0134619 0.885016
-0.0941078 0.0130632 0.886235
-0.0928272 0.0126645 0.887448
-0.0915555 0.0122589 0.888696
-0.0901147 0.0119632 0.889434
-0.0887062 0.0116457 0.890274
-0.0871563 0.0114229 0.890679
-0.0854814 0.0112837 0.890692
-0.0838468 0.0111197 0.890825
-0.0823977 0.0108288 0.891539
-0.0809698 0.0105235 0.892321
-0.0796339 0.0101543 0.893401
-0.0783456 0.00974873 0.894639
-0.0772872 0.00918092 0.896629
-0.0764291 0.00846588 0.899287
-0.075634 0.00770084 0.902176
-0.0749185 0.00687117 0.905356
-0.0741118 0.00609934 0.908265
-0.0730195 0.00552849 0.910253
-0.0716543 0.00515334 0.911344
-0.0701334 0.00489174 0.911916
-0.0682858 0.00487253 0.91138
-0.068523 0.00329783 0.917946
-0.199706 0.0207289 0.896959
-0.198265 0.0204004 0.897833
-0.196798 0.0200839 0.898653
-0.195371 0.0197477 0.899564
-0.193931 0.0194171 0.900448
-0.192446 0.0191074 0.901233
-0.190871 0.0188395 0.901808
-0.189334 0.0185548 0.902475
-0.187711 0.0183096 0.902941
-0.186096 0.0180624 0.903425
-0.18452 0.0177954 0.904
-0.182737 0.0176304 0.904082
-0.180974 0.0174568 0.90421
-0.179239 0.0172684 0.904401
-0.177491 0.0170896 0.904554
-0.175759 0.0169026 0.904744
-0.17427 0.0165954 0.90552
-0.172656 0.0163485 0.905993
-0.170968 0.0161415 0.906283
-0.169348 0.0159 0.906737
-0.16765 0.015699 0.906999
-0.165706 0.0156274 0.906645
-0.163708 0.0155836 0.906148
-0.161068 0.0158799 0.904028
-0.158006 0.0164047 0.900817
-0.154747 0.0170426 0.897071
-0.151565 0.0176506 0.893478
-0.148753 0.0180703 0.890789
-0.146374 0.0182641 0.889183
-0.143935 0.0184948 0.8874
-0.141428 0.0187694 0.885415
-0.138883 0.0190715 0.883307
-0.136356 0.0193686 0.881218
-0.134034 0.0195588 0.879645
-0.131962 0.0196164 0.878711
-0.130055 0.0195834 0.878204
-0.128364 0.0194319 0.878262
-0.126744 0.0192407 0.878508
-0.125129 0.0190468 0.878764
-0.123552 0.0188332 0.879121
-0.121909 0.0186576 0.879292
-0.120155 0.0185477 0.879157
-0.118315 0.0184893 0.878777
-0.116471 0.0184359 0.878376
-0.114578 0.0184143 0.877828
-0.11277 0.0183452 0.877506
-0.111003 0.018253 0.87729
-0.1093 0.0181246 0.877249
-0.107634 0.0179744 0.877308
-0.106073 0.0177632 0.87766
-0.104554 0.0175252 0.878135
-0.103066 0.017269 0.878695
-0.10157 0.0170164 0.879235
-0.100131 0.0167295 0.879942
-0.0987353 0.0164143 0.880776
-0.0974147 0.0160512 0.881838
-0.0961928 0.0156237 0.8832
-0.0948705 0.0152574 0.884269
-0.0935341 0.0148997 0.885302
-0.0922486 0.0145077 0.886495
-0.0909257 0.0141384 0.887582
-0.0894578 0.0138628 0.88823
-0.0880509 0.0135459 0.889066
-0.0864988 0.0133256 0.889455
-0.0848004 0.013204 0.889386
-0.0831653 0.0130421 0.889509
-0.08175 0.012731 0.890321
-0.0803243 0.0124261 0.891103
-0.0790185 0.0120385 0.892271
-0.0777913 0.0115947 0.893699
-0.0767694 0.0110045 0.895801
-0.0759515 0.0102658 0.898585
-0.0752477 0.00944108 0.90177
-0.0746242 0.00855106 0.905252
-0.0739097 0.00771743 0.908467
-0.0729702 0.00703866 0.910965
-0.0717294 0.00657332 0.912477
-0.070331 0.00622053 0.913468
-0.068597 0.00611397 0.913326
-0.200625 0.022872 0.895589
-0.199142 0.0225648 0.896362
-0.197726 0.0222262 0.89729
-0.196301 0.0218914 0.8982
-0.194831 0.0215775 0.899011
-0.193356 0.0212641 0.899813
-0.191881 0.0209514 0.900615
-0.190354 0.020662 0.901299
-0.188861 0.0203565 0.902065
-0.187329 0.0200684 0.902741
-0.1858 0.0197798 0.903425
-0.184267 0.0194926 0.904101
-0.182561 0.0192892 0.904366
-0.180844 0.0190917 0.904603
-0.179159 0.0188787 0.904912
-0.177501 0.0186539 0.905286
-0.175818 0.0184412 0.905595
-0.174331 0.0181322 0.90638
-0.172705 0.0178919 0.906826
-0.171005 0.0176904 0.907089
-0.169361 0.0174593 0.907489
-0.167711 0.0172325 0.90787
-0.165836 0.0171213 0.90769
-0.163949 0.017019 0.907473
-0.160901 0.0175212 0.904333
-0.157487 0.0182237 0.900231
-0.153894 0.0190315 0.895631
-0.15054 0.0197249 0.891587
-0.147765 0.0201217 0.888979
-0.14546 0.0202739 0.887554
-0.143045 0.0204909 0.885819
-0.14063 0.0207134 0.884064
-0.138211 0.0209432 0.882277
-0.135773 0.0211904 0.880412
-0.133531 0.0213339 0.879045
-0.131528 0.0213504 0.878289
-0.129693 0.0212768 0.877968
-0.12801 0.02112 0.878047
-0.126398 0.0209246 0.878311
-0.124786 0.0207305 0.878572
-0.123209 0.0205161 0.878926
-0.121531 0.0203604 0.879002
-0.119813 0.0202289 0.878962
-0.117947 0.0201849 0.878507
-0.116106 0.0201293 0.87811
-0.114218 0.0201032 0.877572
-0.112412 0.0200308 0.877255
-0.110649 0.0199361 0.877047
-0.109007 0.0197707 0.877176
-0.107373 0.0196021 0.877323
-0.105845 0.0193691 0.877771
-0.104359 0.0191113 0.87834
-0.102876 0.0188521 0.878915
-0.101377 0.0186021 0.879445
-0.099903 0.0183367 0.88005
-0.0984346 0.0180672 0.88067
-0.0970397 0.0177524 0.881511
-0.0957745 0.0173537 0.882741
-0.0943897 0.0170298 0.883619
-0.0929928 0.016713 0.884466
-0.0916737 0.0163443 0.885551
-0.0903094 0.0160042 0.886505
-0.0887808 0.0157704 0.886959
-0.0873452 0.015475 0.887699
-0.0858231 0.0152367 0.888173
-0.0841647 0.0150897 0.88822
-0.0825441 0.0149184 0.88838
-0.0811634 0.0145869 0.889294
-0.0797385 0.0142836 0.890071
-0.0784621 0.0138786 0.891326
-0.0772972 0.013394 0.892949
-0.0763439 0.0127612 0.89527
-0.0755643 0.0120002 0.898176
-0.0749714 0.0111025 0.901724
-0.0744109 0.0101732 0.905414
-0.07379 0.00927716 0.908942
-0.0729755 0.00851145 0.911861
-0.071884 0.00793923 0.913879
-0.0705994 0.00750225 0.915262
-0.0711625 0.00571063 0.922935
-0.200036 0.0247149 0.894937
-0.198566 0.0244043 0.895738
-0.197156 0.0240653 0.896674
-0.19576 0.023718 0.897647
-0.194331 0.0233858 0.898549
-0.192897 0.023055 0.899441
-0.191426 0.022741 0.900252
-0.189904 0.0224502 0.900945
-0.188416 0.0221432 0.90172
-0.186893 0.0218531 0.902413
-0.185369 0.0215621 0.903107
-0.18388 0.0212538 0.903882
-0.182224 0.0210261 0.904266
-0.180596 0.0207854 0.904712
-0.179006 0.020527 0.905251
-0.177436 0.0202577 0.905835
-0.175797 0.020023 0.906254
-0.174344 0.0196965 0.907122
-0.172721 0.0194535 0.907577
-0.170997 0.0192625 0.907785
-0.169334 0.0190402 0.908139
-0.167694 0.0188084 0.908549
-0.164154 0.0184759 0.908713
-0.160942 0.0190559 0.905161
-0.149535 0.021781 0.889744
-0.146857 0.0221234 0.887375
-0.144672 0.0222113 0.886245
-0.142309 0.0223981 0.884638
-0.139981 0.0225723 0.8831
-0.137652 0.0227512 0.881537
-0.135298 0.0229489 0.87989
-0.133101 0.0230661 0.878633
-0.13114 0.0230583 0.877987
-0.129311 0.0229809 0.877678
-0.127628 0.0228233 0.877756
-0.126016 0.0226282 0.878017
-0.124401 0.022435 0.878268
-0.122823 0.0222222 0.878615
-0.121181 0.0220459 0.878786
-0.119502 0.0218911 0.878851
-0.11768 0.0218208 0.878516
-0.115884 0.0217375 0.878242
-0.114027 0.0216912 0.877793
-0.112252 0.0215999 0.87756
-0.110487 0.0215056 0.877345
-0.108845 0.021339 0.877476
-0.107204 0.0211728 0.877604
-0.105673 0.0209424 0.878043
-0.104157 0.020702 0.878524
-0.102675 0.0204425 0.879103
-0.101179 0.0201908 0.879643
-0.0996722 0.0199455 0.880151
-0.0981391 0.019717 0.88058
-0.0966771 0.019444 0.881219
-0.0953449 0.0190894 0.882247
-0.0938998 0.0188052 0.882941
-0.0924678 0.0185119 0.883677
-0.0911136 0.0181687 0.884651
-0.0897086 0.0178566 0.885475
-0.0881398 0.0176498 0.885798
-0.0866982 0.0173608 0.886512
-0.0851899 0.0171152 0.88702
-0.0835698 0.0169441 0.887179
-0.0819881 0.0167483 0.887454
-0.0806117 0.0164155 0.888375
-0.0791594 0.0161326 0.889059
-0.0778839 0.0157301 0.890311
-0.0767552 0.0152243 0.892043
-0.0758115 0.0145887 0.89439
-0.0751188 0.0137734 0.897576
-0.0746422 0.0128004 0.901503
-0.07417 0.0118145 0.905486
-0.0736497 0.0108523 0.909349
-0.0729563 0.0100035 0.912676
-0.0719576 0.00936626 0.915011
-0.0707363 0.0088837 0.916615
-0.201154 0.0267613 0.894021
-0.199556 0.0265073 0.894531
-0.198011 0.0262311 0.895158
-0.19653 0.0259253 0.895931
-0.195103 0.0255945 0.896831
-0.193669 0.0252658 0.897713
-0.192276 0.0249187 0.898696
-0.190838 0.0245905 0.899579
-0.18936 0.0242807 0.900372
-0.187917 0.0239538 0.901247
-0.186434 0.0236443 0.902031
-0.184918 0.0233513 0.902742
-0.183437 0.02304 0.903536
-0.181829 0.0227896 0.904028
-0.180255 0.0225239 0.904603
-0.178758 0.0222207 0.905361
-0.177271 0.0219107 0.906146
-0.175715 0.0216351 0.906766
-0.174265 0.021307 0.907644
-0.172683 0.0210443 0.9082
-0.170955 0.0208528 0.908399
-0.169298 0.0206272 0.908772
-0.167635 0.0204058 0.909126
-0.151652 0.0232681 0.891379
-0.148392 0.0239018 0.887545
-0.146061 0.0240614 0.886052
-0.143932 0.0241186 0.885058
-0.141646 0.024263 0.883641
-0.139394 0.0243936 0.882294
-0.137174 0.0245117 0.881013
-0.134865 0.024683 0.879477
-0.132782 0.024736 0.878518
-0.13086 0.0247055 0.87797
-0.129066 0.0246068 0.877756
-0.127352 0.0244673 0.877745
-0.12573 0.024276 0.877981
-0.124074 0.0241059 0.878117
-0.122426 0.0239324 0.878275
-0.120786 0.023755 0.878448
-0.119148 0.0235767 0.878623
-0.117405 0.0234603 0.878502
-0.115683 0.0233336 0.878434
-0.113925 0.0232288 0.878259
-0.112182 0.0231169 0.878117
-0.110411 0.0230236 0.877888
-0.108737 0.0228754 0.877928
-0.107065 0.0227265 0.877968
-0.105498 0.0225163 0.878306
-0.103948 0.0222971 0.878688
-0.10246 0.0220407 0.879251
-0.100966 0.0217878 0.879795
-0.0994641 0.0215394 0.880318
-0.0979056 0.0213264 0.880672
-0.0964122 0.0210733 0.881217
-0.0949859 0.0207785 0.881963
-0.0934728 0.0205378 0.88245
-0.0919819 0.0202831 0.883004
-0.090566 0.0199805 0.883786
-0.0890995 0.01971 0.884416
-0.0875534 0.0194899 0.884802
-0.086114 0.0192012 0.885516
-0.0846406 0.0189351 0.886126
-0.0830865 0.0187211 0.886485
-0.0815668 0.0184852 0.886949
-0.0801893 0.018154 0.887863
-0.0787339 0.0178753 0.888534
-0.0774549 0.0174762 0.88977
-0.0763523 0.0169564 0.891584
-0.07539 0.0163367 0.893869
-0.0747002 0.0155249 0.897062
-0.0743079 0.0144997 0.901264
-0.0738727 0.0134943 0.90537
-0.0733996 0.0125048 0.909392
-0.0727729 0.0116144 0.912944
-0.0718627 0.0109166 0.915578
-0.070704 0.01039 0.917398
-0.202611 0.0286544 0.893866
-0.200839 0.0284774 0.893986
-0.199125 0.0282761 0.894232
-0.197475 0.0280475 0.89462
-0.195941 0.0277662 0.89527
-0.194475 0.0274543 0.896078
-0.193002 0.0271453 0.896869
-0.191607 0.0267991 0.897842
-0.190171 0.0264722 0.898724
-0.188735 0.0261452 0.899607
-0.18734 0.0257977 0.900591
-0.185901 0.0254693 0.901475
-0.184422 0.0251593 0.902268
-0.18298 0.0248315 0.903152
-0.181419 0.0245603 0.903754
-0.179892 0.0242709 0.904438
-0.178441 0.0239459 0.905305
-0.177008 0.0236118 0.906219
-0.175535 0.0232963 0.907041
-0.17413 0.0229472 0.908028
-0.172592 0.0226614 0.908695
-0.170916 0.0224445 0.909023
-0.169285 0.0222056 0.90946
-0.147517 0.0258773 0.886029
-0.145619 0.0258099 0.885636
-0.143473 0.0258744 0.884594
-0.141183 0.0260179 0.883164
-0.138926 0.026149 0.881798
-0.136711 0.0262629 0.880522
-0.134441 0.0264096 0.879087
-0.132433 0.0264206 0.878321
-0.130586 0.0263487 0.87797
-0.128829 0.0262293 0.877853
-0.12711 0.0260908 0.877829
-0.125447 0.0259224 0.877952
-0.123786 0.0257542 0.878074
-0.12207 0.025618 0.878042
-0.120429 0.0254411 0.87821
-0.118855 0.0252274 0.878562
-0.117153 0.0250863 0.878553
-0.115441 0.0249527 0.878512
-0.113752 0.0248074 0.878528
-0.112041 0.0246761 0.878476
-0.110278 0.024577 0.878271
-0.108638 0.0244069 0.878408
-0.106964 0.0242592 0.878443
-0.10536 0.0240697 0.878675
-0.103769 0.0238747 0.87894
-0.102246 0.0236388 0.879402
-0.100693 0.0234214 0.879773
-0.0991641 0.02319 0.880215
-0.0976069 0.0229759 0.88057
-0.0960822 0.0227429 0.881022
-0.0945921 0.0224875 0.881574
-0.0930714 0.0222527 0.882036
-0.091604 0.0219832 0.882657
-0.090166 0.0216959 0.883368
-0.0886775 0.0214399 0.883928
-0.0871905 0.0211836 0.884492
-0.0857553 0.0208932 0.885216
-0.0842594 0.0206417 0.885754
-0.082738 0.0204074 0.886211
-0.0812446 0.0201544 0.886757
-0.0798093 0.0198635 0.887485
-0.0783486 0.0195884 0.888135
-0.0770614 0.0191976 0.889343
-0.0759874 0.018661 0.891247
-0.0750527 0.0180258 0.893619
-0.0743649 0.0172175 0.896819
-0.0740012 0.0161799 0.901117
-0.0735987 0.0151572 0.905331
-0.0731314 0.01417 0.909374
-0.0725119 0.0132796 0.912951
-0.0716864 0.0125254 0.915872
-0.070615 0.0119384 0.917989
-0.2042 0.0304924 0.894
-0.202316 0.0303627 0.893876
-0.200456 0.0302236 0.893797
-0.198597 0.0300861 0.893714
-0.196791 0.0299259 0.893748
-0.195176 0.0296823 0.894209
-0.193702 0.0293752 0.894991
-0.192196 0.0290836 0.8957
-0.190808 0.0287369 0.896685
-0.189415 0.0283928 0.897659
-0.187988 0.028062 0.89856
-0.186642 0.0276941 0.899652
-0.185298 0.0273244 0.900754
-0.183902 0.0269778 0.901739
-0.1825 0.0266315 0.902714
-0.181013 0.0263265 0.903489
-0.179483 0.0260389 0.904164
-0.178082 0.0256924 0.90515
-0.176691 0.025338 0.906163
-0.175269 0.0249991 0.907105
-0.173867 0.0246483 0.908101
-0.17242 0.0243194 0.908988
-0.170792 0.0240788 0.909435
-0.16919 0.023824 0.909946
-0.149508 0.0274233 0.887364
-0.147557 0.0273786 0.886846
-0.145569 0.0273551 0.886228
-0.143301 0.0274797 0.88487
-0.140935 0.0276596 0.88324
-0.138632 0.0278119 0.881754
-0.136416 0.0279232 0.880474
-0.134156 0.0280615 0.87906
-0.132194 0.0280463 0.878414
-0.130382 0.0279542 0.878155
-0.128624 0.027833 0.878036
-0.12684 0.0277295 0.877837
-0.125145 0.0275782 0.877871
-0.123447 0.0274303 0.877891
-0.121663 0.0273313 0.877671
-0.120049 0.0271384 0.877911
-0.118473 0.0269267 0.878253
-0.116808 0.0267645 0.878345
-0.115132 0.0266103 0.8784
-0.113516 0.0264226 0.878619
-0.111811 0.0262871 0.878585
-0.110115 0.0261475 0.87857
-0.108481 0.0259742 0.878723
-0.106808 0.0258232 0.878761
-0.105169 0.0256548 0.878893
-0.103539 0.0254821 0.879046
-0.10198 0.0252679 0.8794
-0.100393 0.0250709 0.879671
-0.0988329 0.0248574 0.880019
-0.0972709 0.0246466 0.880358
-0.0957124 0.0244343 0.880706
-0.0941862 0.0242031 0.881148
-0.0926912 0.0239521 0.881684
-0.0912542 0.0236651 0.882394
-0.089826 0.0233728 0.883134
-0.0884047 0.0230747 0.883896
-0.0869529 0.0227963 0.884567
-0.0854935 0.0225216 0.885216
-0.0839983 0.0222702 0.885755
-0.0825042 0.0220185 0.886297
-0.081012 0.0217643 0.886845
-0.0795487 0.0214922 0.887485
-0.078085 0.02122 0.888125
-0.0767646 0.0208515 0.889225
-0.0756895 0.0203192 0.891125
-0.0747299 0.0197042 0.893416
-0.074045 0.0188992 0.896626
-0.0737016 0.0178535 0.900991
-0.0733187 0.0168236 0.905272
-0.0728234 0.0158616 0.909223
-0.0722245 0.0149618 0.912871
-0.0714241 0.0141939 0.915876
-0.0704105 0.0135704 0.918191
-0.206041 0.0306415 0.894024
-0.205778 0.0323365 0.894107
-0.203946 0.0321834 0.894101
-0.202002 0.0320778 0.893841
-0.200009 0.0319954 0.893465
-0.198007 0.0319194 0.893058
-0.196066 0.0318192 0.892779
-0.194353 0.0316195 0.893013
-0.192795 0.0313519 0.893596
-0.191294 0.0310592 0.894312
-0.189912 0.0307126 0.895303
-0.188566 0.0303486 0.896379
-0.187186 0.0299999 0.897381
-0.185893 0.02961 0.898593
-0.184606 0.0292166 0.899824
-0.183262 0.0288469 0.900926
-0.181863 0.0285019 0.901901
-0.180419 0.028178 0.902776
-0.178929 0.0278738 0.903541
-0.177571 0.0275072 0.904627
-0.176223 0.0271356 0.905742
-0.174847 0.0267757 0.906793
-0.173465 0.0264162 0.907835
-0.172052 0.0260721 0.908804
-0.170499 0.0257947 0.909434
-0.151357 0.0290499 0.888324
-0.149388 0.0290098 0.887773
-0.147413 0.0289758 0.887197
-0.145409 0.0289583 0.886535
-0.143096 0.0291026 0.885063
-0.140724 0.0292816 0.883416
-0.138417 0.0294318 0.881917
-0.136197 0.029542 0.880624
-0.133944 0.0296742 0.879226
-0.131985 0.0296556 0.878587
-0.130178 0.0295585 0.878344
-0.128421 0.0294373 0.878223
-0.126635 0.0293321 0.87802
-0.124941 0.0291799 0.878055
-0.123242 0.0290309 0.878074
-0.121424 0.0289494 0.877761
-0.119807 0.0287584 0.87799
-0.118196 0.0285655 0.878235
-0.116532 0.0284025 0.878326
-0.11486 0.0282454 0.878393
-0.113307 0.0280222 0.878789
-0.111639 0.0278644 0.878857
-0.110013 0.0276838 0.879039
-0.108414 0.027489 0.879295
-0.106745 0.027335 0.879348
-0.105073 0.0271844 0.879384
-0.103403 0.0270337 0.879424
-0.101808 0.0268402 0.879672
-0.100186 0.0266634 0.879843
-0.0986213 0.026453 0.880176
-0.0970502 0.0262473 0.880488
-0.0954864 0.0260382 0.880819
-0.0939314 0.0258234 0.881174
-0.0924398 0.0255708 0.881719
-0.091011 0.02528 0.882454
-0.0895892 0.0249833 0.883212
-0.0881732 0.0246831 0.88399
-0.0867499 0.0243871 0.884749
-0.0852601 0.0241315 0.885304
-0.0837616 0.0238829 0.885832
-0.082266 0.0236316 0.886369
-0.0807758 0.0233771 0.886922
-0.0792883 0.0231199 0.887484
-0.0778797 0.0228123 0.888299
-0.0765604 0.0224445 0.889404
-0.075489 0.0219112 0.891317
-0.0745322 0.0212973 0.893619
-0.0738436 0.0204991 0.896819
-0.07344 0.0195004 0.90099
-0.073017 0.0185046 0.90514
-0.0724524 0.0175955 0.908863
-0.0718225 0.016723 0.912405
-0.0710187 0.0159623 0.915398
-0.0700368 0.0153197 0.917817
-0.205417 0.0340741 0.893973
-0.203541 0.0339371 0.893867
-0.201544 0.0338538 0.893485
-0.199451 0.0338142 0.89288
-0.19736 0.0337757 0.892269
-0.195291 0.0337293 0.891698
-0.193532 0.0335507 0.891819
-0.191925 0.0333064 0.892286
-0.190386 0.033032 0.892906
-0.188966 0.0327046 0.893801
-0.187661 0.0323255 0.894967
-0.186283 0.0319783 0.895968
-0.185043 0.0315678 0.897294
-0.183804 0.0311542 0.89863
-0.18252 0.0307603 0.899869
-0.181172 0.0303942 0.900962
-0.179814 0.0300321 0.902035
-0.178371 0.0297063 0.902909
-0.17706 0.029321 0.904105
-0.175755 0.0289302 0.90532
-0.174429 0.0285479 0.90649
-0.173063 0.0281841 0.907568
-0.171677 0.027827 0.908602
-0.151373 0.0305725 0.88908
-0.14944 0.0305119 0.888624
-0.147482 0.0304658 0.888093
-0.145421 0.0304748 0.887286
-0.143008 0.0306652 0.885556
-0.140595 0.0308614 0.883803
-0.138252 0.0310271 0.882207
-0.13603 0.0311356 0.88091
-0.133812 0.0312455 0.879604
-0.13189 0.0312041 0.879065
-0.130083 0.0311061 0.878819
-0.128353 0.0309686 0.878774
-0.126532 0.030881 0.878475
-0.124799 0.0307487 0.878408
-0.12307 0.0306145 0.878345
-0.121219 0.0305493 0.877942
-0.119537 0.0303937 0.877993
-0.117891 0.0302198 0.878137
-0.116223 0.0300586 0.878219
-0.114521 0.0299179 0.878197
-0.112973 0.0296909 0.878605
-0.111306 0.0295333 0.878673
-0.109712 0.0293343 0.878945
-0.108118 0.0291356 0.879214
-0.106485 0.0289614 0.879367
-0.104842 0.0287928 0.879487
-0.103204 0.0286227 0.879617
-0.101606 0.0284307 0.879858
-0.0999835 0.0282532 0.880026
-0.0984184 0.0280429 0.880358
-0.0968473 0.0278371 0.88067
-0.0952837 0.027627 0.881001
-0.0937317 0.0274106 0.881366
-0.0922455 0.0271547 0.881926
-0.0908223 0.0268606 0.882679
-0.0894292 0.0265474 0.883525
-0.0880093 0.0262489 0.884292
-0.0865815 0.025956 0.885038
-0.0850844 0.0257049 0.885571
-0.083582 0.0254582 0.886087
-0.0820543 0.0252275 0.886523
-0.0805959 0.0249523 0.887177
-0.0791397 0.0246755 0.88784
-0.0777666 0.0243451 0.888769
-0.0764794 0.0239571 0.889979
-0.075464 0.0233885 0.892077
-0.0745102 0.0227744 0.894393
-0.0737921 0.021999 0.897503
-0.073322 0.0210506 0.901462
-0.0728348 0.0201029 0.905404
-0.0721508 0.0192806 0.908732
-0.0714598 0.0184551 0.91207
-0.0706242 0.017721 0.914955
-0.0696757 0.0170587 0.917485
-0.0711325 0.0132072 0.927353
-0.0686173 0.0164683 0.919664
-0.206541 0.0361101 0.893075
-0.204799 0.0359164 0.893268
-0.202945 0.035771 0.893207
-0.200863 0.0357223 0.892632
-0.198765 0.0356832 0.892008
-0.196637 0.0356602 0.891309
-0.194523 0.0356326 0.890629
-0.192724 0.0354722 0.890655
-0.191115 0.03523 0.891109
-0.189534 0.0349751 0.891626
-0.188072 0.0346684 0.892419
-0.186763 0.0342937 0.893568
-0.18538 0.0339511 0.89455
-0.184141 0.0335431 0.895873
-0.182948 0.0331127 0.89731
-0.18175 0.032682 0.898744
-0.18049 0.0322785 0.90004
-0.179261 0.0318587 0.901416
-0.177917 0.0314893 0.902524
-0.176664 0.0310784 0.903857
-0.175401 0.0306693 0.905172
-0.174068 0.0302923 0.906324
-0.172657 0.0299497 0.907292
-0.171219 0.029619 0.908197
-0.149526 0.0319983 0.889562
-0.147561 0.0319531 0.889015
-0.145411 0.0320039 0.887982
-0.142955 0.0322117 0.886142
-0.140511 0.0324193 0.884308
-0.138169 0.0325806 0.882716
-0.135915 0.0327007 0.881335
-0.133727 0.0327925 0.880105
-0.131804 0.0327501 0.879565
-0.129995 0.0326512 0.879316
-0.128232 0.0325297 0.879183
-0.126403 0.0324445 0.878863
-0.124635 0.0323298 0.8787
-0.122868 0.0322147 0.878534
-0.121016 0.0321477 0.878128
-0.119299 0.032011 0.878082
-0.117647 0.0318392 0.87821
-0.115945 0.0316959 0.878195
-0.114209 0.0315731 0.878076
-0.112628 0.0313659 0.878389
-0.110958 0.031208 0.878448
-0.109364 0.0310094 0.878716
-0.107803 0.0307934 0.879076
-0.106207 0.0305967 0.879334
-0.104604 0.0304059 0.879568
-0.102997 0.0302173 0.879788
-0.101401 0.0300227 0.880037
-0.0997837 0.0298423 0.880217
-0.098224 0.0296288 0.880565
-0.0966623 0.029416 0.880904
-0.0951039 0.0292027 0.881252
-0.0935827 0.0289674 0.881709
-0.0921255 0.028694 0.882358
-0.0906984 0.0284016 0.8831
-0.0893302 0.0280735 0.884024
-0.0879048 0.0277791 0.884777
-0.0864448 0.0275054 0.885425
-0.0849151 0.0272748 0.885858
-0.0834093 0.0270299 0.886363
-0.0818515 0.0268173 0.886705
-0.0804228 0.026524 0.887454
-0.0789999 0.026226 0.888222
-0.0776615 0.025873 0.889265
-0.0764083 0.0254643 0.890587
-0.0754252 0.0248762 0.892793
-0.0744694 0.0242661 0.895108
-0.0737467 0.0234972 0.898209
-0.073219 0.022591 0.901983
-0.0726934 0.0216746 0.905804
-0.0719717 0.0208818 0.909009
-0.0712486 0.0200824 0.912244
-0.0703858 0.0193713 0.915039
-0.069466 0.0186923 0.917667
-0.0684111 0.0181017 0.91986
-0.20564 0.0380674 0.89175
-0.203975 0.0378417 0.892105
-0.202174 0.037674 0.892156
-0.20009 0.0376264 0.891569
-0.197961 0.0376 0.890871
-0.195879 0.0375555 0.890269
-0.193814 0.037506 0.889693
-0.191976 0.0373627 0.889622
-0.190324 0.0371401 0.889974
-0.18874 0.0368882 0.89048
-0.187236 0.0366023 0.891167
-0.185885 0.0362482 0.892214
-0.18446 0.0359254 0.893091
-0.18321 0.0355249 0.894381
-0.182015 0.0350986 0.895807
-0.180858 0.0346537 0.897331
-0.179649 0.0342295 0.89874
-0.178552 0.0337537 0.900424
-0.177311 0.0333404 0.901773
-0.176143 0.032891 0.903307
-0.174934 0.0324609 0.90475
-0.173617 0.0320767 0.905938
-0.172173 0.0317516 0.906823
-0.151617 0.0335187 0.891134
-0.149694 0.0334477 0.89071
-0.147731 0.0333987 0.890173
-0.145559 0.0334557 0.889088
-0.143094 0.0336639 0.887224
-0.140639 0.0338719 0.885366
-0.138262 0.0340451 0.883685
-0.135973 0.0341802 0.882212
-0.133781 0.0342692 0.880977
-0.131823 0.034243 0.880343
-0.129949 0.0341746 0.879925
-0.12815 0.0340707 0.879696
-0.126311 0.033989 0.879352
-0.124505 0.0338923 0.879088
-0.122703 0.0337949 0.878825
-0.120849 0.0337283 0.878412
-0.119092 0.0336113 0.878255
-0.117372 0.0334748 0.878196
-0.11563 0.0333535 0.878066
-0.11386 0.0332486 0.877852
-0.112245 0.0330595 0.878067
-0.110571 0.0329048 0.878111
-0.108974 0.0327081 0.878367
-0.107414 0.0324901 0.878729
-0.105854 0.0322743 0.879087
-0.104291 0.0320606 0.879432
-0.102727 0.0318472 0.879775
-0.101168 0.0316321 0.880129
-0.0996127 0.0314143 0.880493
-0.0980877 0.0311802 0.880944
-0.0965622 0.0309464 0.881393
-0.0950384 0.0307113 0.881845
-0.0935458 0.0304585 0.882389
-0.0920838 0.0301877 0.883028
-0.0906517 0.0298981 0.883757
-0.0892829 0.0295698 0.884682
-0.0878284 0.0292928 0.885348
-0.0863408 0.0290362 0.885914
-0.0847788 0.028825 0.886248
-0.0832425 0.0285981 0.886659
-0.081685 0.0283854 0.887003
-0.0802855 0.0280739 0.887844
-0.0788957 0.0277548 0.888719
-0.0776192 0.0273624 0.889962
-0.0764528 0.0268978 0.891568
-0.0755011 0.0262913 0.893882
-0.0745738 0.0256651 0.896298
-0.07388 0.0248791 0.899501
-0.0732897 0.0240188 0.903079
-0.0726758 0.0231654 0.906615
-0.0718869 0.0224203 0.909603
-0.0711297 0.0216474 0.912727
-0.0702138 0.0209751 0.915346
-0.0692943 0.0202996 0.917979
-0.0682105 0.0197317 0.920075
-0.206554 0.040181 0.890401
-0.204847 0.0399741 0.890659
-0.203164 0.0397573 0.89097
-0.201333 0.0396023 0.890948
-0.199217 0.0395666 0.890283
-0.197151 0.0395127 0.889718
-0.195168 0.0394267 0.889332
-0.193197 0.0393371 0.888963
-0.191399 0.0391766 0.888981
-0.189752 0.0389519 0.889339
-0.188161 0.0387034 0.889825
-0.186618 0.0384354 0.890419
-0.185182 0.03812 0.891264
-0.183713 0.0378191 0.892032
-0.182381 0.0374571 0.893125
-0.18114 0.0370543 0.894436
-0.179945 0.0366288 0.895863
-0.178783 0.0361875 0.897377
-0.177778 0.0356736 0.899275
-0.176667 0.0352042 0.900931
-0.175596 0.0347145 0.902695
-0.174467 0.0342496 0.904328
-0.173158 0.0338634 0.905533
-0.171708 0.0335416 0.9064
-0.151778 0.0349777 0.892262
-0.149865 0.0348985 0.891867
-0.147872 0.0348609 0.891259
-0.145682 0.034924 0.890128
-0.143205 0.0351327 0.888238
-0.140743 0.0353388 0.886361
-0.13833 0.0355259 0.884589
-0.136002 0.0356768 0.883015
-0.133804 0.0357645 0.881767
-0.131803 0.0357578 0.881021
-0.129861 0.0357227 0.880422
-0.128058 0.0356184 0.880183
-0.12625 0.0355189 0.879923
-0.12441 0.0354383 0.879569
-0.122574 0.0353573 0.879213
-0.120715 0.0352906 0.878787
-0.118888 0.0352089 0.878439
-0.117131 0.0350928 0.878275
-0.115352 0.0349898 0.878043
-0.113547 0.034902 0.877727
-0.111894 0.0347337 0.877834
-0.110221 0.0345782 0.877877
-0.108592 0.0343992 0.878042
-0.107065 0.0341638 0.878494
-0.105541 0.0339279 0.878952
-0.104015 0.0336926 0.879404
-0.102488 0.0334586 0.879853
-0.100962 0.0332244 0.880303
-0.099439 0.0329878 0.880761
-0.0979458 0.0327348 0.881306
-0.0964525 0.0324818 0.881852
-0.0949592 0.0322289 0.882397
-0.0934659 0.0319759 0.882942
-0.0919727 0.0317229 0.883487
-0.0905107 0.0314519 0.884128
-0.0891139 0.0311408 0.884969
-0.0876325 0.0308798 0.885553
-0.0861453 0.0306232 0.886119
-0.0846397 0.0303768 0.886629
-0.0831332 0.0301317 0.887135
-0.0816081 0.0298981 0.887582
-0.0802673 0.0295493 0.888612
-0.0789344 0.0291948 0.889673
-0.0776887 0.0287833 0.891019
-0.0765851 0.0282785 0.892833
-0.0756657 0.027653 0.895261
-0.0747688 0.0270082 0.897784
-0.0740762 0.0262247 0.901002
-0.073427 0.0254053 0.904396
-0.0727209 0.0246157 0.907635
-0.0718918 0.0239004 0.910496
-0.0710745 0.0231706 0.913425
-0.0701325 0.0225187 0.915961
-0.0691839 0.0218656 0.918499
-0.0680922 0.0213044 0.920572
-0.207036 0.0424638 0.88811
-0.205532 0.0421755 0.888811
-0.203901 0.0419386 0.88923
-0.202221 0.0417213 0.88954
-0.200404 0.0415614 0.88954
-0.198386 0.0414857 0.889086
-0.196418 0.0413903 0.888737
-0.194497 0.0412775 0.888484
-0.192577 0.0411667 0.888225
-0.19079 0.0410002 0.888264
-0.189144 0.0407768 0.888618
-0.187513 0.0405464 0.889009
-0.185966 0.0402805 0.889589
-0.184492 0.0399831 0.890341
-0.182981 0.0397018 0.891007
-0.181599 0.0393637 0.891976
-0.180312 0.0389832 0.893175
-0.179117 0.0385614 0.894597
-0.17804 0.0380853 0.896305
-0.17709 0.0375507 0.898329
-0.176062 0.0370474 0.90018
-0.175113 0.0365055 0.902234
-0.174069 0.0360037 0.904071
-0.172779 0.0356117 0.905321
-0.171419 0.0352499 0.906408
-0.151979 0.0364198 0.893493
-0.150132 0.0363067 0.893273
-0.14818 0.0362457 0.892774
-0.145952 0.0363225 0.891551
-0.143432 0.0365472 0.889554
-0.14089 0.0367877 0.887472
-0.1384 0.0370083 0.885499
-0.135963 0.0372082 0.883643
-0.133753 0.0372992 0.88236
-0.131742 0.037294 0.881591
