ply
format ascii 1.0
element vertex 1634
property float x
property float y
property float z
end_header
-0.091725 -0.144321 0.743933
-0.0898896 -0.144067 0.742498
-0.0881088 -0.143779 0.741349
-0.0863499 -0.143481 0.740303
-0.0845886 -0.143188 0.739217
-0.082897 -0.14285 0.738525
-0.0812864 -0.142456 0.738308
-0.0797154 -0.142033 0.738326
-0.0781689 -0.141592 0.738491
-0.0766248 -0.14115 0.738669
-0.0750746 -0.140713 0.738808
-0.0734915 -0.140302 0.738732
-0.0718797 -0.139915 0.738464
-0.0702558 -0.13954 0.738104
-0.0686453 -0.139156 0.737821
-0.0670194 -0.138787 0.737422
-0.0653958 -0.138418 0.737024
-0.063817 -0.138014 0.73692
-0.062258 -0.137593 0.736946
-0.0607333 -0.137142 0.737204
-0.0592909 -0.136618 0.738052
-0.0578813 -0.13606 0.739144
-0.0564595 -0.135511 0.740173
-0.0550457 -0.134952 0.741278
-0.0536235 -0.134397 0.742341
-0.0521328 -0.133905 0.742907
-0.0506396 -0.133414 0.743463
-0.0491467 -0.132922 0.744029
-0.0476437 -0.132439 0.744522
-0.046138 -0.131957 0.745004
-0.0446296 -0.131477 0.745467
-0.0431063 -0.131013 0.745816
-0.0415705 -0.130561 0.746063
-0.0400938 -0.130044 0.746807
-0.0386572 -0.12948 0.747904
-0.0372373 -0.128892 0.74917
-0.0358484 -0.128263 0.750734
-0.0344727 -0.127613 0.752456
-0.0330492 -0.127012 0.753788
-0.0315759 -0.126469 0.754701
-0.0300734 -0.125958 0.755362
-0.0284914 -0.125547 0.755287
-0.0268517 -0.125213 0.754653
-0.0251708 -0.124939 0.75359
-0.0234726 -0.124695 0.752314
-0.0217808 -0.12445 0.751052
-0.020116 -0.124175 0.750015
-0.0184677 -0.123885 0.749107
-0.0168418 -0.123567 0.748395
-0.015211 -0.123262 0.747596
-0.0135822 -0.122961 0.746785
-0.0119381 -0.122689 0.745764
-0.0110468 -0.121227 0.753206
-0.147026 -0.152375 0.774117
-0.145405 -0.151909 0.774317
-0.143685 -0.151491 0.774068
-0.141986 -0.151065 0.773907
-0.140184 -0.150689 0.773267
-0.138387 -0.150315 0.772636
-0.136637 -0.149917 0.77221
-0.134862 -0.149536 0.771656
-0.133069 -0.149165 0.771004
-0.131304 -0.148783 0.770469
-0.129586 -0.148378 0.77015
-0.1279 -0.147956 0.769976
-0.126237 -0.147524 0.769903
-0.124573 -0.147092 0.769826
-0.122802 -0.146722 0.769208
-0.121064 -0.146336 0.768743
-0.119289 -0.145972 0.768078
-0.117485 -0.145628 0.767245
-0.115603 -0.145333 0.765997
-0.113771 -0.145012 0.764984
-0.111862 -0.144743 0.76354
-0.109906 -0.144506 0.76182
-0.107956 -0.144272 0.760097
-0.106007 -0.144042 0.758347
-0.103968 -0.143876 0.756069
-0.101914 -0.143727 0.753666
-0.0998186 -0.143614 0.750981
-0.0977164 -0.143514 0.748204
-0.0956805 -0.14338 0.745745
-0.0937481 -0.143183 0.743821
-0.0918529 -0.142968 0.742071
-0.0900397 -0.142702 0.740755
-0.0882974 -0.142392 0.739823
-0.0865798 -0.142068 0.739014
-0.0848695 -0.141742 0.738229
-0.0832133 -0.141379 0.737746
-0.0816053 -0.140984 0.737543
-0.0800197 -0.140573 0.737468
-0.0784692 -0.140135 0.737605
-0.0769071 -0.139708 0.737666
-0.0753273 -0.139295 0.737612
-0.0737292 -0.138898 0.737435
-0.072101 -0.138527 0.737053
-0.0704445 -0.138181 0.736472
-0.068805 -0.137824 0.735984
-0.0671663 -0.137469 0.735487
-0.0655296 -0.137115 0.734986
-0.0639533 -0.136711 0.734882
-0.0623981 -0.136291 0.734916
-0.0608892 -0.135829 0.735269
-0.0594645 -0.13529 0.736221
-0.0580715 -0.134719 0.737415
-0.056668 -0.134155 0.738559
-0.0552722 -0.133579 0.739778
-0.0538655 -0.13301 0.740941
-0.0523897 -0.132505 0.741606
-0.0509106 -0.132002 0.742258
-0.0494309 -0.131497 0.742915
-0.0479394 -0.131003 0.743491
-0.0464245 -0.130532 0.74389
-0.044905 -0.130066 0.744256
-0.0433818 -0.129603 0.744596
-0.0418471 -0.129152 0.744843
-0.0403619 -0.128645 0.745502
-0.0389143 -0.128094 0.746493
-0.0374814 -0.127523 0.747629
-0.0360911 -0.126897 0.749162
-0.0347432 -0.126214 0.751105
-0.0333588 -0.125566 0.752772
-0.0319479 -0.124946 0.75424
-0.0304922 -0.124375 0.755332
-0.0289417 -0.123923 0.755562
-0.0273224 -0.123562 0.755136
-0.0256504 -0.123274 0.754179
-0.0239497 -0.123032 0.752903
-0.0222556 -0.122789 0.751641
-0.0205763 -0.122533 0.750481
-0.0189057 -0.122273 0.749363
-0.017268 -0.121972 0.748545
-0.0156266 -0.121683 0.747648
-0.0139964 -0.121382 0.746836
-0.0131309 -0.119888 0.754438
-0.148775 -0.151382 0.772291
-0.147232 -0.150881 0.772833
-0.145626 -0.150409 0.773091
-0.143937 -0.149977 0.772979
-0.142272 -0.149535 0.772964
-0.140521 -0.149136 0.772559
-0.138775 -0.148736 0.772162
-0.137073 -0.148316 0.771961
-0.135322 -0.147923 0.771526
-0.133553 -0.147541 0.770992
-0.13181 -0.147146 0.770565
-0.130091 -0.146742 0.770245
-0.1284 -0.146323 0.770053
-0.126758 -0.145878 0.770095
-0.125118 -0.145433 0.770136
-0.123386 -0.145041 0.769725
-0.12169 -0.14463 0.769475
-0.11993 -0.144257 0.768896
-0.118082 -0.143939 0.767859
-0.11615 -0.143674 0.766366
-0.11425 -0.143394 0.765009
-0.112257 -0.143177 0.76314
-0.11024 -0.142981 0.761106
-0.108251 -0.142774 0.759178
-0.106279 -0.142563 0.7573
-0.104222 -0.142413 0.754929
-0.102154 -0.142277 0.752446
-0.100043 -0.142179 0.749678
-0.097922 -0.142097 0.746802
-0.0958482 -0.141993 0.744128
-0.0938945 -0.141816 0.742079
-0.0920179 -0.141592 0.740426
-0.0902264 -0.141316 0.73923
-0.0885212 -0.140982 0.738508
-0.0868543 -0.140624 0.737992
-0.0851764 -0.140277 0.737395
-0.0835392 -0.139902 0.737027
-0.0819373 -0.139503 0.736859
-0.0803371 -0.139104 0.736694
-0.0787403 -0.138703 0.736542
-0.0771434 -0.138304 0.73638
-0.0755308 -0.137919 0.736111
-0.0739008 -0.13755 0.735718
-0.0722562 -0.137195 0.735219
-0.070598 -0.136854 0.734615
-0.0689569 -0.136502 0.734106
-0.0673219 -0.136147 0.733619
-0.0657049 -0.13578 0.733238
-0.0641334 -0.135375 0.733153
-0.0625814 -0.134954 0.733196
-0.0610897 -0.134479 0.733653
-0.0596834 -0.133925 0.734717
-0.0583075 -0.133339 0.736022
-0.056933 -0.132748 0.73736
-0.05555 -0.13216 0.73866
-0.0541334 -0.131601 0.739738
-0.052659 -0.131095 0.740405
-0.0511827 -0.13059 0.741066
-0.0497049 -0.130085 0.741729
-0.0482141 -0.129591 0.742298
-0.0466952 -0.129126 0.742657
-0.0451609 -0.128677 0.742895
-0.0436259 -0.128229 0.743125
-0.0420928 -0.127778 0.743372
-0.0406099 -0.127271 0.744036
-0.0391523 -0.126733 0.744925
-0.0377066 -0.126178 0.745934
-0.0363252 -0.125543 0.747522
-0.0349917 -0.124843 0.749568
-0.0336398 -0.124157 0.751505
-0.0322921 -0.123457 0.753528
-0.0308962 -0.122811 0.755163
-0.0293915 -0.122298 0.755825
-0.0278057 -0.121891 0.755729
-0.0261744 -0.121547 0.755186
-0.0244736 -0.121303 0.75394
-0.0227644 -0.121078 0.752559
-0.0210601 -0.120856 0.751176
-0.0193546 -0.120645 0.749725
-0.0176856 -0.120389 0.748599
-0.0168246 -0.118915 0.756005
-0.150242 -0.15192 0.771428
-0.151798 -0.152414 0.770955
-0.152146 -0.150854 0.770306
-0.150557 -0.150375 0.770633
-0.14903 -0.149866 0.771232
-0.147474 -0.14937 0.771705
-0.145864 -0.148901 0.771944
-0.144198 -0.148459 0.771929
-0.142559 -0.148006 0.772032
-0.14088 -0.147571 0.771948
-0.139184 -0.147147 0.771787
-0.13753 -0.146703 0.771811
-0.135808 -0.146294 0.771512
-0.134061 -0.145901 0.771086
-0.132312 -0.145511 0.77064
-0.130592 -0.145106 0.770321
-0.1289 -0.144688 0.770129
-0.127277 -0.144232 0.770269
-0.125662 -0.143772 0.770438
-0.123957 -0.143364 0.770167
-0.122286 -0.142938 0.770052
-0.120546 -0.142553 0.769587
-0.118671 -0.142251 0.768424
-0.116727 -0.141994 0.766885
-0.114738 -0.14177 0.765084
-0.112673 -0.141599 0.762847
-0.110567 -0.141461 0.760354
-0.108513 -0.141299 0.758086
-0.106472 -0.141135 0.75584
-0.104435 -0.140977 0.753577
-0.102354 -0.140856 0.75102
-0.100243 -0.140763 0.748251
-0.0981202 -0.140687 0.745362
-0.0960416 -0.140592 0.742661
-0.0940731 -0.14043 0.740526
-0.0921987 -0.14021 0.738881
-0.0904276 -0.139922 0.737795
-0.088745 -0.139574 0.737196
-0.0870956 -0.139206 0.736778
-0.0854543 -0.138834 0.736392
-0.0838511 -0.138436 0.736225
-0.0822528 -0.138034 0.736076
-0.0806374 -0.137648 0.735817
-0.0790061 -0.137276 0.735448
-0.0773569 -0.13692 0.734955
-0.0756969 -0.136576 0.734379
-0.0740364 -0.136234 0.733781
-0.0723765 -0.135896 0.73317
-0.070734 -0.135546 0.732654
-0.0691108 -0.135182 0.732248
-0.0674952 -0.134815 0.731878
-0.0659117 -0.134421 0.731709
-0.0643734 -0.133989 0.731839
-0.0628386 -0.133554 0.731991
-0.0613492 -0.133078 0.732454
-0.0599442 -0.132523 0.733519
-0.0585585 -0.131947 0.734738
-0.057185 -0.131355 0.736071
-0.0557904 -0.130779 0.737273
-0.0543852 -0.130209 0.738422
-0.0529377 -0.129679 0.739279
-0.0514792 -0.129156 0.740065
-0.0499932 -0.12866 0.740656
-0.0485015 -0.128168 0.74121
-0.0469551 -0.127733 0.741344
-0.0453815 -0.127328 0.741257
-0.0438201 -0.126912 0.741261
-0.0422885 -0.126463 0.7415
-0.040799 -0.125966 0.74209
-0.039333 -0.12544 0.742887
-0.037886 -0.12489 0.743859
-0.0365161 -0.124243 0.745519
-0.0352083 -0.123514 0.747761
-0.0338981 -0.122777 0.75004
-0.0326136 -0.121998 0.752614
-0.0312786 -0.121273 0.754794
-0.0298326 -0.120683 0.756001
-0.0282925 -0.120213 0.756348
-0.0267061 -0.119806 0.756257
-0.0250159 -0.119545 0.755144
-0.0232823 -0.119352 0.753558
-0.0223766 -0.117978 0.760234
-0.153869 -0.149872 0.768416
-0.152376 -0.149349 0.769151
-0.150816 -0.148857 0.769594
-0.14929 -0.148347 0.770193
-0.147737 -0.147852 0.770676
-0.146154 -0.14737 0.771031
-0.144504 -0.14692 0.771085
-0.142893 -0.146453 0.771314
-0.14124 -0.146007 0.771348
-0.139591 -0.145559 0.771401
-0.137965 -0.145099 0.771552
-0.136244 -0.144691 0.771264
-0.134519 -0.144286 0.770945
-0.13279 -0.143885 0.770598
-0.131087 -0.143473 0.770367
-0.129398 -0.143052 0.770195
-0.127801 -0.14258 0.770461
-0.126182 -0.142123 0.770621
-0.124502 -0.141699 0.770478
-0.122854 -0.141259 0.770491
-0.121165 -0.140844 0.770288
-0.119349 -0.140506 0.769438
-0.117482 -0.140203 0.768309
-0.115387 -0.140045 0.765979
-0.113205 -0.139947 0.763156
-0.110961 -0.1399 0.759952
-0.108758 -0.139835 0.756908
-0.106582 -0.139764 0.753941
-0.104567 -0.139597 0.751789
-0.102491 -0.139478 0.749258
-0.100397 -0.13938 0.746579
-0.098292 -0.139298 0.743782
-0.0962151 -0.139208 0.741088
-0.0942494 -0.139049 0.738964
-0.0923971 -0.138817 0.737441
-0.090647 -0.138517 0.736469
-0.0889855 -0.138157 0.735987
-0.0873566 -0.137776 0.735684
-0.0857356 -0.137391 0.735415
-0.0841506 -0.13698 0.735351
-0.0825535 -0.136579 0.735207
-0.0809207 -0.136208 0.734839
-0.0792659 -0.135855 0.734321
-0.0775955 -0.135519 0.733692
-0.0758995 -0.135205 0.732884
-0.0742268 -0.134878 0.732202
-0.0725722 -0.134537 0.731615
-0.0709339 -0.134187 0.731116
-0.0693307 -0.133809 0.730831
-0.0677487 -0.133414 0.730673
-0.0661854 -0.133005 0.730635
-0.0646641 -0.132559 0.730873
-0.0631432 -0.132113 0.731115
-0.0616523 -0.131639 0.731563
-0.0602207 -0.131109 0.732434
-0.058808 -0.130558 0.733452
-0.0574207 -0.12998 0.734672
-0.0560003 -0.129429 0.735672
-0.0545706 -0.128885 0.736624
-0.0531375 -0.128342 0.73757
-0.0517072 -0.127793 0.738551
-0.0502039 -0.127317 0.738997
-0.048714 -0.126825 0.739548
-0.0471648 -0.126396 0.739643
-0.0455639 -0.126025 0.739327
-0.0439809 -0.125635 0.739138
-0.0424738 -0.125163 0.739557
-0.0409752 -0.12468 0.740049
-0.0395131 -0.124152 0.740852
-0.0380682 -0.123602 0.741821
-0.036713 -0.122939 0.743576
-0.0354324 -0.122178 0.74603
-0.0341721 -0.12138 0.748724
-0.0329373 -0.120538 0.751721
-0.0316621 -0.119734 0.754433
-0.0302746 -0.119065 0.756179
-0.0287823 -0.118529 0.756987
-0.0272316 -0.118071 0.757253
-0.0255613 -0.117779 0.756361
-0.0246477 -0.116417 0.762887
-0.154107 -0.148365 0.7673
-0.15258 -0.147859 0.767879
-0.151038 -0.147359 0.7684
-0.149518 -0.146848 0.769018
-0.14799 -0.14634 0.769608
-0.146437 -0.145843 0.77009
-0.144834 -0.145372 0.770348
-0.143251 -0.144889 0.770704
-0.141622 -0.144432 0.770845
-0.139997 -0.143971 0.771006
-0.138393 -0.1435 0.771264
-0.136676 -0.14309 0.770995
-0.134971 -0.142674 0.770775
-0.133282 -0.142252 0.770623
-0.131587 -0.141834 0.770432
-0.129901 -0.141412 0.770279
-0.128345 -0.140916 0.770751
-0.126723 -0.14046 0.770902
-0.125061 -0.140025 0.770857
-0.123436 -0.139571 0.770987
-0.12177 -0.13914 0.770912
-0.119976 -0.138789 0.770181
-0.118154 -0.138458 0.769299
-0.116001 -0.138337 0.766692
-0.113634 -0.13836 0.762925
-0.111171 -0.138455 0.758593
-0.108756 -0.138534 0.754426
-0.106537 -0.138498 0.751222
-0.104544 -0.138323 0.749173
-0.102524 -0.138174 0.746937
-0.100474 -0.138053 0.744488
-0.0984097 -0.13795 0.741909
-0.0963586 -0.137848 0.739354
-0.0944148 -0.137678 0.737348
-0.0925983 -0.137424 0.73602
-0.0908661 -0.137115 0.735146
-0.0892416 -0.13673 0.734872
-0.0876527 -0.136321 0.734797
-0.0860668 -0.135911 0.734733
-0.0845 -0.135486 0.734775
-0.0829011 -0.135088 0.734622
-0.0812504 -0.134731 0.734145
-0.0795599 -0.134409 0.733409
-0.0778691 -0.134091 0.732652
-0.0761572 -0.133793 0.73174
-0.074487 -0.133465 0.731068
-0.0728373 -0.133124 0.730509
-0.0712191 -0.132758 0.730134
-0.0696187 -0.132379 0.729865
-0.0680673 -0.131959 0.729906
-0.0665359 -0.131522 0.730077
-0.065018 -0.131073 0.730337
-0.0634967 -0.130628 0.730576
-0.0620011 -0.130158 0.730991
-0.060524 -0.12967 0.73154
-0.0590798 -0.129149 0.732327
-0.0576778 -0.128585 0.73343
-0.0562303 -0.128063 0.734226
-0.0547759 -0.127546 0.734982
-0.0533424 -0.127004 0.735906
-0.0518918 -0.126477 0.736718
-0.0503785 -0.126014 0.737069
-0.0488905 -0.125524 0.737618
-0.0473415 -0.125098 0.737697
-0.0457322 -0.12474 0.737296
-0.0441504 -0.124353 0.737096
-0.0426589 -0.123866 0.737619
-0.0411626 -0.123383 0.738111
-0.0397141 -0.122843 0.739006
-0.0382956 -0.122263 0.740173
-0.0369563 -0.121583 0.742046
-0.0356935 -0.1208 0.744631
-0.0344708 -0.119954 0.747633
-0.0332733 -0.119062 0.750943
-0.0320348 -0.118208 0.753973
-0.0307057 -0.11746 0.756252
-0.0292597 -0.11686 0.757499
-0.0277534 -0.116337 0.758202
-0.0261229 -0.115987 0.757722
-0.155841 -0.14738 0.765491
-0.154292 -0.146887 0.765962
-0.15278 -0.146374 0.766599
-0.151262 -0.145863 0.767217
-0.149719 -0.145363 0.767728
-0.148173 -0.144865 0.768229
-0.146626 -0.144366 0.76873
-0.14505 -0.143882 0.769105
-0.143493 -0.143387 0.769568
-0.141913 -0.142904 0.769933
-0.140336 -0.142419 0.770308
-0.138756 -0.141935 0.770674
-0.137081 -0.141503 0.7706
-0.135401 -0.141074 0.770497
-0.133738 -0.140638 0.770473
-0.132091 -0.140192 0.770516
-0.13043 -0.139756 0.77049
-0.128876 -0.139258 0.770973
-0.127246 -0.138804 0.771094
-0.125578 -0.138373 0.771019
-0.123939 -0.137926 0.771091
-0.122298 -0.13748 0.771144
-0.120538 -0.137109 0.7706
-0.118774 -0.136742 0.770016
-0.116406 -0.136758 0.766324
-0.113853 -0.136904 0.761613
-0.111217 -0.137119 0.756376
-0.108711 -0.137266 0.751734
-0.106511 -0.137226 0.748621
-0.104557 -0.137031 0.746765
-0.102549 -0.13688 0.744583
-0.100546 -0.136733 0.74238
-0.0985456 -0.136592 0.740146
-0.0965388 -0.136464 0.73783
-0.0946348 -0.136271 0.736043
-0.0928525 -0.135996 0.734907
-0.0911555 -0.135664 0.73423
-0.0895353 -0.135277 0.733978
-0.0879504 -0.134866 0.733923
-0.0863661 -0.134455 0.733864
-0.0847994 -0.134032 0.733904
-0.0831842 -0.133647 0.73365
-0.0815507 -0.133279 0.733274
-0.0798476 -0.132969 0.73246
-0.0781582 -0.132652 0.731708
-0.0764482 -0.132355 0.730808
-0.0747792 -0.132028 0.730142
-0.0731314 -0.131687 0.729592
-0.0715413 -0.131298 0.729397
-0.0699558 -0.130907 0.729221
-0.0684198 -0.130475 0.729364
-0.0669033 -0.130025 0.729633
-0.0653877 -0.129573 0.729909
-0.063865 -0.129129 0.730139
-0.0623538 -0.128674 0.730445
-0.0608446 -0.128217 0.730769
-0.0593681 -0.127727 0.731324
-0.0579479 -0.127181 0.732288
-0.0564741 -0.126685 0.732883
-0.0549946 -0.126194 0.733443
-0.0535477 -0.125668 0.734254
-0.0520806 -0.125161 0.734927
-0.050543 -0.124726 0.735075
-0.0490445 -0.12425 0.735523
-0.0475095 -0.123813 0.735691
-0.0459181 -0.123439 0.735413
-0.0443431 -0.123048 0.735253
-0.0428674 -0.122546 0.735883
-0.0413727 -0.122064 0.73637
-0.0399377 -0.12151 0.737357
-0.0385455 -0.1209 0.738727
-0.0372355 -0.120184 0.740827
-0.0359895 -0.11938 0.743538
-0.0348118 -0.118475 0.746918
-0.0336405 -0.117547 0.750444
-0.0324391 -0.116641 0.753799
-0.0311581 -0.115826 0.756515
-0.0297681 -0.115145 0.75829
-0.0283029 -0.114562 0.759402
-0.0275172 -0.113012 0.767073
-0.15601 -0.145912 0.764095
-0.15447 -0.145414 0.764595
-0.152962 -0.144899 0.765242
-0.151461 -0.14438 0.765927
-0.149942 -0.143869 0.766535
-0.148419 -0.14336 0.767133
-0.146875 -0.142859 0.767644
-0.145302 -0.142374 0.768028
-0.143748 -0.141878 0.7685
-0.142174 -0.141392 0.768885
-0.1406 -0.140907 0.76927
-0.139044 -0.140411 0.769742
-0.137397 -0.139964 0.769796
-0.135765 -0.13951 0.769917
-0.134155 -0.139043 0.770136
-0.132555 -0.138572 0.770404
-0.130918 -0.138121 0.770496
-0.129381 -0.137612 0.771066
-0.127752 -0.137157 0.771197
-0.12607 -0.136734 0.771064
-0.124421 -0.136293 0.771088
-0.122785 -0.135843 0.77117
-0.119376 -0.135033 0.770639
-0.116919 -0.135109 0.766513
-0.108675 -0.135998 0.749098
-0.106525 -0.135932 0.74624
-0.104632 -0.135702 0.7447
-0.102652 -0.135538 0.742656
-0.100693 -0.135366 0.740685
-0.0987368 -0.135199 0.738691
-0.0967722 -0.135046 0.736607
-0.0948898 -0.134841 0.734939
-0.0931288 -0.134554 0.73392
-0.0914348 -0.134221 0.733257
-0.0898149 -0.133836 0.733005
-0.0882303 -0.133425 0.732946
-0.0866449 -0.133017 0.732878
-0.0850778 -0.132595 0.732911
-0.0834802 -0.132198 0.732758
-0.0818654 -0.131817 0.732493
-0.0801834 -0.131491 0.731807
-0.0785149 -0.131158 0.731186
-0.0768196 -0.130851 0.73038
-0.0751643 -0.130514 0.729803
-0.073515 -0.130174 0.729246
-0.0719248 -0.129786 0.729053
-0.0703358 -0.129399 0.728858
-0.0687981 -0.128967 0.728991
-0.0672673 -0.12853 0.729168
-0.0657526 -0.128078 0.729448
-0.0642314 -0.127632 0.729687
-0.0627053 -0.127191 0.729892
-0.0611675 -0.126761 0.730015
-0.0596614 -0.126301 0.730358
-0.0582124 -0.125783 0.73111
-0.0567131 -0.125314 0.731511
-0.0552191 -0.124839 0.731955
-0.0537585 -0.124329 0.732649
-0.0522751 -0.123841 0.733185
-0.0507212 -0.123427 0.733197
-0.0492218 -0.122955 0.733618
-0.0476939 -0.122513 0.733823
-0.0461196 -0.122123 0.733662
-0.0445619 -0.121716 0.733623
-0.0430891 -0.121213 0.734261
-0.0415845 -0.120745 0.734651
-0.0401514 -0.120191 0.735634
-0.0387756 -0.119563 0.737119
-0.0374712 -0.118841 0.739246
-0.036262 -0.11799 0.742248
-0.035132 -0.117023 0.746021
-0.0339968 -0.116046 0.749851
-0.0328357 -0.115083 0.753554
-0.0316017 -0.114202 0.756694
-0.0302468 -0.11347 0.758798
-0.0288047 -0.11285 0.760139
-0.157855 -0.144875 0.762774
-0.156241 -0.144415 0.762963
-0.154658 -0.143938 0.763278
-0.153111 -0.143444 0.763749
-0.151594 -0.142933 0.764356
-0.150072 -0.142426 0.764944
-0.148573 -0.141903 0.765639
-0.147049 -0.141394 0.766227
-0.145502 -0.140896 0.766718
-0.143973 -0.140388 0.767297
-0.142422 -0.139892 0.767779
-0.140853 -0.139403 0.768183
-0.139302 -0.138905 0.768675
-0.137681 -0.138445 0.768845
-0.13608 -0.137973 0.769103
-0.13452 -0.137479 0.769555
-0.132965 -0.136981 0.770038
-0.131373 -0.136504 0.770345
-0.129837 -0.135994 0.770925
-0.12823 -0.135525 0.771163
-0.126545 -0.135104 0.771021
-0.1249 -0.13466 0.771064
-0.123251 -0.134218 0.771088
-0.111023 -0.13465 0.750497
-0.108565 -0.134786 0.746086
-0.106595 -0.134606 0.744161
-0.104731 -0.134361 0.742767
-0.10279 -0.134175 0.740925
-0.100869 -0.133981 0.739159
-0.0989689 -0.13378 0.737465
-0.0970264 -0.133614 0.735502
-0.0952008 -0.133372 0.73415
-0.0934585 -0.133073 0.733236
-0.0917819 -0.132729 0.732674
-0.090146 -0.132356 0.732329
-0.0885568 -0.131951 0.732244
-0.0869509 -0.131559 0.732054
-0.0853505 -0.131164 0.731887
-0.0837541 -0.130768 0.731737
-0.0821594 -0.130372 0.731589
-0.0805147 -0.130018 0.731129
-0.0788817 -0.129656 0.730725
-0.0772327 -0.129311 0.73021
-0.0755919 -0.128962 0.72973
-0.0739391 -0.128626 0.729158
-0.0723334 -0.128251 0.72887
-0.0707293 -0.127878 0.728583
-0.0691751 -0.127461 0.728609
-0.0676285 -0.127038 0.728682
-0.0661111 -0.126588 0.728945
-0.0645905 -0.126142 0.729188
-0.0630667 -0.125699 0.729409
-0.0615175 -0.12528 0.729453
-0.0599976 -0.124833 0.729698
-0.0585074 -0.124357 0.730153
-0.0569787 -0.123919 0.730337
-0.0554598 -0.123471 0.730591
-0.0539733 -0.122989 0.731083
-0.0524647 -0.122529 0.731417
-0.0509217 -0.122107 0.731494
-0.0494243 -0.121635 0.731915
-0.0479125 -0.121178 0.732228
-0.0463666 -0.120759 0.732277
-0.0448354 -0.120325 0.732437
-0.0433629 -0.119822 0.733068
-0.0418581 -0.119356 0.733443
-0.0404243 -0.118804 0.73441
-0.0390605 -0.118162 0.73598
-0.0377501 -0.117447 0.73804
-0.0365441 -0.116591 0.741048
-0.0354496 -0.115577 0.745107
-0.0343309 -0.114574 0.749062
-0.0331901 -0.113582 0.752928
-0.0319833 -0.11266 0.756301
-0.0306627 -0.111879 0.758716
-0.029244 -0.111224 0.76028
-0.159893 -0.143746 0.762268
-0.158179 -0.143334 0.76204
-0.156499 -0.142906 0.761948
-0.154856 -0.142459 0.762006
-0.15328 -0.141981 0.762346
-0.151742 -0.141482 0.762855
-0.150199 -0.140985 0.763345
-0.1487 -0.140466 0.76403
-0.147178 -0.139956 0.764618
-0.145654 -0.139446 0.765206
-0.144154 -0.138924 0.765901
-0.142628 -0.138414 0.766489
-0.141079 -0.137916 0.76698
-0.139552 -0.137405 0.767569
-0.137957 -0.13693 0.767856
-0.136381 -0.136446 0.768231
-0.134847 -0.135937 0.7688
-0.133322 -0.135422 0.769419
-0.131775 -0.134917 0.76994
-0.130264 -0.134392 0.770636
-0.128681 -0.133909 0.770992
-0.127023 -0.133471 0.770987
-0.12539 -0.133018 0.771098
-0.108592 -0.133487 0.743802
-0.106846 -0.133161 0.743045
-0.104973 -0.132925 0.741601
-0.103029 -0.132745 0.739748
-0.101106 -0.132557 0.737964
-0.0992071 -0.132358 0.736276
-0.0972841 -0.132182 0.734421
-0.095496 -0.131916 0.733276
-0.0937909 -0.131591 0.73257
-0.0921329 -0.131234 0.732112
-0.0904941 -0.130865 0.731752
-0.0888845 -0.130475 0.731549
-0.0872763 -0.130086 0.731345
-0.0856421 -0.12972 0.730978
-0.0840454 -0.129325 0.730823
-0.0824826 -0.128903 0.730862
-0.0808575 -0.128535 0.730521
-0.0792292 -0.128171 0.730146
-0.0776125 -0.127799 0.729832
-0.0759864 -0.127438 0.729447
-0.0743371 -0.127099 0.728901
-0.0727464 -0.126712 0.728715
-0.0711412 -0.126339 0.728423
-0.069569 -0.125939 0.728338
-0.0680037 -0.125532 0.728288
-0.06647 -0.125098 0.728444
-0.0649226 -0.124678 0.728506
-0.0633869 -0.124246 0.728642
-0.0618383 -0.123828 0.728688
-0.0603048 -0.123395 0.728834
-0.0587864 -0.122948 0.729087
-0.0572551 -0.122514 0.729244
-0.0557467 -0.122057 0.729568
-0.0542514 -0.121585 0.729988
-0.0527337 -0.121136 0.730247
-0.0512169 -0.120687 0.730511
-0.0497219 -0.120213 0.730944
-0.048201 -0.119768 0.73118
-0.0466694 -0.119334 0.731333
-0.0451495 -0.118888 0.731578
-0.0436539 -0.118413 0.732014
-0.0421473 -0.11795 0.732369
-0.0407114 -0.117401 0.733305
-0.0393603 -0.116743 0.734968
-0.0380622 -0.116013 0.737118
-0.0368588 -0.115151 0.740132
-0.0357781 -0.114116 0.744288
-0.034674 -0.113091 0.748354
-0.0335374 -0.11209 0.752239
-0.0323351 -0.111159 0.755637
-0.0310479 -0.11033 0.758349
-0.0296626 -0.109626 0.760222
-0.162007 -0.14258 0.762072
-0.160228 -0.142198 0.761583
-0.158463 -0.141812 0.761142
-0.156701 -0.141426 0.760698
-0.15497 -0.141026 0.760379
-0.153348 -0.140572 0.760518
-0.151806 -0.140077 0.760999
-0.150246 -0.13959 0.761402
-0.148753 -0.139068 0.7621
-0.147255 -0.138547 0.762785
-0.145738 -0.138036 0.763392
-0.144266 -0.137499 0.764203
-0.142794 -0.13696 0.765024
-0.141293 -0.136436 0.765719
-0.139787 -0.135914 0.766405
-0.138235 -0.135416 0.766877
-0.136657 -0.134934 0.767242
-0.135151 -0.134408 0.767937
-0.133649 -0.133879 0.768663
-0.13213 -0.133359 0.76931
-0.130621 -0.132832 0.770017
-0.129087 -0.132319 0.770607
-0.127455 -0.131865 0.770728
-0.125838 -0.131403 0.770918
-0.110871 -0.132179 0.744882
-0.109093 -0.131871 0.743993
-0.107299 -0.131577 0.742997
-0.105362 -0.131388 0.74122
-0.103378 -0.131239 0.739156
-0.101431 -0.13107 0.737246
-0.0995308 -0.130875 0.735556
-0.0976116 -0.130701 0.733725
-0.0958462 -0.130419 0.732708
-0.0941585 -0.130082 0.7321
-0.0924994 -0.129728 0.73164
-0.0908283 -0.129384 0.731096
-0.0892027 -0.129008 0.7308
-0.0875761 -0.128635 0.730487
-0.0859088 -0.128296 0.729923
-0.0843256 -0.127892 0.729845
-0.0827618 -0.127472 0.729873
-0.081155 -0.12709 0.729639
-0.0795435 -0.126713 0.729366
-0.0779618 -0.126314 0.729266
-0.0763389 -0.12595 0.728901
-0.0747209 -0.125585 0.728555
-0.0731329 -0.125195 0.728386
-0.0715273 -0.124824 0.728098
-0.0699391 -0.124438 0.727908
-0.0683554 -0.124049 0.72774
-0.0668051 -0.123631 0.727784
-0.0652423 -0.123225 0.727741
-0.0636922 -0.122809 0.727779
-0.0621418 -0.122394 0.727808
-0.0605934 -0.121977 0.727845
-0.0590598 -0.121546 0.727982
-0.05754 -0.121101 0.728217
-0.0560459 -0.12063 0.728635
-0.0545554 -0.120154 0.729083
-0.0530672 -0.119675 0.729556
-0.0515657 -0.119209 0.729933
-0.0500606 -0.118747 0.730286
-0.0485402 -0.118301 0.730524
-0.0470204 -0.117855 0.730765
-0.0455009 -0.117408 0.731013
-0.0439938 -0.116947 0.731356
-0.0424863 -0.116485 0.7317
-0.041037 -0.115953 0.732524
-0.0396868 -0.115293 0.734181
-0.0383798 -0.114572 0.736246
-0.0371795 -0.113704 0.739268
-0.0361087 -0.112653 0.743492
-0.0350144 -0.111613 0.747625
-0.033869 -0.11062 0.751413
-0.0326763 -0.109674 0.754881
-0.0314 -0.108827 0.75768
-0.030038 -0.108088 0.759756
-0.163762 -0.142975 0.762455
-0.164116 -0.141417 0.761847
-0.162366 -0.14102 0.761484
-0.160552 -0.140657 0.760849
-0.158711 -0.14031 0.760092
-0.156867 -0.139967 0.759302
-0.155058 -0.139609 0.75865
-0.153381 -0.139185 0.758546
-0.151793 -0.138716 0.758815
-0.150237 -0.138229 0.759226
-0.148749 -0.137707 0.75993
-0.147279 -0.137173 0.760725
-0.14579 -0.136648 0.761441
-0.144349 -0.136094 0.76238
-0.14291 -0.135538 0.763337
-0.141439 -0.134999 0.764159
-0.139935 -0.134476 0.764844
-0.138407 -0.133965 0.765422
-0.136853 -0.13347 0.765884
-0.135371 -0.132931 0.766686
-0.133894 -0.132387 0.767518
-0.1324 -0.131852 0.768282
-0.130903 -0.131319 0.769037
-0.129387 -0.130794 0.769714
-0.127797 -0.130315 0.77003
-0.113078 -0.130919 0.745564
-0.111289 -0.130616 0.744638
-0.109499 -0.130317 0.743688
-0.107696 -0.130032 0.742647
-0.105735 -0.129862 0.74075
-0.103747 -0.129718 0.738671
-0.101796 -0.129556 0.736749
-0.0998927 -0.129366 0.735046
-0.0979762 -0.129192 0.733234
-0.0962116 -0.128911 0.732224
-0.0945264 -0.128574 0.731633
-0.0928671 -0.12822 0.731172
-0.0911948 -0.127879 0.730625
-0.0895689 -0.127504 0.730329
-0.0879422 -0.127131 0.730017
-0.0862577 -0.126807 0.729356
-0.0846727 -0.126405 0.729266
-0.0830918 -0.126001 0.729192
-0.0814851 -0.12562 0.728957
-0.079876 -0.125241 0.728698
-0.078325 -0.124815 0.728784
-0.0767189 -0.124439 0.728526
-0.0751334 -0.124045 0.728388
-0.0735618 -0.123641 0.728328
-0.0719577 -0.123267 0.728054
-0.0703529 -0.122897 0.727764
-0.0687506 -0.122525 0.727478
-0.067183 -0.122124 0.727411
-0.0656044 -0.121733 0.727264
-0.064052 -0.121319 0.727285
-0.0624973 -0.120908 0.727286
-0.0609465 -0.120494 0.727307
-0.0593998 -0.120078 0.727352
-0.0578818 -0.119632 0.727597
-0.0563916 -0.119156 0.72804
-0.054904 -0.118677 0.728508
-0.0534185 -0.118195 0.728997
-0.0519295 -0.117715 0.729465
-0.0504112 -0.117268 0.72972
-0.0488897 -0.116823 0.729947
-0.0473691 -0.116378 0.730183
-0.0458509 -0.11593 0.730436
-0.0443335 -0.115482 0.730699
-0.0428491 -0.114992 0.731225
-0.0414008 -0.114458 0.732053
-0.0400525 -0.113795 0.733723
-0.0387476 -0.113069 0.735798
-0.037547 -0.112198 0.738808
-0.0364543 -0.111172 0.742826
-0.0353464 -0.110145 0.746821
-0.0341755 -0.109185 0.750368
-0.032973 -0.10825 0.753725
-0.0316973 -0.107402 0.756509
-0.0303488 -0.106645 0.758694
-0.164414 -0.139885 0.761006
-0.162638 -0.139504 0.760537
-0.160792 -0.139159 0.759773
-0.158894 -0.138842 0.758772
-0.156998 -0.138529 0.757765
-0.155117 -0.138211 0.756802
-0.153414 -0.137803 0.756579
-0.151799 -0.137349 0.756725
-0.150223 -0.136876 0.757033
-0.148714 -0.136366 0.757637
-0.14727 -0.13582 0.758528
-0.145783 -0.135294 0.759242
-0.144373 -0.134726 0.760302
-0.142963 -0.134155 0.761373
-0.141526 -0.133597 0.762339
-0.140053 -0.133057 0.76315
-0.138573 -0.13252 0.763939
-0.137046 -0.132011 0.764517
-0.135591 -0.131455 0.765435
-0.134138 -0.130898 0.766374
-0.132672 -0.130346 0.767264
-0.131184 -0.129806 0.768057
-0.129684 -0.129273 0.768802
-0.11357 -0.129304 0.745686
-0.111799 -0.128989 0.744862
-0.110017 -0.128686 0.74396
-0.108182 -0.128423 0.742767
-0.106168 -0.128293 0.740599
-0.104157 -0.128168 0.738408
-0.102186 -0.128023 0.736385
-0.100281 -0.127836 0.734679
-0.0983817 -0.127652 0.732966
-0.0966352 -0.12736 0.732062
-0.0949486 -0.127024 0.731469
-0.0933028 -0.12666 0.731089
-0.0916116 -0.126334 0.73044
-0.0899666 -0.125974 0.730038
-0.0883243 -0.125615 0.72964
-0.0866229 -0.125305 0.728883
-0.0850062 -0.12493 0.728606
-0.0834078 -0.124541 0.728427
-0.0817999 -0.124161 0.728183
-0.0801759 -0.123798 0.72783
-0.0786271 -0.123372 0.72793
-0.0770216 -0.122995 0.727672
-0.0754519 -0.122589 0.727629
-0.0738825 -0.122184 0.727583
-0.0722956 -0.121795 0.727415
-0.0707043 -0.121413 0.727214
-0.0691163 -0.121029 0.727022
-0.0675475 -0.120629 0.726948
-0.065968 -0.12024 0.726797
-0.0644155 -0.119826 0.726818
-0.0628609 -0.119415 0.726819
-0.0613098 -0.119002 0.72684
-0.0597645 -0.118584 0.726896
-0.0582489 -0.118135 0.727157
-0.0567613 -0.117657 0.727619
-0.0552865 -0.117163 0.728178
-0.0537991 -0.116683 0.728655
-0.0523083 -0.116205 0.72911
-0.0507868 -0.11576 0.729342
-0.0492633 -0.115318 0.729556
-0.0477291 -0.114889 0.729687
-0.0462242 -0.114425 0.730045
-0.04472 -0.11396 0.730412
-0.0432504 -0.113452 0.731057
-0.0418154 -0.112899 0.731995
-0.0404902 -0.112204 0.733857
-0.0391867 -0.111474 0.735945
-0.0379749 -0.110614 0.738859
-0.036857 -0.109614 0.742653
-0.0357249 -0.108616 0.746429
-0.0345089 -0.107714 0.749563
-0.0332844 -0.106808 0.752706
-0.0319981 -0.105974 0.755375
-0.0306638 -0.105196 0.757675
-0.0297794 -0.104735 0.768275
-0.029284 -0.104472 0.759608
-0.166258 -0.138852 0.759706
-0.16456 -0.138431 0.759557
-0.162797 -0.138045 0.759136
-0.160903 -0.137727 0.758167
-0.159001 -0.137417 0.757148
-0.157085 -0.137116 0.756048
-0.155178 -0.136815 0.75497
-0.153453 -0.136421 0.754645
-0.151838 -0.13597 0.754778
-0.150239 -0.135511 0.754979
-0.148707 -0.135015 0.755472
-0.147262 -0.134471 0.756345
-0.145774 -0.133948 0.75704
-0.144367 -0.133379 0.758097
-0.142984 -0.132794 0.759275
-0.141597 -0.132208 0.760449
-0.140174 -0.131641 0.761476
-0.138767 -0.131062 0.762587
-0.137295 -0.13052 0.763413
-0.135873 -0.129945 0.764477
-0.134444 -0.129373 0.765522
-0.132975 -0.128822 0.766393
-0.131463 -0.128297 0.767069
-0.129935 -0.127781 0.767677
-0.112328 -0.127348 0.745177
-0.11054 -0.127049 0.744259
-0.108658 -0.12682 0.742827
-0.10662 -0.12671 0.740544
-0.104591 -0.126601 0.738269
-0.10262 -0.126458 0.736252
-0.100697 -0.126287 0.734459
-0.0988109 -0.126095 0.732827
-0.0970635 -0.125803 0.731923
-0.0953756 -0.125469 0.731328
-0.0937121 -0.125119 0.730854
-0.0920164 -0.124798 0.730185
-0.0903531 -0.124453 0.729681
-0.0886915 -0.12411 0.729176
-0.0869891 -0.123803 0.728416
-0.085355 -0.123442 0.728037
-0.0837537 -0.123057 0.727842
-0.0821287 -0.122693 0.727497
-0.0804878 -0.122346 0.727042
-0.0789237 -0.121933 0.727043
-0.0773171 -0.121559 0.726776
-0.0757473 -0.121154 0.726729
-0.0741938 -0.120735 0.726778
-0.0726244 -0.120332 0.726722
-0.071052 -0.119932 0.726639
-0.0694786 -0.119535 0.726543
-0.0679107 -0.119135 0.726477
-0.0663334 -0.118744 0.726339
-0.0647833 -0.118328 0.726377
-0.0632325 -0.117914 0.726407
-0.0616838 -0.117499 0.726445
-0.0601522 -0.117066 0.726598
-0.0586494 -0.116604 0.726952
-0.0571597 -0.116127 0.727402
-0.055696 -0.11562 0.728043
-0.0542061 -0.115141 0.728504
-0.0527008 -0.114679 0.728856
-0.0511652 -0.11425 0.728984
-0.04964 -0.113809 0.729187
-0.0480926 -0.113396 0.72922
-0.0466006 -0.112916 0.729676
-0.0451105 -0.112434 0.730154
-0.0436551 -0.111908 0.730916
-0.0422344 -0.111335 0.73197
-0.0409227 -0.11062 0.733944
-0.0396189 -0.109886 0.736029
-0.038406 -0.109023 0.738931
-0.0372658 -0.108049 0.742531
-0.03612 -0.107065 0.746178
-0.0348902 -0.106178 0.749183
-0.0336543 -0.105284 0.752216
-0.0323589 -0.10446 0.75479
-0.0310366 -0.103663 0.75719
-0.0296588 -0.102935 0.759137
-0.166238 -0.13748 0.757594
-0.164585 -0.13704 0.757619
-0.162854 -0.136641 0.757319
-0.160959 -0.136326 0.756339
-0.15904 -0.136028 0.755241
-0.15715 -0.135718 0.754247
-0.155272 -0.135406 0.753281
-0.153525 -0.135026 0.752854
-0.151886 -0.13459 0.752879
-0.150286 -0.134133 0.753067
-0.148732 -0.133651 0.753449
-0.147265 -0.13312 0.754213
-0.145754 -0.132613 0.754797
-0.144342 -0.132048 0.755819
-0.14296 -0.131463 0.756985
-0.141598 -0.130864 0.758254
-0.140205 -0.130281 0.759402
-0.138873 -0.129658 0.76084
-0.137459 -0.129081 0.761922
-0.136085 -0.128479 0.763199
-0.134687 -0.127886 0.764379
-0.133227 -0.127331 0.765288
-0.131698 -0.126817 0.765876
-0.114669 -0.125991 0.746501
-0.1129 -0.125674 0.745712
-0.111112 -0.125375 0.744804
-0.109217 -0.125156 0.743319
-0.107172 -0.125053 0.741013
-0.105136 -0.12495 0.738713
-0.103144 -0.124825 0.736605
-0.101202 -0.124669 0.734716
-0.0993124 -0.124481 0.733079
-0.0975454 -0.124205 0.732077
-0.0958236 -0.123898 0.731304
-0.0941413 -0.123563 0.73073
-0.0924402 -0.123246 0.730035
-0.0907573 -0.122917 0.729426
-0.0890772 -0.12259 0.728818
-0.0873735 -0.122285 0.728053
-0.0857189 -0.121943 0.727558
-0.0840839 -0.121587 0.727166
-0.0824392 -0.121241 0.7267
-0.0807821 -0.120909 0.726147
-0.0792015 -0.120512 0.726044
-0.0775933 -0.120141 0.725762
-0.0760224 -0.119739 0.725703
-0.0744699 -0.119321 0.725755
-0.072918 -0.118902 0.725804
-0.0713644 -0.118486 0.725839
-0.069811 -0.118071 0.72587
-0.0682604 -0.117654 0.725915
-0.0667118 -0.117236 0.72597
-0.0651777 -0.116804 0.726117
-0.0636433 -0.116372 0.72626
-0.0621098 -0.115941 0.726408
-0.0605907 -0.115495 0.726652
-0.0590854 -0.115033 0.726994
-0.0575932 -0.114558 0.727431
-0.0561287 -0.114051 0.728073
-0.0546257 -0.113585 0.728443
-0.0531081 -0.113135 0.728709
-0.0515581 -0.112722 0.728733
-0.0500195 -0.112297 0.728838
-0.0484721 -0.111883 0.728873
-0.0469925 -0.111388 0.729426
-0.0455161 -0.110889 0.730015
-0.0440866 -0.110329 0.730985
-0.0427016 -0.109709 0.732333
-0.041403 -0.108974 0.734418
-0.0401111 -0.108219 0.736606
-0.0389099 -0.107336 0.739613
-0.0377453 -0.106387 0.743006
-0.0365649 -0.105444 0.746354
-0.035309 -0.104589 0.749131
-0.0340606 -0.103709 0.752047
-0.0327451 -0.102911 0.754437
-0.031424 -0.102109 0.75684
-0.0300359 -0.101395 0.758685
-0.167956 -0.13651 0.755813
-0.166279 -0.136083 0.755735
-0.164617 -0.13565 0.755713
-0.162869 -0.135262 0.755336
-0.160956 -0.134961 0.754275
-0.159074 -0.134648 0.75332
-0.157241 -0.134311 0.752557
-0.155417 -0.133973 0.751813
-0.153694 -0.133582 0.751482
-0.152058 -0.133146 0.751513
-0.150455 -0.132692 0.751681
-0.148879 -0.132223 0.751964
-0.147365 -0.13172 0.752514
-0.145831 -0.131227 0.752982
-0.144374 -0.130689 0.753794
-0.142967 -0.13012 0.754838
-0.141585 -0.129534 0.756006
-0.14022 -0.128934 0.757264
-0.138942 -0.12828 0.758928
-0.137602 -0.127659 0.760336
-0.136283 -0.127022 0.761856
-0.13493 -0.126403 0.763237
-0.133476 -0.125844 0.764165
-0.131943 -0.125333 0.764733
-0.11524 -0.124315 0.747014
-0.113475 -0.123996 0.746256
-0.111671 -0.123708 0.745274
-0.109764 -0.123498 0.74374
-0.107711 -0.123402 0.741408
-0.105669 -0.123307 0.739091
-0.103657 -0.123198 0.736887
-0.101692 -0.123061 0.734893
-0.0997985 -0.122877 0.733243
-0.0980084 -0.122619 0.732124
-0.096251 -0.12234 0.731161
-0.0945657 -0.122009 0.730577
-0.0928795 -0.12168 0.729972
-0.0911788 -0.121367 0.729267
-0.0894811 -0.121055 0.728562
-0.087774 -0.120754 0.727785
-0.0860844 -0.120442 0.72709
-0.0844309 -0.120102 0.726588
-0.082768 -0.119773 0.726015
-0.0810931 -0.119459 0.725356
-0.0794944 -0.11908 0.72514
-0.0778865 -0.11871 0.724858
-0.0763009 -0.118322 0.724703
-0.0747645 -0.11789 0.72485
-0.0732297 -0.117456 0.725004
-0.0716939 -0.117025 0.725151
-0.0701581 -0.116593 0.725294
-0.0686229 -0.116161 0.72544
-0.0670891 -0.115729 0.725593
-0.0655693 -0.115282 0.725838
-0.0640496 -0.114836 0.726083
-0.0625298 -0.114389 0.726328
-0.06101 -0.113942 0.726572
-0.0594903 -0.113496 0.726817
-0.0579848 -0.113034 0.727161
-0.0565078 -0.112539 0.727714
-0.0549928 -0.112087 0.727999
-0.0534755 -0.111636 0.728266
-0.0519498 -0.111195 0.728473
-0.050424 -0.110755 0.728677
-0.0488902 -0.110324 0.728819
-0.0474352 -0.109799 0.729568
-0.0459827 -0.109267 0.73035
-0.0445658 -0.108689 0.731427
-0.0432064 -0.108034 0.732991
-0.0419211 -0.107276 0.735192
-0.0406414 -0.1065 0.737491
-0.0394409 -0.105609 0.74051
-0.0382524 -0.104686 0.74371
-0.0370353 -0.103787 0.746747
-0.0357638 -0.102949 0.749389
-0.0344922 -0.102098 0.752101
-0.033167 -0.10131 0.754403
-0.0318352 -0.10052 0.756707
-0.0304443 -0.0998075 0.758526
-0.169415 -0.135668 0.753027
-0.16786 -0.135183 0.753422
-0.166229 -0.134736 0.753517
-0.16457 -0.134304 0.753495
-0.16283 -0.133915 0.753143
-0.160975 -0.133587 0.752307
-0.159151 -0.133247 0.751584
-0.157354 -0.132894 0.750965
-0.15556 -0.132543 0.750338
-0.153844 -0.132152 0.750031
-0.152209 -0.131716 0.750059
-0.150584 -0.131276 0.750125
-0.149006 -0.13081 0.750394
-0.147471 -0.13032 0.750845
-0.145914 -0.129841 0.751204
-0.144429 -0.12932 0.751885
-0.142999 -0.128766 0.752811
-0.141619 -0.128179 0.753972
-0.140303 -0.127552 0.755436
-0.139057 -0.126878 0.757234
-0.137765 -0.126228 0.758847
-0.136515 -0.125548 0.760676
-0.13521 -0.124898 0.762272
-0.133767 -0.124331 0.763246
-0.132285 -0.123787 0.764048
-0.115833 -0.122621 0.747634
-0.114103 -0.122276 0.74706
-0.112318 -0.121975 0.746193
-0.110389 -0.121781 0.744565
-0.108311 -0.121704 0.74212
-0.106225 -0.121643 0.739589
-0.104171 -0.121568 0.737174
-0.102149 -0.121477 0.734884
-0.100247 -0.121301 0.7332
-0.0984509 -0.121049 0.732057
-0.0966736 -0.120787 0.730991
-0.0949695 -0.12047 0.730307
-0.0932991 -0.12013 0.729794
-0.0915821 -0.119831 0.729005
-0.0898702 -0.119531 0.728223
-0.0881759 -0.11922 0.727522
-0.0864844 -0.118911 0.726821
-0.0848135 -0.118587 0.72622
-0.0831331 -0.118274 0.725547
-0.0814398 -0.117978 0.72478
-0.0798089 -0.117628 0.724369
-0.0781856 -0.117274 0.723991
-0.0765862 -0.1169 0.723749
-0.0750517 -0.116467 0.723903
-0.0735319 -0.116021 0.724147
-0.0720121 -0.115574 0.724392
-0.0704924 -0.115128 0.724637
-0.0689727 -0.114681 0.724882
-0.0674529 -0.114235 0.725126
-0.0659331 -0.113788 0.725371
-0.0644134 -0.113342 0.725616
-0.0628936 -0.112895 0.72586
-0.0613738 -0.112448 0.726105
-0.059854 -0.112002 0.72635
-0.058349 -0.111539 0.726696
-0.0568717 -0.111045 0.727246
-0.0553575 -0.110591 0.727537
-0.0538508 -0.110128 0.727882
-0.0523516 -0.109656 0.728286
-0.050841 -0.109197 0.728609
-0.0493351 -0.108733 0.72897
-0.0479057 -0.108173 0.729919
-0.0464784 -0.107608 0.730906
-0.045062 -0.107026 0.732
-0.0437044 -0.106364 0.733584
-0.0424082 -0.105616 0.735705
-0.0411179 -0.10485 0.737924
-0.0399049 -0.103969 0.74084
-0.0387062 -0.103055 0.743953
-0.0374743 -0.102172 0.746863
-0.036199 -0.101335 0.749471
-0.0349247 -0.100483 0.752158
-0.0335889 -0.0997074 0.754366
-0.0322478 -0.0989283 0.756584
-0.0308649 -0.098201 0.758473
-0.0299165 -0.0977647 0.768507
-0.0295074 -0.0974244 0.760653
-0.169341 -0.134333 0.750745
-0.167773 -0.133857 0.751078
-0.166175 -0.133396 0.751289
-0.164509 -0.132971 0.751228
-0.162777 -0.13258 0.750898
-0.161003 -0.132215 0.750382
-0.159232 -0.131849 0.749873
-0.157466 -0.131482 0.749371
-0.155725 -0.131104 0.748963
-0.154014 -0.130712 0.74867
-0.152358 -0.13029 0.7486
-0.150732 -0.129852 0.74866
-0.149132 -0.1294 0.748821
-0.147573 -0.128924 0.749163
-0.145993 -0.128461 0.749414
-0.144485 -0.127955 0.749982
-0.143053 -0.127403 0.750888
-0.141694 -0.126805 0.75213
-0.140387 -0.126173 0.75362
-0.139188 -0.12547 0.755616
-0.137925 -0.124802 0.757351
-0.136702 -0.124103 0.759294
-0.135426 -0.123434 0.761017
-0.134014 -0.122847 0.762124
-0.132541 -0.122299 0.762964
-0.116321 -0.120999 0.747719
-0.114592 -0.120654 0.747157
-0.112826 -0.120339 0.746394
-0.110897 -0.120146 0.744776
-0.108816 -0.120075 0.742329
-0.106724 -0.120021 0.739779
-0.104662 -0.119954 0.737338
-0.102599 -0.119896 0.73484
-0.100674 -0.11974 0.733041
-0.0988563 -0.119506 0.731785
-0.097075 -0.119249 0.730703
-0.0953549 -0.118947 0.729934
-0.0937022 -0.118592 0.729524
-0.0920021 -0.11828 0.728834
-0.0902905 -0.117981 0.728059
-0.0885955 -0.117671 0.727362
-0.0869198 -0.117349 0.726757
-0.085248 -0.117026 0.726158
-0.0835367 -0.116742 0.72531
-0.0818398 -0.116448 0.724523
-0.0801891 -0.116117 0.723998
-0.0785487 -0.115779 0.723517
-0.0769352 -0.11542 0.723191
-0.0754154 -0.114973 0.723436
-0.0738957 -0.114527 0.72368
-0.0723759 -0.11408 0.723925
-0.0708562 -0.113634 0.72417
-0.0693364 -0.113187 0.724414
-0.0678167 -0.112741 0.724659
-0.0662969 -0.112294 0.724904
-0.0647771 -0.111848 0.725148
-0.0632574 -0.111401 0.725393
-0.0617376 -0.110954 0.725638
-0.0602178 -0.110508 0.725883
-0.0587123 -0.110046 0.726226
-0.0572206 -0.109567 0.726671
-0.0557163 -0.109102 0.727031
-0.0542231 -0.108624 0.727475
-0.0527421 -0.108131 0.728013
-0.0512614 -0.107635 0.728562
-0.0497974 -0.107118 0.729245
-0.048382 -0.10654 0.730311
-0.0469669 -0.105956 0.731401
-0.0455635 -0.105354 0.732606
-0.0442053 -0.104689 0.734195
-0.0428835 -0.103969 0.736115
-0.041588 -0.103205 0.738295
-0.0403603 -0.10234 0.741095
-0.0391507 -0.101436 0.744113
-0.0378974 -0.100578 0.74684
-0.0366326 -0.0997218 0.749535
-0.0353457 -0.098884 0.752109
-0.0340104 -0.0981045 0.754319
-0.0326592 -0.097337 0.756444
-0.0312871 -0.0965907 0.758434
-0.0299307 -0.0958093 0.760623
-0.170836 -0.133476 0.748158
-0.169323 -0.132975 0.748694
-0.167755 -0.132501 0.749012
-0.166173 -0.132034 0.749279
-0.164481 -0.131625 0.749103
-0.16276 -0.131232 0.748803
-0.161036 -0.130842 0.748486
-0.159296 -0.130463 0.748094
-0.157558 -0.130083 0.747701
-0.155846 -0.129692 0.747404
-0.154157 -0.12929 0.747197
-0.152476 -0.128884 0.747021
-0.150849 -0.128448 0.747064
-0.149225 -0.128012 0.747119
-0.147646 -0.12755 0.747361
-0.146044 -0.127102 0.747506
-0.144512 -0.126612 0.747959
-0.143057 -0.126074 0.74875
-0.141703 -0.125475 0.749999
-0.1404 -0.12484 0.751494
-0.139209 -0.124132 0.753512
-0.137994 -0.123434 0.755444
-0.136815 -0.122708 0.757574
-0.135554 -0.122029 0.759353
-0.134183 -0.121417 0.76064
-0.132774 -0.120827 0.761767
-0.116769 -0.119405 0.747596
-0.115045 -0.119056 0.747068
-0.113288 -0.118735 0.746355
-0.111377 -0.118531 0.744836
-0.109293 -0.118464 0.742387
-0.107212 -0.118404 0.739911
-0.105148 -0.118341 0.737467
-0.10308 -0.118291 0.73496
-0.101136 -0.118152 0.733066
-0.0992964 -0.117936 0.731702
-0.0974962 -0.117695 0.730523
-0.095759 -0.117408 0.729666
-0.0941066 -0.117053 0.72926
-0.0924235 -0.116728 0.728671
-0.0907275 -0.116416 0.727991
-0.089034 -0.116105 0.727307
-0.0873751 -0.115769 0.726807
-0.0857059 -0.115444 0.726231
-0.0840082 -0.115147 0.72547
-0.0823232 -0.114843 0.724765
-0.0806695 -0.114514 0.72423
-0.0790102 -0.114194 0.723645
-0.0773772 -0.113852 0.723204
-0.0758245 -0.113436 0.723249
-0.074274 -0.113019 0.723304
-0.0727397 -0.112586 0.723458
-0.07122 -0.11214 0.723702
-0.0697002 -0.111693 0.723947
-0.0681805 -0.111247 0.724192
-0.0666607 -0.1108 0.724437
-0.0651409 -0.110353 0.724681
-0.0636211 -0.109907 0.724926
-0.0621014 -0.10946 0.725171
-0.0605816 -0.109014 0.725415
-0.059088 -0.108538 0.725842
-0.0575958 -0.10806 0.726285
-0.0561045 -0.10758 0.726738
-0.0546263 -0.107084 0.727293
-0.0531729 -0.106557 0.728039
-0.0517112 -0.106036 0.728732
-0.0502733 -0.105486 0.729619
-0.0488712 -0.104888 0.730796
-0.0474693 -0.104285 0.731996
-0.0460762 -0.103666 0.733292
-0.0447164 -0.102998 0.734879
-0.0433655 -0.102311 0.736574
-0.0420618 -0.101554 0.738693
-0.0408183 -0.100706 0.741363
-0.039587 -0.0998265 0.744202
-0.0383155 -0.0989891 0.746769
-0.0370507 -0.0981298 0.749464
-0.035764 -0.0972883 0.752033
-0.0344303 -0.0965035 0.754258
-0.0330703 -0.0957458 0.7563
-0.0317014 -0.0949919 0.758317
-0.0303438 -0.0942099 0.760493
-0.172416 -0.132578 0.745929
-0.170938 -0.13206 0.74659
-0.169413 -0.131566 0.74707
-0.167837 -0.131097 0.74735
-0.16629 -0.130614 0.747747
-0.164604 -0.130203 0.747589
-0.162888 -0.12981 0.747306
-0.161171 -0.129418 0.747008
-0.159433 -0.12904 0.746617
-0.157674 -0.128676 0.746133
-0.155961 -0.128287 0.745827
-0.154251 -0.127899 0.745524
-0.152545 -0.127509 0.745236
-0.150893 -0.12709 0.745165
-0.149245 -0.12667 0.745105
-0.147667 -0.12621 0.745344
-0.146088 -0.12575 0.745578
-0.144563 -0.125257 0.746044
-0.143129 -0.124709 0.746919
-0.141799 -0.124095 0.748264
-0.140502 -0.123457 0.749769
-0.139314 -0.122747 0.751786
-0.138144 -0.12202 0.753913
-0.136972 -0.121289 0.756061
-0.135716 -0.120606 0.757852
-0.134354 -0.119988 0.759173
-0.117138 -0.117867 0.747081
-0.115416 -0.117518 0.746568
-0.113676 -0.117184 0.745944
-0.111785 -0.116969 0.744529
-0.109722 -0.116889 0.7422
-0.107662 -0.116816 0.739839
-0.105616 -0.116741 0.737503
-0.103549 -0.116693 0.73501
-0.101603 -0.116557 0.733118
-0.099744 -0.116359 0.731657
-0.0979405 -0.116121 0.730467
-0.0961836 -0.115851 0.729508
-0.094514 -0.115512 0.729013
-0.0928294 -0.115187 0.728417
-0.0911339 -0.114876 0.727745
-0.0894419 -0.114565 0.727076
-0.0877992 -0.114214 0.726673
-0.0861465 -0.113875 0.726199
-0.0844498 -0.113578 0.725452
-0.0827824 -0.113258 0.724858
-0.0811268 -0.112931 0.72432
-0.07948 -0.112598 0.723817
-0.0778283 -0.112274 0.723271
-0.0762557 -0.111876 0.723198
-0.0746849 -0.111478 0.723131
-0.0731324 -0.111064 0.723174
-0.071584 -0.110645 0.723235
-0.0700642 -0.110198 0.72348
-0.0685445 -0.109752 0.723724
-0.0670247 -0.109305 0.723969
-0.0655049 -0.108859 0.724214
-0.0639851 -0.108412 0.724458
-0.0624788 -0.107951 0.724794
-0.06096 -0.107503 0.725047
-0.0594676 -0.107026 0.725484
-0.0579891 -0.106532 0.726025
-0.0565255 -0.106019 0.726679
-0.0550636 -0.105502 0.727355
-0.0536392 -0.104939 0.728318
-0.052201 -0.104388 0.729195
-0.0507618 -0.103836 0.730082
-0.0493591 -0.103235 0.731261
-0.0479549 -0.102632 0.732454
-0.0465624 -0.102008 0.733761
-0.0451771 -0.10137 0.735155
-0.0438101 -0.100701 0.736726
-0.0424798 -0.0999765 0.738631
-0.0412101 -0.0991595 0.74108
-0.039969 -0.0982909 0.74383
-0.0387092 -0.0974349 0.746491
-0.0374582 -0.0965521 0.749295
-0.036184 -0.0956896 0.751972
-0.034863 -0.0948819 0.754304
-0.0334928 -0.0941375 0.756258
-0.0321339 -0.0933643 0.758364
-0.0307647 -0.092597 0.760433
-0.173917 -0.131719 0.743424
-0.172476 -0.131185 0.74421
-0.171004 -0.130665 0.744885
-0.169454 -0.130186 0.74526
-0.167876 -0.12972 0.745522
-0.166321 -0.129242 0.745881
-0.16464 -0.128831 0.745731
-0.162949 -0.128427 0.745542
-0.161253 -0.128027 0.745323
-0.159492 -0.127664 0.74483
-0.157712 -0.127313 0.744251
-0.156002 -0.126927 0.743947
-0.154268 -0.126555 0.743537
-0.152515 -0.126195 0.743038
-0.150861 -0.12578 0.742946
-0.149212 -0.125363 0.742871
-0.147638 -0.124903 0.743117
-0.146069 -0.12444 0.743382
-0.14459 -0.123922 0.744037
-0.143164 -0.12337 0.744931
-0.141858 -0.122742 0.746368
-0.140584 -0.12209 0.747964
-0.1394 -0.121378 0.749985
-0.138231 -0.120649 0.752104
-0.137082 -0.119902 0.754338
-0.135805 -0.119233 0.75602
-0.134445 -0.118614 0.757338
-0.117651 -0.116223 0.747286
-0.11592 -0.115881 0.746727
-0.114123 -0.11559 0.745827
-0.112252 -0.115361 0.744526
-0.110209 -0.115268 0.742307
-0.108155 -0.115193 0.739987
-0.10611 -0.11512 0.737674
-0.104044 -0.115072 0.735197
-0.102061 -0.114968 0.733118
-0.10018 -0.11479 0.731548
-0.0983698 -0.114559 0.730327
-0.0965921 -0.114307 0.72926
-0.0949037 -0.113984 0.728664
-0.0932337 -0.113648 0.728155
-0.0915381 -0.113337 0.727486
-0.0898457 -0.113027 0.726817
-0.0882199 -0.112662 0.726518
-0.0865815 -0.11231 0.726131
-0.0849014 -0.111999 0.725489
-0.0832529 -0.111662 0.725016
-0.0816028 -0.111329 0.724519
-0.0799718 -0.110981 0.724121
-0.0783155 -0.11066 0.723557
-0.0767077 -0.110296 0.723275
-0.0751161 -0.109917 0.723084
-0.073543 -0.109522 0.723001
-0.071962 -0.109136 0.722859
-0.070428 -0.108704 0.723012
-0.0689082 -0.108258 0.723257
-0.0673885 -0.107811 0.723502
-0.0658687 -0.107365 0.723747
-0.0643489 -0.106918 0.723991
-0.062857 -0.106441 0.724426
-0.0613527 -0.105977 0.72478
-0.0598763 -0.105481 0.72533
-0.0584143 -0.104967 0.72599
-0.0569804 -0.104417 0.72686
-0.0555325 -0.103883 0.727645
-0.0541085 -0.103316 0.728616
-0.0526682 -0.102765 0.729484
-0.0512379 -0.102199 0.730444
-0.0498195 -0.101615 0.731512
-0.0484134 -0.101012 0.732696
-0.0470206 -0.100385 0.734007
-0.045623 -0.0997598 0.735308
-0.0442338 -0.0991177 0.736704
