ply
format ascii 1.0
element vertex 1730
property float x
property float y
property float z
end_header
0.361994 -0.133041 0.881774
0.363339 -0.132678 0.880799
0.364593 -0.132364 0.879515
0.365836 -0.132057 0.878202
0.366992 -0.131798 0.876599
0.36812 -0.131553 0.874914
0.36743 -0.134095 0.865543
0.368083 -0.131958 0.869254
0.366457 -0.135071 0.831929
0.366772 -0.135251 0.827875
0.368215 -0.13481 0.827552
0.369913 -0.134231 0.828058
0.371618 -0.133649 0.828574
0.3733 -0.133079 0.829008
0.37506 -0.132468 0.829681
0.376798 -0.13187 0.830273
0.378626 -0.131224 0.831142
0.380463 -0.130574 0.832021
0.382481 -0.129828 0.833456
0.38443 -0.129119 0.834658
0.386386 -0.128408 0.835865
0.281354 -0.153917 0.928306
0.282745 -0.153562 0.927023
0.284077 -0.153247 0.92544
0.285422 -0.152921 0.923951
0.286758 -0.1526 0.922435
0.288094 -0.152277 0.920941
0.289413 -0.151965 0.919375
0.290849 -0.151572 0.918423
0.29231 -0.151162 0.917608
0.293794 -0.150734 0.916917
0.295238 -0.150333 0.916032
0.296631 -0.149966 0.914907
0.297907 -0.149677 0.91322
0.299111 -0.149433 0.911211
0.300134 -0.149307 0.908362
0.301098 -0.149218 0.905273
0.301821 -0.149283 0.90109
0.302544 -0.149345 0.896968
0.303239 -0.14942 0.892775
0.30411 -0.149376 0.889455
0.305019 -0.149305 0.88635
0.306225 -0.14904 0.884634
0.307478 -0.148743 0.883151
0.308584 -0.14854 0.881025
0.309664 -0.14835 0.878815
0.310695 -0.14819 0.876418
0.311702 -0.148042 0.873946
0.312735 -0.147877 0.871616
0.314067 -0.147521 0.870601
0.31535 -0.147195 0.869385
0.316785 -0.146775 0.868828
0.318239 -0.146343 0.868352
0.319652 -0.145935 0.867707
0.32104 -0.145542 0.866964
0.322489 -0.145111 0.866475
0.323894 -0.144708 0.865809
0.325307 -0.144299 0.865183
0.326772 -0.143858 0.864766
0.328261 -0.143403 0.864448
0.32989 -0.142862 0.864689
0.331628 -0.142258 0.86535
0.333408 -0.141629 0.866162
0.335652 -0.140724 0.868765
0.337935 -0.139798 0.871484
0.340081 -0.138956 0.873632
0.342128 -0.138176 0.875369
0.344129 -0.137424 0.876903
0.345867 -0.136829 0.877425
0.347664 -0.1362 0.878152
0.349582 -0.135501 0.879319
0.351495 -0.134807 0.880447
0.353415 -0.13411 0.881582
0.355125 -0.133537 0.881929
0.356779 -0.132997 0.882065
0.358328 -0.132517 0.881817
0.359843 -0.132057 0.881448
0.361248 -0.13166 0.880682
0.362591 -0.131298 0.879708
0.363847 -0.130986 0.87843
0.365089 -0.130681 0.877119
0.366277 -0.130406 0.875629
0.367431 -0.130149 0.874035
0.368044 -0.130197 0.870599
0.368022 -0.132372 0.863571
0.368653 -0.130243 0.867188
0.367954 -0.132786 0.857932
0.369298 -0.130267 0.863934
0.366247 -0.134828 0.83638
0.368078 -0.132457 0.838663
0.367959 -0.132889 0.833131
0.368932 -0.132711 0.831238
0.37049 -0.132209 0.831263
0.372133 -0.131661 0.83156
0.373782 -0.13111 0.831871
0.375462 -0.130541 0.832273
0.377143 -0.129973 0.83267
0.378911 -0.129359 0.833334
0.380719 -0.128723 0.834113
0.382687 -0.128002 0.835376
0.384615 -0.127303 0.836502
0.386548 -0.126602 0.837629
0.278268 -0.154198 0.938276
0.275051 -0.153911 0.932219
0.276465 -0.153546 0.930998
0.278525 -0.154658 0.930662
0.277909 -0.153157 0.929963
0.279964 -0.15427 0.929607
0.279323 -0.15279 0.928775
0.280695 -0.15245 0.927378
0.282066 -0.15211 0.92599
0.283396 -0.151799 0.924402
0.284759 -0.151463 0.923009
0.286098 -0.151141 0.92151
0.287437 -0.150819 0.920031
0.288775 -0.150495 0.918567
0.290209 -0.150104 0.91761
0.291651 -0.149707 0.916699
0.293136 -0.149279 0.916018
0.29458 -0.148879 0.915136
0.295972 -0.148514 0.914005
0.297248 -0.148227 0.912322
0.298429 -0.148002 0.910204
0.299412 -0.147907 0.90716
0.300373 -0.147824 0.904056
0.301262 -0.147787 0.900656
0.30215 -0.147745 0.897302
0.303045 -0.147697 0.894023
0.304144 -0.14751 0.891735
0.305234 -0.147328 0.889432
0.306453 -0.147059 0.887743
0.307753 -0.146736 0.886445
0.308885 -0.14652 0.884407
0.309965 -0.146336 0.882163
0.310982 -0.146192 0.879669
0.311973 -0.146061 0.877093
0.312977 -0.145919 0.874608
0.314241 -0.14561 0.873275
0.315477 -0.145317 0.871836
0.316888 -0.144913 0.871156
0.318301 -0.144508 0.870489
0.31967 -0.14413 0.869641
0.321104 -0.14371 0.869073
0.322581 -0.143265 0.868683
0.324043 -0.142827 0.86823
0.32553 -0.142374 0.867886
0.327018 -0.141922 0.867539
0.328478 -0.141486 0.867083
0.330102 -0.140949 0.867286
0.331846 -0.14034 0.867952
0.333664 -0.139687 0.868894
0.335873 -0.138798 0.871349
0.338108 -0.137897 0.873863
0.340148 -0.137116 0.875592
0.342061 -0.136412 0.876804
0.343915 -0.135746 0.877773
0.345655 -0.135149 0.878293
0.347451 -0.134519 0.879013
0.349321 -0.133847 0.879994
0.351177 -0.133184 0.880906
0.353008 -0.132536 0.881714
0.354603 -0.132029 0.881638
0.356149 -0.131551 0.881383
0.357669 -0.131088 0.881032
0.359132 -0.130659 0.880475
0.360533 -0.130265 0.879704
0.3619 -0.129891 0.878814
0.363153 -0.129581 0.87753
0.364399 -0.129275 0.876231
0.365611 -0.128988 0.874825
0.366793 -0.128717 0.873331
0.367976 -0.128445 0.871854
0.369185 -0.128157 0.870477
0.370425 -0.127849 0.869216
0.368677 -0.131379 0.851121
0.370818 -0.128414 0.859726
0.370238 -0.12913 0.852465
0.369142 -0.130507 0.838391
0.369775 -0.130525 0.835347
0.371115 -0.130146 0.834639
0.372598 -0.129687 0.834397
0.37419 -0.129168 0.834505
0.375788 -0.128644 0.834632
0.377397 -0.128116 0.834783
0.379114 -0.12753 0.835273
0.380899 -0.126904 0.835969
0.382813 -0.126211 0.837056
0.384724 -0.125519 0.838119
0.38663 -0.124831 0.839149
0.27477 -0.153445 0.939866
0.272797 -0.152243 0.94082
0.273049 -0.152752 0.932908
0.274493 -0.152367 0.931843
0.275886 -0.152019 0.930505
0.277327 -0.151634 0.929451
0.27872 -0.151282 0.92815
0.280073 -0.150959 0.926648
0.281406 -0.150649 0.925052
0.282736 -0.150338 0.923472
0.2841 -0.150002 0.922088
0.285442 -0.149682 0.920605
0.286783 -0.14936 0.919136
0.288157 -0.149012 0.917862
0.289594 -0.14862 0.916918
0.291018 -0.148236 0.91592
0.292505 -0.147809 0.915247
0.293947 -0.14741 0.914358
0.295316 -0.147062 0.913121
0.29659 -0.146779 0.911426
0.297727 -0.146587 0.909092
0.298708 -0.146498 0.906041
0.299668 -0.146421 0.902932
0.300665 -0.146316 0.900043
0.301651 -0.146216 0.89714
0.302706 -0.146065 0.894602
0.303941 -0.145792 0.89293
0.305183 -0.145514 0.891307
0.306454 -0.145215 0.889836
0.307739 -0.144903 0.88845
0.308929 -0.144655 0.886646
0.310054 -0.144447 0.884582
0.311088 -0.144298 0.882135
0.312095 -0.144162 0.879607
0.31319 -0.143967 0.877491
0.314421 -0.143683 0.875991
0.315642 -0.143404 0.87446
0.317011 -0.143028 0.873582
0.318403 -0.142639 0.872805
0.319752 -0.142276 0.871852
0.321215 -0.141839 0.871387
0.322708 -0.141385 0.871042
0.32421 -0.140924 0.870738
0.325728 -0.140454 0.870496
0.327231 -0.139993 0.870192
0.328707 -0.139549 0.869781
0.330309 -0.139027 0.869873
0.332078 -0.138401 0.870621
0.333905 -0.137742 0.871583
0.336006 -0.136916 0.873595
0.338094 -0.136099 0.875531
0.340014 -0.135388 0.876785
0.341792 -0.134765 0.877471
0.343518 -0.134174 0.87795
0.345278 -0.133563 0.878545
0.347024 -0.132962 0.879074
0.348864 -0.132305 0.879941
0.350688 -0.131659 0.880738
0.352467 -0.13104 0.88135
0.353986 -0.130579 0.880999
0.355529 -0.130101 0.880733
0.357046 -0.12964 0.880375
0.358482 -0.129226 0.879723
0.35988 -0.128835 0.878942
0.361216 -0.128479 0.877943
0.362466 -0.128174 0.876649
0.36366 -0.1279 0.875171
0.364871 -0.127615 0.873764
0.366055 -0.127345 0.872278
0.367235 -0.127076 0.870792
0.368443 -0.12679 0.869415
0.369675 -0.126489 0.868132
0.371148 -0.127836 0.866222
0.370743 -0.126282 0.866307
0.370785 -0.126661 0.861044
0.370582 -0.127175 0.855023
0.370044 -0.128263 0.842743
0.370406 -0.128442 0.838776
0.371603 -0.128147 0.837578
0.372976 -0.12775 0.83696
0.374489 -0.127276 0.8368
0.376037 -0.126781 0.836747
0.377645 -0.126254 0.836886
0.379316 -0.125692 0.837214
0.38111 -0.125061 0.837927
0.382975 -0.124393 0.838851
0.384826 -0.123732 0.839715
0.386668 -0.123078 0.84054
0.273081 -0.15132 0.951981
0.270008 -0.15093 0.946654
0.27095 -0.150941 0.942528
0.271063 -0.151578 0.933705
0.272492 -0.151205 0.932541
0.273919 -0.150834 0.931379
0.275291 -0.150504 0.929924
0.276729 -0.150122 0.928851
0.278103 -0.149786 0.927447
0.279455 -0.149465 0.925937
0.280789 -0.149158 0.924347
0.282137 -0.148836 0.922862
0.283501 -0.148502 0.921477
0.284846 -0.14818 0.920012
0.286188 -0.14786 0.918547
0.287583 -0.1475 0.917376
0.289021 -0.147109 0.916439
0.290427 -0.146739 0.915348
0.291891 -0.146326 0.914567
0.293309 -0.145946 0.913557
0.294636 -0.145629 0.912109
0.295867 -0.145377 0.910212
0.296981 -0.145204 0.90777
0.297978 -0.14511 0.904795
0.298961 -0.145022 0.901798
0.300007 -0.144889 0.899138
0.301062 -0.144745 0.89656
0.302228 -0.144524 0.894533
0.303534 -0.144205 0.893188
0.304826 -0.143896 0.891787
0.306138 -0.143572 0.890495
0.307446 -0.143249 0.889198
0.308618 -0.143016 0.887307
0.30975 -0.142808 0.88526
0.310852 -0.142617 0.883105
0.311935 -0.142437 0.880893
0.313107 -0.142196 0.879099
0.314414 -0.141865 0.877909
0.315704 -0.141546 0.876658
0.317077 -0.14117 0.875776
0.318471 -0.140781 0.874988
0.319824 -0.140417 0.874034
0.321314 -0.139967 0.873658
0.32284 -0.139492 0.873433
0.324377 -0.139011 0.873256
0.325907 -0.138534 0.873042
0.327419 -0.138068 0.872758
0.328879 -0.137636 0.872259
0.330436 -0.137142 0.872152
0.33214 -0.136558 0.872624
0.333939 -0.135914 0.873464
0.335916 -0.135161 0.874982
0.337871 -0.134423 0.876391
0.3397 -0.133766 0.877286
0.341413 -0.133181 0.877723
0.343037 -0.132652 0.877805
0.344771 -0.132056 0.878301
0.346485 -0.131472 0.878711
0.348269 -0.130846 0.879373
0.350065 -0.130214 0.880069
0.351846 -0.129594 0.880692
0.353393 -0.129113 0.880446
0.354964 -0.12862 0.880286
0.356507 -0.128142 0.88002
0.357916 -0.127746 0.87927
0.359286 -0.127373 0.878386
0.36059 -0.127037 0.877275
0.361812 -0.126749 0.875884
0.363004 -0.126479 0.8744
0.364217 -0.126195 0.873
0.365427 -0.125911 0.871607
0.366608 -0.125643 0.870123
0.367812 -0.125361 0.868735
0.36901 -0.125082 0.867335
0.370064 -0.124885 0.86546
0.3704 -0.125103 0.861186
0.370508 -0.125449 0.856194
0.370265 -0.127748 0.84869
0.37054 -0.125835 0.851002
0.370597 -0.126201 0.845955
0.370889 -0.12643 0.84173
0.371971 -0.126202 0.840136
0.373285 -0.125842 0.839309
0.374745 -0.125398 0.838959
0.376269 -0.124919 0.838816
0.377884 -0.124387 0.838961
0.379529 -0.123839 0.839202
0.38132 -0.123209 0.839892
0.38313 -0.12257 0.840628
0.384915 -0.121945 0.841281
0.267778 -0.150664 0.936488
0.269148 -0.150343 0.934942
0.270525 -0.150014 0.933455
0.271935 -0.149658 0.932175
0.273344 -0.149303 0.930905
0.274716 -0.148974 0.92945
0.276136 -0.148607 0.92828
0.277492 -0.148288 0.926769
0.278845 -0.147969 0.925267
0.280176 -0.147664 0.923666
0.281525 -0.147346 0.922178
0.282907 -0.147 0.920891
0.284254 -0.146679 0.919434
0.285596 -0.146359 0.917972
0.287011 -0.145986 0.916905
0.28845 -0.145595 0.915971
0.289836 -0.14524 0.91478
0.291275 -0.144847 0.913871
0.292663 -0.144489 0.912716
0.293927 -0.144219 0.910955
0.295097 -0.144013 0.908761
0.29619 -0.143859 0.906217
0.297206 -0.143755 0.903337
0.298212 -0.143655 0.900455
0.299305 -0.143493 0.898023
0.300429 -0.143305 0.895773
0.301641 -0.143056 0.893963
0.302973 -0.142722 0.892732
0.304268 -0.142412 0.891346
0.305602 -0.142075 0.890152
0.306932 -0.141739 0.888953
0.308147 -0.14148 0.887253
0.309328 -0.141243 0.885418
0.310498 -0.141011 0.883554
0.311672 -0.140774 0.881734
0.312917 -0.140488 0.880246
0.314279 -0.140124 0.879282
0.315621 -0.139772 0.878242
0.317001 -0.139395 0.877372
0.318377 -0.13902 0.87649
0.31973 -0.138658 0.875525
0.321246 -0.138191 0.875246
0.322798 -0.137701 0.875115
0.324382 -0.13719 0.875115
0.325962 -0.136682 0.875093
0.327507 -0.136197 0.874925
0.328982 -0.135756 0.874469
0.330529 -0.135269 0.874305
0.332184 -0.134715 0.87457
0.333925 -0.134107 0.875164
0.335746 -0.13345 0.876061
0.33754 -0.132812 0.876831
0.339231 -0.132238 0.877191
0.34084 -0.131716 0.877227
0.342371 -0.131243 0.876956
0.34408 -0.13066 0.877366
0.345764 -0.130094 0.877664
0.347514 -0.129487 0.878208
0.349303 -0.128857 0.878882
0.351112 -0.128216 0.879615
0.352717 -0.1277 0.879588
0.354346 -0.127171 0.879642
0.355942 -0.126661 0.879573
0.357351 -0.126265 0.878824
0.358719 -0.125893 0.877932
0.36002 -0.125562 0.876809
0.361242 -0.125276 0.875414
0.362432 -0.125008 0.873923
0.363648 -0.124724 0.872535
0.364856 -0.124444 0.871132
0.366014 -0.124192 0.869568
0.367192 -0.123928 0.868087
0.368363 -0.123666 0.866598
0.369419 -0.123471 0.864729
0.369995 -0.123556 0.861262
0.370355 -0.123764 0.857103
0.370643 -0.12401 0.852752
0.370943 -0.124245 0.848488
0.371431 -0.12437 0.844884
0.372432 -0.124194 0.843003
0.373714 -0.123854 0.842054
0.375122 -0.123442 0.84152
0.376593 -0.122993 0.841189
0.37818 -0.122478 0.841232
0.379799 -0.121944 0.841374
0.381534 -0.121345 0.841874
0.383254 -0.120756 0.842317
0.384949 -0.120181 0.842678
0.266312 -0.151058 0.937496
0.265837 -0.149437 0.937627
0.267275 -0.149068 0.936453
0.268627 -0.148763 0.93479
0.269992 -0.148448 0.933226
0.271361 -0.148125 0.93171
0.27275 -0.147789 0.930324
0.27412 -0.147462 0.92886
0.275538 -0.147098 0.927678
0.276898 -0.146777 0.92619
0.278272 -0.146445 0.924799
0.279623 -0.146127 0.923302
0.280972 -0.14581 0.921814
0.282354 -0.145466 0.920527
0.28372 -0.145133 0.919168
0.285065 -0.144814 0.917715
0.286481 -0.144442 0.916651
0.28792 -0.144052 0.915714
0.289285 -0.143715 0.914412
0.290661 -0.143368 0.913181
0.292021 -0.143032 0.911887
0.293256 -0.142785 0.909982
0.294384 -0.142613 0.907581
0.295476 -0.142462 0.905038
0.296514 -0.142347 0.902269
0.297548 -0.142233 0.899517
0.298649 -0.142068 0.897121
0.299818 -0.141853 0.895084
0.30105 -0.141592 0.893365
0.302385 -0.141258 0.892149
0.30364 -0.140978 0.890577
0.304952 -0.140657 0.889286
0.306239 -0.140352 0.887893
0.307455 -0.140095 0.886198
0.308661 -0.139843 0.884478
0.30992 -0.139552 0.883012
0.311188 -0.139256 0.881604
0.312528 -0.138908 0.88053
0.313963 -0.138496 0.879877
0.315376 -0.138099 0.879134
0.316761 -0.13772 0.878276
0.318137 -0.137347 0.877385
0.319514 -0.136972 0.876507
0.321006 -0.136521 0.876121
0.322536 -0.136044 0.875893
0.324164 -0.135505 0.876063
0.325791 -0.134968 0.876224
0.327371 -0.13446 0.876188
0.3289 -0.133986 0.875942
0.330452 -0.133497 0.875784
0.332031 -0.13299 0.875736
0.333667 -0.132448 0.875905
0.335351 -0.131877 0.876254
0.337013 -0.131319 0.876514
0.338622 -0.130797 0.876555
0.340183 -0.130304 0.876407
0.341691 -0.129845 0.876054
0.343352 -0.129291 0.876283
0.34498 -0.128758 0.876378
0.346667 -0.128187 0.87669
0.348426 -0.127574 0.877261
0.350234 -0.126931 0.878004
0.351926 -0.12636 0.878305
0.353643 -0.125775 0.878686
0.355324 -0.125213 0.878929
0.356787 -0.124784 0.878376
0.358181 -0.124398 0.877578
0.359482 -0.124067 0.876455
0.360704 -0.123784 0.875061
0.361896 -0.123517 0.873573
0.363113 -0.123234 0.872187
0.364325 -0.122953 0.870794
0.365455 -0.122722 0.869131
0.366632 -0.122459 0.867649
0.367806 -0.122198 0.866167
0.36885 -0.122014 0.864254
0.369627 -0.121985 0.861461
0.370277 -0.122029 0.85827
0.37081 -0.12214 0.854722
0.371352 -0.122242 0.851242
0.372061 -0.122244 0.848347
0.37306 -0.122074 0.846433
0.374264 -0.121783 0.845205
0.375612 -0.121407 0.844458
0.377032 -0.120989 0.843946
0.378566 -0.120506 0.843799
0.380073 -0.120037 0.843565
0.381692 -0.119505 0.843685
0.38329 -0.118985 0.843735
0.384867 -0.118477 0.843714
0.263945 -0.148167 0.939091
0.265353 -0.147823 0.93771
0.266771 -0.147471 0.936408
0.268101 -0.147187 0.934608
0.269453 -0.146884 0.932966
0.270785 -0.146594 0.931237
0.272172 -0.146258 0.92984
0.27354 -0.145937 0.928357
0.274959 -0.145575 0.927176
0.276339 -0.145241 0.925798
0.277733 -0.144894 0.924518
0.279108 -0.144561 0.923148
0.28046 -0.144244 0.921671
0.281844 -0.143901 0.920387
0.283211 -0.14357 0.919028
0.284557 -0.143252 0.917575
0.285955 -0.142895 0.916412
0.287373 -0.142521 0.915372
0.288716 -0.142202 0.913953
0.290049 -0.141889 0.912502
0.291386 -0.141572 0.911093
0.292598 -0.141344 0.909077
0.293723 -0.141177 0.906659
0.294795 -0.141046 0.904013
0.295835 -0.140934 0.901252
0.296894 -0.140806 0.898622
0.297999 -0.140641 0.896249
0.299193 -0.140413 0.894326
0.300443 -0.140141 0.892695
0.301734 -0.139838 0.891276
0.302939 -0.139595 0.889474
0.304224 -0.139295 0.888059
0.305465 -0.139024 0.886461
0.306682 -0.138768 0.884778
0.307952 -0.138474 0.883349
0.309286 -0.138133 0.882223
0.31063 -0.137785 0.881154
0.312025 -0.137402 0.880318
0.313505 -0.136961 0.879857
0.314942 -0.136549 0.879212
0.316329 -0.13617 0.878359
0.317729 -0.135782 0.877569
0.319147 -0.135381 0.876858
0.32062 -0.134944 0.876385
0.322128 -0.134482 0.876061
0.323734 -0.133956 0.876139
0.325316 -0.133446 0.876117
0.326895 -0.132939 0.876076
0.32847 -0.132435 0.876011
0.330046 -0.13193 0.87595
0.331623 -0.131426 0.875888
0.333227 -0.130904 0.875926
0.334806 -0.130398 0.875863
0.336363 -0.129907 0.87571
0.337918 -0.129417 0.87555
0.339451 -0.128942 0.875298
0.34096 -0.128482 0.874953
0.342593 -0.127943 0.875079
0.344187 -0.12743 0.875053
0.345812 -0.126898 0.875139
0.347512 -0.126319 0.8755
0.349294 -0.125689 0.876155
0.351043 -0.125081 0.876678
0.352823 -0.124454 0.877301
0.354567 -0.123851 0.877782
0.356112 -0.123371 0.877532
0.357561 -0.122952 0.876931
0.358893 -0.122604 0.87592
0.360171 -0.122287 0.874723
0.361397 -0.122003 0.873353
0.362613 -0.121722 0.871962
0.363824 -0.121445 0.870563
0.364949 -0.121219 0.868881
0.366126 -0.120959 0.867394
0.367329 -0.120682 0.866009
0.368485 -0.120433 0.864477
0.36944 -0.120303 0.862277
0.370279 -0.120241 0.859709
0.37103 -0.120229 0.856874
0.371756 -0.12023 0.853984
0.372561 -0.120182 0.851384
0.373568 -0.120011 0.849478
0.37477 -0.119724 0.848224
0.376036 -0.119399 0.847189
0.377394 -0.119019 0.846458
0.378842 -0.118587 0.846018
0.38026 -0.118171 0.84549
0.381788 -0.117692 0.845309
0.261848 -0.147057 0.939339
0.263336 -0.146651 0.938428
0.264772 -0.146286 0.937214
0.266179 -0.145946 0.935845
0.267505 -0.145667 0.934026
0.268877 -0.145351 0.932492
0.270208 -0.145065 0.930753
0.271575 -0.144748 0.92924
0.27294 -0.14443 0.927738
0.27436 -0.144067 0.92657
0.275763 -0.143717 0.925317
0.277183 -0.143352 0.924173
0.278596 -0.142991 0.923012
0.279951 -0.142675 0.921545
0.281338 -0.142332 0.92027
0.282703 -0.142004 0.918898
0.284068 -0.141674 0.917543
0.285451 -0.14133 0.916294
0.286848 -0.140974 0.915136
0.288186 -0.140662 0.913689
0.289477 -0.140381 0.912028
0.290777 -0.140094 0.910427
0.291972 -0.139882 0.908322
0.293079 -0.139732 0.905815
0.29415 -0.139606 0.903164
0.295189 -0.139498 0.9004
0.296248 -0.139374 0.897765
0.297354 -0.139213 0.895397
0.298567 -0.138973 0.893564
0.299778 -0.138732 0.891748
0.301023 -0.138465 0.890114
0.302196 -0.138246 0.88817
0.303429 -0.137984 0.886523
0.304617 -0.137752 0.884688
0.305852 -0.137485 0.883091
0.307169 -0.137159 0.881884
0.308581 -0.136766 0.881113
0.310023 -0.136352 0.880479
0.31149 -0.135919 0.879962
0.312992 -0.135464 0.879596
0.314446 -0.13504 0.879025
0.315832 -0.134662 0.878166
0.317214 -0.134287 0.877297
0.318614 -0.133899 0.87651
0.320065 -0.133477 0.875943
0.321547 -0.133032 0.875512
0.323127 -0.132523 0.875486
0.324708 -0.132013 0.875459
0.326286 -0.131506 0.875414
0.327858 -0.131003 0.875346
0.329433 -0.130499 0.875278
0.330965 -0.130022 0.87504
0.332543 -0.129516 0.874983
0.334121 -0.12901 0.874921
0.335675 -0.128521 0.874761
0.33723 -0.128031 0.874598
0.338782 -0.127542 0.874428
0.340289 -0.127083 0.874079
0.341868 -0.126578 0.874005
0.343429 -0.126085 0.873857
0.344992 -0.12559 0.873718
0.346632 -0.125047 0.873861
0.348382 -0.124435 0.874406
0.35018 -0.123793 0.87512
0.351991 -0.123145 0.875869
0.353797 -0.122502 0.876581
0.355426 -0.121968 0.876643
0.356958 -0.121497 0.876345
0.358352 -0.121112 0.875555
0.359693 -0.120759 0.874579
0.360977 -0.120439 0.873412
0.36222 -0.120145 0.872113
0.363404 -0.119886 0.870615
0.364525 -0.119664 0.868915
0.365675 -0.119425 0.867328
0.366877 -0.119151 0.865938
0.368087 -0.118871 0.864586
0.369161 -0.118673 0.862783
0.370157 -0.118521 0.860737
0.371103 -0.118397 0.858544
0.371964 -0.118323 0.856087
0.372863 -0.118223 0.853781
0.373902 -0.118038 0.85196
0.375102 -0.117756 0.850685
0.376368 -0.117433 0.849631
0.377695 -0.117074 0.848783
0.379082 -0.116679 0.848134
0.261271 -0.145514 0.938872
0.262755 -0.145112 0.937932
0.264207 -0.144737 0.936817
0.265587 -0.14442 0.935281
0.266909 -0.144147 0.933433
0.268282 -0.143832 0.931909
0.269614 -0.143548 0.930172
0.270981 -0.143233 0.928659
0.272362 -0.142906 0.927245
0.273785 -0.142542 0.92609
0.27521 -0.142176 0.92496
0.276669 -0.141782 0.92403
0.278109 -0.141402 0.923007
0.279482 -0.141073 0.921636
0.280887 -0.140718 0.920452
0.282271 -0.140379 0.919169
0.28364 -0.140048 0.917829
0.285006 -0.139719 0.916484
0.286381 -0.139382 0.915208
0.287695 -0.13909 0.913629
0.288963 -0.138831 0.91184
0.290247 -0.138557 0.910159
0.291448 -0.138344 0.908081
0.292538 -0.138211 0.905482
0.293587 -0.138105 0.90272
0.294584 -0.138035 0.899741
0.295598 -0.137948 0.896888
0.296683 -0.137806 0.894416
0.297875 -0.137583 0.892485
0.299065 -0.13736 0.890572
0.300266 -0.137126 0.888737
0.301432 -0.136916 0.886763
0.302634 -0.136678 0.884975
0.303801 -0.136462 0.883057
0.305056 -0.136183 0.881556
0.306418 -0.135827 0.880556
0.307856 -0.135415 0.879907
0.309329 -0.134979 0.879418
0.31084 -0.134516 0.8791
0.31234 -0.134061 0.878731
0.313809 -0.133628 0.87823
0.315216 -0.133236 0.877463
0.316602 -0.132859 0.876611
0.318007 -0.132469 0.875846
0.319454 -0.132048 0.875266
0.320886 -0.131638 0.874627
0.322391 -0.13118 0.874291
0.323919 -0.130704 0.874054
0.325467 -0.130215 0.873898
0.327041 -0.12971 0.87384
0.328641 -0.129187 0.873888
0.330226 -0.128676 0.873866
0.33183 -0.128151 0.87392
0.333433 -0.127627 0.873963
0.334966 -0.127151 0.873721
0.33652 -0.12666 0.873565
0.338075 -0.126169 0.873406
0.339605 -0.125695 0.87315
0.341158 -0.125205 0.872984
0.342713 -0.124716 0.872817
0.344245 -0.124241 0.872564
0.345827 -0.123734 0.872495
0.347541 -0.123141 0.872918
0.349354 -0.122488 0.873697
0.351189 -0.121822 0.874541
0.353048 -0.121142 0.875456
0.354786 -0.120539 0.875918
0.356406 -0.120011 0.875942
0.357891 -0.119569 0.875477
0.359296 -0.119177 0.874728
0.360611 -0.11884 0.873669
0.36186 -0.118545 0.872381
0.363013 -0.118308 0.870769
0.364108 -0.118106 0.868973
0.365255 -0.11787 0.867372
0.366433 -0.117613 0.865894
0.367643 -0.117336 0.864539
0.368825 -0.117075 0.863101
0.369943 -0.116851 0.861459
0.371021 -0.116652 0.859697
0.372034 -0.116489 0.857738
0.373076 -0.116308 0.855893
0.374145 -0.116109 0.854152
0.375324 -0.115842 0.852793
0.25913 -0.144443 0.938847
0.260635 -0.144024 0.938034
0.262119 -0.143622 0.937104
0.263586 -0.143235 0.936077
0.264964 -0.142922 0.934532
0.26631 -0.142633 0.932822
0.267703 -0.142302 0.931416
0.269056 -0.142003 0.929795
0.270424 -0.141691 0.928284
0.271825 -0.141347 0.926987
0.273267 -0.140971 0.925934
0.274715 -0.140589 0.924926
0.276198 -0.140177 0.924125
0.277674 -0.139769 0.923295
0.279051 -0.139439 0.921935
0.280458 -0.139085 0.920755
0.281862 -0.138732 0.91957
0.283234 -0.138402 0.918236
0.284565 -0.138103 0.9167
0.28592 -0.137783 0.915313
0.287208 -0.137514 0.913594
0.288435 -0.137289 0.911592
0.289681 -0.137047 0.909707
0.29088 -0.136839 0.907616
0.29197 -0.136711 0.905011
0.292999 -0.136625 0.902147
0.293972 -0.136577 0.899047
0.294965 -0.136512 0.896089
0.296003 -0.136408 0.893388
0.297151 -0.136221 0.89125
0.29832 -0.136015 0.889244
0.299498 -0.1358 0.887305
0.300668 -0.13559 0.88535
0.301873 -0.135351 0.883587
0.303047 -0.135134 0.881699
0.30432 -0.134842 0.880291
0.305706 -0.13447 0.879402
0.307162 -0.134045 0.878843
0.308653 -0.133596 0.878437
0.310185 -0.133119 0.878213
0.311684 -0.132664 0.877848
0.313133 -0.132245 0.87726
0.314539 -0.131854 0.876493
0.315925 -0.131478 0.875643
0.317308 -0.131103 0.874791
0.318708 -0.130716 0.874016
0.320105 -0.130329 0.873236
0.321552 -0.129908 0.872668
0.323027 -0.129469 0.872222
0.324552 -0.128995 0.871978
0.326147 -0.128473 0.87202
0.327794 -0.127917 0.872267
0.329429 -0.12737 0.87246
0.331086 -0.126809 0.872729
0.332738 -0.126252 0.87297
0.334296 -0.125757 0.872835
0.335853 -0.125265 0.872692
0.337433 -0.124757 0.872636
0.338991 -0.124263 0.872493
0.340549 -0.12377 0.872347
0.342105 -0.123279 0.872186
0.343633 -0.122805 0.871922
0.345162 -0.122332 0.871657
0.346821 -0.121774 0.871878
0.348602 -0.121139 0.872541
0.35043 -0.120474 0.873366
0.352288 -0.119792 0.874286
0.354107 -0.119135 0.87505
0.355815 -0.11855 0.875398
0.35739 -0.118052 0.875255
0.358883 -0.117604 0.874821
0.360253 -0.117235 0.87395
0.361504 -0.11694 0.872664
0.362655 -0.116707 0.871041
0.363752 -0.116506 0.869245
0.364871 -0.116291 0.867542
0.366024 -0.116052 0.865975
0.367231 -0.115779 0.864603
0.368467 -0.115487 0.863344
0.369672 -0.115213 0.861992
0.370842 -0.11496 0.860531
0.371948 -0.114743 0.858874
0.373045 -0.114533 0.8572
0.374113 -0.114337 0.855445
0.375269 -0.114088 0.853996
0.379149 -0.113985 0.860059
0.258395 -0.143038 0.937391
0.259946 -0.142581 0.936873
0.26144 -0.142172 0.936002
0.262929 -0.141765 0.935122
0.264328 -0.141436 0.933705
0.265712 -0.141117 0.93222
0.267124 -0.140773 0.930922
0.268516 -0.140445 0.929527
0.269905 -0.140115 0.928132
0.271311 -0.139771 0.926856
0.272774 -0.139378 0.925918
0.274258 -0.138968 0.925108
0.275744 -0.138554 0.92432
0.277225 -0.138144 0.923509
0.278606 -0.137814 0.922162
0.280011 -0.137463 0.920965
0.281401 -0.137124 0.919698
0.282775 -0.136795 0.918365
0.284088 -0.136513 0.916728
0.28544 -0.136198 0.915316
0.286724 -0.135935 0.913572
0.287933 -0.135728 0.911466
0.289136 -0.135522 0.909363
0.290312 -0.135335 0.907156
0.291374 -0.135233 0.904407
0.292364 -0.135182 0.90134
0.293318 -0.135154 0.898145
0.294271 -0.135123 0.894989
0.295285 -0.135042 0.892174
0.296404 -0.134879 0.889903
0.297549 -0.134693 0.887786
0.298711 -0.134494 0.885774
0.299928 -0.134251 0.884046
0.301162 -0.133993 0.882419
0.302383 -0.133743 0.880756
0.303686 -0.133432 0.87948
0.305088 -0.133048 0.878671
0.30654 -0.132628 0.878092
0.308023 -0.132184 0.877658
0.309509 -0.131738 0.877236
0.310987 -0.131298 0.876776
0.312415 -0.130893 0.876107
0.3138 -0.130519 0.87525
0.315162 -0.130159 0.874305
0.316539 -0.129788 0.873435
0.317889 -0.129437 0.872453
0.319236 -0.129085 0.871472
0.320651 -0.128687 0.870779
0.322095 -0.128268 0.870212
0.323592 -0.12781 0.869871
0.325231 -0.127258 0.870102
0.326929 -0.126664 0.870571
0.328615 -0.126081 0.870975
0.330322 -0.125484 0.871454
0.33202 -0.124893 0.87189
0.3336 -0.124384 0.871845
0.335178 -0.123876 0.871789
0.336759 -0.123366 0.871743
0.338323 -0.122868 0.871625
0.339885 -0.122372 0.871498
0.341443 -0.121878 0.871351
0.342973 -0.121403 0.871093
0.344477 -0.120946 0.870738
0.346108 -0.120405 0.870861
0.347833 -0.119803 0.871324
0.349604 -0.119173 0.871947
0.351457 -0.11849 0.872855
0.353355 -0.11778 0.873914
0.355153 -0.117135 0.874596
0.356844 -0.116561 0.874876
0.35847 -0.116029 0.874914
0.359898 -0.115624 0.874245
0.361173 -0.115316 0.873042
0.36233 -0.115083 0.871431
0.363423 -0.114887 0.869616
0.364517 -0.114691 0.867818
0.365667 -0.114456 0.866236
0.366851 -0.114201 0.864778
0.368085 -0.113911 0.863509
0.369292 -0.113638 0.862158
0.370493 -0.113369 0.860797
0.37163 -0.113137 0.859237
0.375183 -0.111409 0.865727
0.25773 -0.141577 0.936367
0.259295 -0.141107 0.935937
0.260786 -0.140701 0.935057
0.26229 -0.140283 0.934266
0.263713 -0.139934 0.932995
0.265134 -0.139585 0.931736
0.266588 -0.139206 0.930682
0.268018 -0.138848 0.929502
0.269428 -0.138504 0.928225
0.270856 -0.138143 0.927065
0.272319 -0.137753 0.926121
0.273806 -0.137341 0.925323
0.27531 -0.136913 0.924626
0.276812 -0.136488 0.923925
0.278215 -0.136143 0.922687
0.279643 -0.135776 0.921602
0.281032 -0.13544 0.92032
0.282386 -0.135129 0.918872
0.283659 -0.134882 0.917014
0.284972 -0.134601 0.915391
0.286199 -0.134386 0.913343
0.287367 -0.134214 0.911024
0.288529 -0.134046 0.908704
0.289679 -0.133882 0.906361
0.290718 -0.133802 0.903498
0.291725 -0.133742 0.900516
0.292668 -0.133729 0.897259
0.293582 -0.133733 0.893916
0.294553 -0.13369 0.890889
0.295624 -0.133566 0.888392
0.296725 -0.133417 0.886068
0.29791 -0.133201 0.884174
0.299171 -0.132927 0.882659
0.300454 -0.132636 0.881266
0.301739 -0.132341 0.879898
0.303086 -0.131998 0.878828
0.304491 -0.131613 0.878032
0.305922 -0.131207 0.877363
0.307399 -0.130768 0.876901
0.308859 -0.130341 0.876365
0.310292 -0.129933 0.875717
0.311697 -0.129545 0.874949
0.313055 -0.129191 0.873982
0.314366 -0.128869 0.872821
0.315695 -0.128532 0.871753
0.31702 -0.128198 0.870676
0.318342 -0.127864 0.869596
0.319754 -0.127467 0.868903
0.321198 -0.127048 0.868345
0.322716 -0.126576 0.868098
0.324376 -0.126006 0.868432
0.326096 -0.125395 0.868999
0.327807 -0.124792 0.869516
0.32954 -0.124175 0.870106
0.331261 -0.123567 0.87064
0.332863 -0.12304 0.870691
0.334463 -0.122516 0.870729
0.336066 -0.121991 0.870771
0.33765 -0.121479 0.870734
0.33919 -0.120996 0.870526
0.340722 -0.120519 0.870286
0.342249 -0.120046 0.870021
0.343751 -0.119589 0.869666
0.34536 -0.119062 0.869708
0.347056 -0.118478 0.870068
0.348791 -0.117868 0.870568
0.350633 -0.11719 0.871447
0.352587 -0.116439 0.872719
0.354473 -0.115734 0.873724
0.35631 -0.115064 0.874536
0.35805 -0.114457 0.874986
0.359562 -0.113999 0.87461
0.360895 -0.113656 0.873606
0.362082 -0.113405 0.872094
0.363178 -0.113212 0.870279
0.364273 -0.113017 0.86848
0.365392 -0.112806 0.866779
0.366519 -0.112589 0.865121
0.367725 -0.11232 0.86375
0.368906 -0.112066 0.862306
0.370108 -0.111797 0.860943
0.373696 -0.110032 0.867589
0.255427 -0.140657 0.935295
0.257045 -0.140139 0.935207
0.258618 -0.13966 0.934836
0.26013 -0.139236 0.934093
0.261657 -0.138796 0.933448
0.263119 -0.138415 0.932413
0.26458 -0.138033 0.931388
0.266072 -0.137623 0.930559
0.267523 -0.137249 0.929496
0.268954 -0.136889 0.928337
0.270402 -0.136513 0.927284
0.271866 -0.136123 0.92634
0.273351 -0.135714 0.925522
0.274877 -0.13527 0.924939
0.276401 -0.134827 0.924356
0.277843 -0.134452 0.923322
0.279313 -0.134053 0.922451
0.28072 -0.133704 0.921253
0.282039 -0.133426 0.919601
0.283268 -0.133218 0.9175
0.284518 -0.132991 0.915536
0.285665 -0.132844 0.913066
0.286774 -0.132725 0.910437
0.287896 -0.13259 0.907914
0.289022 -0.13245 0.905445
0.290043 -0.132388 0.90249
0.291035 -0.132346 0.89943
0.29196 -0.132351 0.89609
0.292855 -0.132376 0.892649
0.293781 -0.132371 0.88941
0.294827 -0.132271 0.886791
0.295946 -0.13211 0.884564
0.297155 -0.131879 0.882788
0.298459 -0.131574 0.881479
0.299803 -0.131238 0.880374
0.301128 -0.130915 0.879192
0.302499 -0.130556 0.878234
0.303911 -0.130165 0.877473
0.305323 -0.129775 0.876715
0.306736 -0.129383 0.875971
0.308146 -0.128992 0.875217
0.309531 -0.12862 0.87436
0.310887 -0.128268 0.873382
0.312217 -0.127934 0.872301
0.31352 -0.127618 0.871118
0.314843 -0.127287 0.87003
0.316169 -0.126952 0.868964
0.317517 -0.126602 0.868002
0.318931 -0.126202 0.867328
0.320375 -0.125782 0.86678
0.321915 -0.125294 0.866634
0.3236 -0.124704 0.867078
0.325345 -0.124074 0.867753
0.327101 -0.123437 0.86846
0.328851 -0.122805 0.869128
0.33055 -0.12221 0.869581
0.332151 -0.121683 0.869634
0.333753 -0.121156 0.869681
0.335356 -0.12063 0.869729
0.336936 -0.120119 0.869686
0.338466 -0.119644 0.86944
0.339965 -0.119189 0.869077
0.341461 -0.118734 0.868707
0.342963 -0.118278 0.868352
0.344571 -0.11775 0.8684
0.346238 -0.117182 0.868663
0.347939 -0.116593 0.869041
0.349793 -0.115904 0.869974
0.351771 -0.115133 0.871346
0.353726 -0.11438 0.87261
0.355709 -0.11361 0.873955
0.357594 -0.112907 0.874926
0.359221 -0.112374 0.874963
0.360645 -0.111972 0.874274
0.361947 -0.111651 0.873158
0.363054 -0.111454 0.871371
0.364119 -0.111283 0.869457
0.365179 -0.111113 0.867542
0.366216 -0.110957 0.865565
0.367338 -0.110744 0.8639
0.37085 -0.109006 0.870368
0.25376 -0.141223 0.935059
0.252155 -0.141731 0.935215
0.251573 -0.140204 0.934691
0.253154 -0.139716 0.934388
0.254779 -0.139188 0.93436
0.256385 -0.138678 0.934204
0.257953 -0.138203 0.933813
0.259481 -0.137765 0.933169
0.261027 -0.137311 0.932642
0.262541 -0.136882 0.931929
0.264042 -0.136467 0.931138
0.265572 -0.136024 0.930534
0.267047 -0.13563 0.929607
0.268498 -0.135255 0.928555
0.269944 -0.134884 0.927483
0.271409 -0.134494 0.926539
0.272896 -0.134085 0.925721
0.27444 -0.133627 0.925235
0.275988 -0.133164 0.924778
0.277457 -0.132769 0.923884
0.278953 -0.132349 0.923145
0.280383 -0.131985 0.92206
0.281681 -0.131727 0.920283
0.282904 -0.131529 0.918135
0.284073 -0.131373 0.91573
0.285152 -0.131286 0.912896
0.286174 -0.131241 0.909811
0.287231 -0.131163 0.906953
0.288284 -0.131084 0.90412
0.289327 -0.131011 0.901272
0.290304 -0.130985 0.898138
0.291229 -0.130995 0.894799
0.292121 -0.131027 0.891345
0.293042 -0.131032 0.88808
0.294069 -0.13095 0.885376
0.29519 -0.130792 0.883157
0.296421 -0.130546 0.881491
0.297749 -0.130223 0.880303
0.299113 -0.129873 0.879295
0.300481 -0.129517 0.878319
0.301895 -0.129128 0.877559
0.303311 -0.128734 0.876817
0.304702 -0.12836 0.875967
0.306068 -0.128005 0.875011
0.307404 -0.127669 0.873933
0.30872 -0.127348 0.872776
0.310028 -0.127031 0.871599
0.311331 -0.126717 0.87041
0.312652 -0.126389 0.869314
0.313997 -0.126043 0.868327
0.315348 -0.125691 0.867375
0.316743 -0.125306 0.866621
0.318205 -0.124872 0.866157
0.319674 -0.124435 0.865715
0.321214 -0.123945 0.865575
0.322897 -0.123354 0.86602
0.32462 -0.122736 0.866613
0.326373 -0.122099 0.867315
0.328098 -0.121482 0.86789
0.329812 -0.120874 0.868411
0.331459 -0.120316 0.868649
0.333089 -0.119767 0.868817
0.334674 -0.119252 0.868796
0.33625 -0.118743 0.86874
0.337722 -0.118307 0.868277
0.339137 -0.117908 0.867601
0.340575 -0.117494 0.867013
0.342073 -0.117039 0.866652
0.343659 -0.116524 0.866628
0.345301 -0.115972 0.866804
0.346989 -0.115389 0.867148
0.348859 -0.114685 0.868151
0.350886 -0.113878 0.869712
0.352928 -0.113062 0.871306
0.355055 -0.112193 0.87318
0.357083 -0.111392 0.874674
0.358857 -0.110761 0.875233
0.360401 -0.110282 0.874968
0.361828 -0.109881 0.874283
0.362974 -0.109662 0.872622
0.363987 -0.109529 0.870511
0.367271 -0.107917 0.876291
0.24927 -0.139297 0.933549
0.250912 -0.13875 0.933658
0.252511 -0.138245 0.933473
0.254135 -0.137717 0.933445
0.255741 -0.137206 0.933299
0.257328 -0.136715 0.933026
0.258866 -0.136266 0.932449
0.260432 -0.135794 0.93205
0.261965 -0.135349 0.931454
0.263502 -0.134902 0.930879
0.265054 -0.13444 0.930401
0.266531 -0.134045 0.929484
0.268001 -0.133655 0.928539
0.269465 -0.133269 0.927565
0.270947 -0.132868 0.926708
0.272438 -0.132457 0.92591
0.274005 -0.131978 0.92555
0.275553 -0.131518 0.925084
0.277046 -0.131102 0.924315
0.278567 -0.130665 0.923703
0.280047 -0.130259 0.922877
0.281405 -0.129955 0.92141
0.282709 -0.129696 0.919668
0.283781 -0.129625 0.916736
0.284752 -0.129632 0.913321
0.28564 -0.129703 0.909532
0.286549 -0.129752 0.905906
0.287463 -0.129791 0.90236
0.288526 -0.129705 0.899624
0.289507 -0.12968 0.896516
0.29045 -0.129682 0.893265
0.29136 -0.129704 0.889903
0.292282 -0.129714 0.886645
0.293311 -0.129634 0.883952
0.294456 -0.12946 0.881853
0.295709 -0.129198 0.880299
0.297061 -0.128858 0.879228
0.298448 -0.128491 0.878333
0.299841 -0.128118 0.877472
0.301276 -0.127712 0.876812
0.302692 -0.127319 0.876076
0.30406 -0.126964 0.875119
0.305392 -0.126633 0.874018
0.306698 -0.126322 0.872808
0.307962 -0.126041 0.871424
0.30925 -0.12574 0.870165
0.310557 -0.125424 0.869
0.311881 -0.125095 0.867922
0.313252 -0.124729 0.867053
0.314649 -0.124343 0.866309
0.316074 -0.123938 0.865682
0.317561 -0.123486 0.865324
0.319049 -0.123034 0.864969
0.320585 -0.122546 0.864815
0.322222 -0.121988 0.865072
0.323896 -0.121403 0.865471
0.32562 -0.120784 0.866064
0.327294 -0.1202 0.866444
0.328959 -0.119624 0.866774
0.330625 -0.11905 0.867099
0.332301 -0.118468 0.867458
0.333848 -0.117978 0.867296
0.335421 -0.11747 0.867238
0.336881 -0.11704 0.866738
0.338239 -0.116683 0.865842
0.339625 -0.116303 0.865069
0.341166 -0.115818 0.864882
0.342725 -0.11532 0.864766
0.344365 -0.114766 0.864948
0.346051 -0.114184 0.86529
0.347942 -0.113461 0.866386
0.350021 -0.112614 0.868151
0.35217 -0.111721 0.870145
0.354406 -0.110774 0.872425
0.356575 -0.109875 0.87443
0.358493 -0.109146 0.875506
0.360162 -0.108584 0.875682
0.361687 -0.108119 0.875338
0.362896 -0.107862 0.873888
0.366133 -0.106267 0.879526
0.248617 -0.13784 0.932556
0.250235 -0.137316 0.932509
0.251844 -0.136799 0.932402
0.25347 -0.136269 0.932393
0.255092 -0.135742 0.932355
0.256698 -0.135231 0.932209
0.258268 -0.134754 0.931838
0.259855 -0.134261 0.931565
0.261406 -0.133801 0.931077
0.26296 -0.133338 0.930609
0.26453 -0.13286 0.930238
0.266011 -0.132463 0.929341
0.267499 -0.132058 0.928494
0.268997 -0.131644 0.927715
0.270487 -0.131236 0.926897
0.271982 -0.130823 0.926118
0.273587 -0.130312 0.925962
0.275135 -0.129853 0.925485
0.276647 -0.129424 0.924814
0.27819 -0.128967 0.924318
0.279695 -0.128542 0.923618
0.281078 -0.12822 0.922268
0.28243 -0.127924 0.92077
0.283454 -0.1279 0.917563
0.28425 -0.128062 0.913212
0.284925 -0.128317 0.908306
0.285617 -0.12855 0.903569
0.286483 -0.128633 0.89979
0.287564 -0.128534 0.897156
0.288601 -0.128469 0.89434
0.289589 -0.128439 0.891318
0.290541 -0.128432 0.888171
0.291491 -0.128425 0.885051
0.292543 -0.128331 0.882475
0.293726 -0.128127 0.880569
0.294999 -0.127853 0.879111
0.296393 -0.127481 0.878244
0.297827 -0.127077 0.877573
0.299263 -0.126672 0.876914
0.30072 -0.126248 0.876359
0.302135 -0.125858 0.875613
0.303479 -0.125522 0.87455
0.304764 -0.125229 0.873235
0.306042 -0.124941 0.8719
0.307282 -0.124679 0.870416
0.308572 -0.124378 0.869166
0.309885 -0.124059 0.868029
0.311236 -0.12371 0.867072
0.31261 -0.123344 0.866219
0.314052 -0.122924 0.865669
0.315524 -0.122484 0.865245
0.317016 -0.122028 0.864909
0.318504 -0.121577 0.864552
0.320032 -0.121095 0.864366
0.321592 -0.120591 0.864309
0.32321 -0.120044 0.864485
0.324905 -0.119443 0.864965
0.326529 -0.118895 0.865146
0.328145 -0.118353 0.865289
0.329803 -0.11778 0.865594
0.331436 -0.117227 0.865789
0.332957 -0.116754 0.865537
0.334527 -0.116247 0.865477
0.335982 -0.115821 0.864963
0.337315 -0.11548 0.863986
0.338697 -0.115103 0.863203
0.340262 -0.1146 0.863118
0.341819 -0.114102 0.863001
0.34348 -0.113532 0.863274
0.345214 -0.112913 0.863807
0.347133 -0.112168 0.865017
0.349244 -0.111295 0.866909
0.351471 -0.110344 0.869199
0.353789 -0.109335 0.871781
0.35604 -0.108375 0.874091
0.3581 -0.107548 0.875677
0.359888 -0.106905 0.876274
0.361532 -0.10636 0.876348
0.362856 -0.106029 0.875289
0.246333 -0.136927 0.931493
0.247932 -0.136419 0.931338
0.249557 -0.135886 0.93135
0.25118 -0.135356 0.931342
0.252787 -0.13484 0.931225
0.254394 -0.134327 0.931099
0.256002 -0.133812 0.930973
0.257589 -0.133318 0.93072
0.259192 -0.132809 0.930554
0.260779 -0.132316 0.930291
0.262368 -0.13182 0.930037
0.263956 -0.131326 0.929774
0.26547 -0.130899 0.929072
0.266978 -0.130478 0.928341
0.268499 -0.130045 0.927689
0.27003 -0.1296 0.927104
0.271549 -0.129168 0.926452
0.273156 -0.128655 0.926305
0.2747 -0.1282 0.925799
0.276208 -0.127774 0.925099
0.277742 -0.127328 0.924544
0.279271 -0.126884 0.923971
0.28069 -0.126534 0.922805
0.282099 -0.126191 0.921601
0.282923 -0.126344 0.917319
0.283542 -0.126663 0.912032
0.284046 -0.12707 0.906231
0.284647 -0.127388 0.901025
0.285528 -0.127463 0.897336
0.286645 -0.127339 0.894894
0.287691 -0.127269 0.892133
0.288726 -0.127204 0.889354
0.289746 -0.127147 0.886547
0.290742 -0.127105 0.883663
0.291838 -0.126979 0.881304
0.293061 -0.126749 0.879586
0.294374 -0.126444 0.878323
0.295772 -0.126069 0.877478
0.29721 -0.125663 0.876827
0.298646 -0.125256 0.876173
0.300102 -0.124834 0.875616
0.301495 -0.124462 0.874771
0.30286 -0.12411 0.873808
0.304128 -0.123832 0.872416
0.305407 -0.123545 0.871087
0.30665 -0.123283 0.869613
0.307941 -0.122983 0.868371
0.309255 -0.122664 0.867242
0.310646 -0.122286 0.866461
0.312041 -0.121904 0.865699
0.313506 -0.121469 0.865248
0.315 -0.121012 0.86492
0.316496 -0.120553 0.8646
0.317981 -0.120103 0.864233
0.319484 -0.11964 0.863942
0.320992 -0.119174 0.863667
0.322554 -0.118666 0.863616
0.324215 -0.118089 0.863963
0.325789 -0.117574 0.86395
0.327356 -0.117066 0.863903
0.328985 -0.116513 0.864099
0.330582 -0.115984 0.86416
0.332051 -0.115547 0.863713
0.333594 -0.115057 0.863557
0.335068 -0.114617 0.863129
0.33643 -0.114255 0.862271
0.33782 -0.113874 0.861528
0.33941 -0.113351 0.861546
0.340964 -0.112854 0.861427
0.342646 -0.112267 0.861788
0.34443 -0.111612 0.862518
0.346406 -0.110822 0.863947
0.348548 -0.109923 0.865962
0.350872 -0.1089 0.868614
0.353245 -0.107847 0.871405
0.355582 -0.106823 0.874026
0.357757 -0.105913 0.876032
0.359688 -0.105171 0.877133
0.361444 -0.104551 0.877597
0.364983 -0.102727 0.884334
0.245642 -0.135518 0.930217
0.247243 -0.135005 0.930092
0.248868 -0.13447 0.930113
0.2505 -0.133929 0.930174
0.252121 -0.133399 0.930155
0.253742 -0.132871 0.930127
0.25535 -0.132355 0.930011
0.256938 -0.131859 0.929767
0.258541 -0.131349 0.929612
0.26013 -0.130851 0.929368
0.26172 -0.130355 0.929124
0.263325 -0.129845 0.928968
0.26486 -0.129399 0.928393
0.266406 -0.128943 0.927887
0.267968 -0.128471 0.927477
0.269539 -0.127993 0.927117
0.271078 -0.127542 0.926581
0.272702 -0.127016 0.926522
0.274249 -0.126559 0.926025
0.275747 -0.126143 0.925266
0.277273 -0.125704 0.924663
0.278809 -0.125254 0.924118
0.281751 -0.12447 0.922341
0.282497 -0.124698 0.917627
0.283689 -0.126225 0.898535
0.284618 -0.126265 0.8951
0.285795 -0.126093 0.892971
0.286866 -0.126006 0.890346
0.287945 -0.125907 0.887797
0.289013 -0.125816 0.885227
0.290056 -0.12574 0.882572
0.291176 -0.125599 0.88033
0.292422 -0.125351 0.878728
0.293737 -0.125045 0.877479
0.295135 -0.124671 0.876633
0.296571 -0.124266 0.875979
0.298005 -0.123863 0.875316
0.299459 -0.123442 0.874753
0.300873 -0.123054 0.874007
0.302261 -0.122685 0.873153
0.303557 -0.122387 0.871887
0.304864 -0.122079 0.870685
0.306128 -0.121803 0.869304
0.307439 -0.12149 0.868148
0.308752 -0.121173 0.867013
0.310145 -0.120794 0.866233
0.311535 -0.120417 0.865453
0.312999 -0.119983 0.864992
0.314472 -0.119543 0.864574
0.315969 -0.119083 0.864257
0.317456 -0.118631 0.8639
0.318935 -0.118185 0.86351
0.320395 -0.117754 0.86304
0.321907 -0.117284 0.862785
0.323516 -0.116742 0.862925
0.325043 -0.116262 0.862725
0.326581 -0.115774 0.862566
0.328179 -0.115241 0.862649
0.329741 -0.114736 0.862579
0.331175 -0.114324 0.862001
0.332709 -0.11384 0.861819
0.33419 -0.113393 0.861429
0.33558 -0.113012 0.860685
0.336999 -0.112609 0.860059
0.338588 -0.112086 0.860086
0.340115 -0.111607 0.859873
0.341794 -0.111019 0.860232
0.343606 -0.110342 0.861073
0.345586 -0.109545 0.862529
0.347801 -0.108589 0.864823
0.350226 -0.107489 0.867856
0.352676 -0.106376 0.870937
0.355104 -0.105284 0.873893
0.357392 -0.104291 0.876305
0.359411 -0.103487 0.877721
0.36123 -0.102822 0.878404
0.243436 -0.134536 0.929644
0.24499 -0.134071 0.929206
0.246563 -0.133586 0.928895
0.248159 -0.133078 0.928741
0.249777 -0.132548 0.928723
0.251393 -0.132022 0.928686
0.253027 -0.131478 0.928755
0.254646 -0.13095 0.928717
0.25625 -0.130437 0.928581
0.257869 -0.129911 0.928533
0.259473 -0.1294 0.928388
0.261065 -0.128899 0.928163
0.262672 -0.128386 0.928027
0.264226 -0.127924 0.927569
0.265794 -0.127446 0.927199
0.267396 -0.126937 0.927023
0.269003 -0.126426 0.926876
0.270581 -0.12594 0.926555
0.272206 -0.125412 0.926505
0.273772 -0.124937 0.926115
0.275271 -0.124525 0.925346
0.276801 -0.124082 0.924762
0.278327 -0.123642 0.924159
0.282019 -0.124832 0.900647
0.282662 -0.12513 0.895673
0.283768 -0.125023 0.893161
0.284971 -0.124831 0.891177
0.286081 -0.124715 0.888753
0.2872 -0.124587 0.886406
0.288327 -0.12445 0.884133
0.289393 -0.124358 0.881597
0.290577 -0.124167 0.879666
0.291845 -0.123904 0.878168
0.293181 -0.123583 0.877018
0.294559 -0.123225 0.876081
0.29599 -0.122826 0.875401
0.297398 -0.122444 0.874619
0.298809 -0.122057 0.87386
0.300223 -0.121669 0.873117
0.301636 -0.121281 0.872378
0.302981 -0.120947 0.871333
0.304335 -0.120603 0.870344
0.305663 -0.120279 0.869247
0.306996 -0.11995 0.868185
0.308307 -0.119637 0.867035
0.309679 -0.119275 0.866163
0.311049 -0.118915 0.865292
0.312489 -0.1185 0.864727
0.313939 -0.118077 0.864208
0.315432 -0.117621 0.863875
0.31692 -0.117169 0.863521
0.318403 -0.11672 0.863147
0.319844 -0.116302 0.8626
0.321333 -0.11585 0.862249
0.322871 -0.11536 0.862102
0.324345 -0.114917 0.861692
0.325836 -0.114463 0.861349
0.327384 -0.113966 0.861237
0.328895 -0.113497 0.860972
0.330343 -0.113075 0.860458
0.331875 -0.11259 0.860277
0.333381 -0.112125 0.859992
0.334821 -0.111707 0.859451
0.336289 -0.111269 0.859018
0.337875 -0.110747 0.859038
0.339397 -0.11027 0.858812
0.341072 -0.109686 0.859156
0.342903 -0.10899 0.860078
0.344864 -0.108204 0.861471
0.347078 -0.107242 0.863772
0.349575 -0.106084 0.86708
0.352056 -0.104942 0.870282
0.354525 -0.103814 0.873395
0.356873 -0.102773 0.876031
0.358975 -0.101908 0.877744
0.360854 -0.1012 0.878641
0.241351 -0.133432 0.929892
0.242845 -0.13303 0.929034
0.244356 -0.132608 0.928313
0.245889 -0.132163 0.927744
0.247465 -0.131675 0.927458
0.249066 -0.13116 0.927342
0.250666 -0.130649 0.927207
0.252296 -0.130108 0.927268
0.253913 -0.12958 0.92723
0.25553 -0.129052 0.927192
0.257166 -0.128507 0.927261
0.258786 -0.127979 0.927222
0.260391 -0.127465 0.927086
0.262013 -0.126936 0.927047
0.263585 -0.126454 0.926706
0.265173 -0.125959 0.926453
0.266794 -0.125433 0.926394
0.268424 -0.124898 0.926383
0.270038 -0.124378 0.926275
0.271684 -0.123829 0.926342
0.273271 -0.123337 0.926068
0.274795 -0.122901 0.925435
0.276338 -0.122447 0.924919
0.281775 -0.123923 0.89353
0.283105 -0.123627 0.892174
0.284298 -0.123446 0.890141
0.285405 -0.123335 0.887705
0.28652 -0.123215 0.885341
0.287648 -0.123079 0.883075
0.288737 -0.122974 0.880645
0.289962 -0.122751 0.878918
0.291271 -0.122454 0.877625
0.292629 -0.122117 0.876577
0.294004 -0.121764 0.875626
0.295411 -0.121384 0.87483
0.296816 -0.121005 0.874034
0.298185 -0.120655 0.873079
0.299597 -0.120268 0.872332
0.301049 -0.119848 0.871776
0.302419 -0.119495 0.870848
0.30378 -0.119147 0.869887
0.305152 -0.11879 0.868987
0.306507 -0.118445 0.868018
0.307824 -0.118128 0.866893
0.309219 -0.117751 0.866119
0.310589 -0.117391 0.865244
0.312004 -0.116997 0.86457
0.313426 -0.116595 0.863932
0.314895 -0.116158 0.863494
0.316341 -0.115737 0.862965
0.317804 -0.115304 0.862508
0.319246 -0.114887 0.861963
0.320711 -0.114451 0.861516
0.3222 -0.113998 0.861173
0.323667 -0.113561 0.860736
0.325174 -0.113095 0.860463
0.326704 -0.112611 0.860281
0.328195 -0.112155 0.859944
0.329688 -0.111699 0.859612
0.331222 -0.111212 0.859442
0.332708 -0.110761 0.859083
0.334174 -0.110325 0.858643
0.335662 -0.109872 0.858291
0.337198 -0.109384 0.858125
0.338714 -0.108912 0.857879
0.340379 -0.108331 0.858194
0.342233 -0.107617 0.859207
0.344216 -0.106812 0.860687
0.34643 -0.105844 0.862994
0.348949 -0.104662 0.866395
0.351458 -0.103494 0.869705
0.35393 -0.102356 0.872837
0.356283 -0.101305 0.875496
0.358462 -0.100381 0.877495
0.360424 -0.0996131 0.878687
0.23931 -0.132278 0.930452
0.240768 -0.131917 0.92933
0.242229 -0.13155 0.928257
0.243688 -0.131183 0.927183
0.245164 -0.130798 0.926235
0.246707 -0.130341 0.925748
0.248302 -0.129832 0.925605
0.249886 -0.129334 0.925383
0.251516 -0.12879 0.925457
0.253145 -0.128247 0.925519
0.254764 -0.127717 0.925501
0.256416 -0.127153 0.925687
0.258072 -0.126587 0.925882
0.259708 -0.126041 0.925951
0.261345 -0.125497 0.926009
0.262947 -0.124985 0.925853
0.264532 -0.124492 0.92559
0.266173 -0.123944 0.925658
0.267821 -0.123392 0.925754
0.269457 -0.122852 0.925772
0.271104 -0.122302 0.925848
0.272733 -0.12177 0.925808
0.274278 -0.121314 0.925301
0.275836 -0.120848 0.924863
0.280052 -0.122582 0.895324
0.281361 -0.122309 0.893835
0.282646 -0.122054 0.892243
0.283777 -0.121932 0.889881
0.284845 -0.12186 0.887237
0.285935 -0.121763 0.884748
0.287063 -0.121632 0.882479
0.288157 -0.121526 0.880073
0.289408 -0.121284 0.878472
0.290738 -0.120972 0.877275
0.292096 -0.120637 0.876225
0.293433 -0.120316 0.875094
0.29482 -0.119953 0.874206
0.296202 -0.119594 0.873304
0.29753 -0.119278 0.872155
0.298958 -0.11888 0.871484
0.300407 -0.118462 0.870917
0.301799 -0.118091 0.870094
0.303182 -0.117727 0.869233
0.3046 -0.117333 0.868543
0.305959 -0.116986 0.867593
0.307321 -0.116636 0.866663
