ply
format ascii 1.0
comment Created by CloudCompare v2.11.3 (Anoia)
comment Created 25/04/2022 13:12
obj_info Generated by CloudCompare!
element vertex 508
property float x
property float y
property float z
property float nx
property float ny
property float nz
end_header
-5.43369 -1.48718 2.76198 -0.844149 0.371175 -0.386836 
-5.13844 -1.51152 2.09527 -0.844149 0.371175 -0.386836 
-5.37491 -1.58733 2.53807 -0.844149 0.371175 -0.386836 
-5.47972 -1.73408 2.6261 -0.844149 0.371175 -0.386836 
-5.55336 -1.94173 2.58794 -0.844149 0.371175 -0.386836 
-5.48227 -1.45562 2.89801 -0.844149 0.371175 -0.386836 
-5.29908 -1.43577 2.5178 -0.844149 0.371175 -0.386836 
-5.55883 -1.7227 2.80939 -0.844149 0.371175 -0.386836 
-5.54595 -1.43607 3.05548 -0.844149 0.371175 -0.386836 
-5.53843 -1.54833 2.93172 -0.844149 0.371175 -0.386836 
-5.39922 -1.54097 2.6354 -0.844149 0.371175 -0.386836 
-5.29019 -1.50467 2.43251 -0.844149 0.371175 -0.386836 
-5.21828 -1.54206 2.24005 -0.844149 0.371175 -0.386836 
-5.48811 -1.59039 2.78183 -0.844149 0.371175 -0.386836 
-5.2997 -1.71099 2.25587 -0.844149 0.371175 -0.386836 
-5.47396 -1.86416 2.4891 -0.844149 0.371175 -0.386836 
-5.41489 -1.85371 2.37036 -0.844149 0.371175 -0.386836 
-5.2893 -1.57609 2.36224 -0.844149 0.371175 -0.386836 
-5.20897 -1.45056 2.3073 -0.844149 0.371175 -0.386836 
-5.10665 -1.41281 2.12041 -0.844149 0.371175 -0.386836 
-5.35587 -1.69364 2.39487 -0.844149 0.371175 -0.386836 
-5.22977 -1.40361 2.39753 -0.844149 0.371175 -0.386836 
-5.19811 -1.60844 2.13259 -0.844149 0.371175 -0.386836 
-5.15739 -1.42679 2.21762 -0.844149 0.371175 -0.386836 
-5.43693 -1.76693 2.50143 -0.844149 0.371175 -0.386836 
-5.54724 -1.8517 2.66072 -0.844149 0.371175 -0.386836 
-5.41101 -1.39684 2.79897 -0.844149 0.371175 -0.386836 
-5.35598 -1.43997 2.63776 -0.844149 0.371175 -0.386836 
-5.08718 -1.47962 2.01409 -0.844149 0.371175 -0.386836 
-5.57933 -1.39614 3.16646 -0.844149 0.371175 -0.386836 
-5.52903 -1.75573 2.71284 -0.844149 0.371175 -0.386836 
-5.47523 -1.36978 2.96481 -0.844149 0.371175 -0.386836 
-5.44222 -1.64001 2.63437 -0.844149 0.371175 -0.386836 
-5.46755 -1.93044 2.41173 -0.844149 0.371175 -0.386836 
-5.35561 -1.7958 2.29657 -0.844149 0.371175 -0.386836 
-5.54279 -2.00712 2.50235 -0.844149 0.371175 -0.386836 
-5.24596 -1.29181 2.53975 -0.844149 0.371175 -0.386836 
-5.36365 -1.11376 2.96655 -0.844149 0.371175 -0.386836 
-5.47497 -1.2229 3.10475 -0.844149 0.371175 -0.386836 
-5.19673 -1.16945 2.54951 -0.844149 0.371175 -0.386836 
-5.04224 -0.943711 2.42879 -0.844149 0.371175 -0.386836 
-5.14799 -1.08025 2.52861 -0.844149 0.371175 -0.386836 
-5.13033 -1.26894 2.30964 -0.844149 0.371175 -0.386836 
-5.28804 -1.16403 2.7537 -0.844149 0.371175 -0.386836 
-5.40625 -1.24698 2.93194 -0.844149 0.371175 -0.386836 
-5.15519 -1.20568 2.42434 -0.844149 0.371175 -0.386836 
-5.20873 -0.971748 2.76479 -0.844149 0.371175 -0.386836 
-5.32718 -1.2837 2.72451 -0.844149 0.371175 -0.386836 
-5.2664 -1.2175 2.65537 -0.844149 0.371175 -0.386836 
-5.07433 -0.843986 2.59412 -0.844149 0.371175 -0.386836 
-5.08229 -1.08739 2.3786 -0.844149 0.371175 -0.386836 
-5.03295 -1.17345 2.18876 -0.844149 0.371175 -0.386836 
-5.02661 -1.39618 1.9619 -0.844149 0.371175 -0.386836 
-5.39228 -1.30231 2.84855 -0.844149 0.371175 -0.386836 
-5.02515 -1.3073 2.04374 -0.844149 0.371175 -0.386836 
-5.48563 -1.30784 3.04671 -0.844149 0.371175 -0.386836 
-5.14634 -0.984951 2.61619 -0.844149 0.371175 -0.386836 
-5.29283 -1.04768 2.87542 -0.844149 0.371175 -0.386836 
-5.2167 -1.05421 2.70327 -0.844149 0.371175 -0.386836 
-5.34792 -1.17699 2.87179 -0.844149 0.371175 -0.386836 
-5.13056 -0.897145 2.6658 -0.844149 0.371175 -0.386836 
-5.07109 -1.28729 2.163 -0.844149 0.371175 -0.386836 
-5.30695 -1.3389 2.62762 -0.844149 0.371175 -0.386836 
-5.07453 -0.769849 2.66548 -0.844149 0.371175 -0.386836 
-5.09063 -0.960753 2.51792 -0.844149 0.371175 -0.386836 
-5.04685 -1.10617 2.28342 -0.844149 0.371175 -0.386836 
-5.13334 -0.825661 2.74023 -0.844149 0.371175 -0.386836 
-5.54363 -1.30211 3.17861 -0.844149 0.371175 -0.386836 
-5.43553 -2.07941 2.54908 0.026695 -0.692665 -0.720765 
-5.26839 -2.14502 2.61831 0.026695 -0.692665 -0.720765 
-5.31253 -2.00121 2.47819 0.026695 -0.692665 -0.720765 
-4.96832 -2.05563 2.54302 0.026695 -0.692665 -0.720765 
-4.66887 -2.12385 2.61952 0.026695 -0.692665 -0.720765 
-4.53779 -2.03235 2.5361 0.026695 -0.692665 -0.720765 
-4.40449 -1.926 2.43845 0.026695 -0.692665 -0.720765 
-4.63499 -2.19982 2.69392 0.026695 -0.692665 -0.720765 
-5.10371 -1.97958 2.46488 0.026695 -0.692665 -0.720765 
-4.59508 -1.89083 2.39771 0.026695 -0.692665 -0.720765 
-4.75443 -2.04904 2.54437 0.026695 -0.692665 -0.720765 
-4.4014 -1.84501 2.36055 0.026695 -0.692665 -0.720765 
-4.89217 -2.28626 2.76793 0.026695 -0.692665 -0.720765 
-5.20661 -2.02339 2.50337 0.026695 -0.692665 -0.720765 
-5.07072 -2.1815 2.66058 0.026695 -0.692665 -0.720765 
-4.54531 -2.14571 2.64503 0.026695 -0.692665 -0.720765 
-4.87328 -2.19299 2.67875 0.026695 -0.692665 -0.720765 
-4.75514 -2.31914 2.80454 0.026695 -0.692665 -0.720765 
-4.30868 -1.89789 2.41483 0.026695 -0.692665 -0.720765 
-4.61057 -2.28582 2.77765 0.026695 -0.692665 -0.720765 
-4.90899 -1.9786 2.47096 0.026695 -0.692665 -0.720765 
-5.00612 -1.9389 2.42921 0.026695 -0.692665 -0.720765 
-4.18841 -1.80219 2.32698 0.026695 -0.692665 -0.720765 
-5.01498 -2.2626 2.74071 0.026695 -0.692665 -0.720765 
-4.88411 -2.12011 2.60816 0.026695 -0.692665 -0.720765 
-4.80516 -2.24921 2.73537 0.026695 -0.692665 -0.720765 
-4.79908 -1.97985 2.47611 0.026695 -0.692665 -0.720765 
-4.50314 -1.84786 2.35964 0.026695 -0.692665 -0.720765 
-4.74636 -1.90188 2.40291 0.026695 -0.692665 -0.720765 
-5.107 -2.07883 2.56036 0.026695 -0.692665 -0.720765 
-4.51645 -1.95883 2.46605 0.026695 -0.692665 -0.720765 
-4.41875 -2.06628 2.57307 0.026695 -0.692665 -0.720765 
-4.70503 -2.39721 2.88154 0.026695 -0.692665 -0.720765 
-4.30689 -1.81653 2.33653 0.026695 -0.692665 -0.720765 
-4.65282 -2.04189 2.54114 0.026695 -0.692665 -0.720765 
-4.65839 -1.94933 2.45178 0.026695 -0.692665 -0.720765 
-5.33323 -2.08511 2.55827 0.026695 -0.692665 -0.720765 
-4.74148 -2.19125 2.68183 0.026695 -0.692665 -0.720765 
-5.14757 -1.72009 2.21333 0.026695 -0.692665 -0.720765 
-4.44059 -1.73756 2.25563 0.026695 -0.692665 -0.720765 
-4.69409 -1.65642 2.16834 0.026695 -0.692665 -0.720765 
-4.84375 -1.58545 2.09459 0.026695 -0.692665 -0.720765 
-4.84898 -1.75673 2.25939 0.026695 -0.692665 -0.720765 
-5.04536 -1.58596 2.08781 0.026695 -0.692665 -0.720765 
-5.20039 -1.82291 2.31048 0.026695 -0.692665 -0.720765 
-5.2871 -1.92405 2.40478 0.026695 -0.692665 -0.720765 
-4.95924 -1.7697 2.26792 0.026695 -0.692665 -0.720765 
-4.63273 -1.81683 2.32508 0.026695 -0.692665 -0.720765 
-4.85976 -1.90512 2.40195 0.026695 -0.692665 -0.720765 
-5.00313 -1.69972 2.19891 0.026695 -0.692665 -0.720765 
-4.4913 -1.65011 2.16957 0.026695 -0.692665 -0.720765 
-4.98959 -1.52296 2.02913 0.026695 -0.692665 -0.720765 
-5.09584 -1.78557 2.27828 0.026695 -0.692665 -0.720765 
-4.88811 -1.83637 2.3347 0.026695 -0.692665 -0.720765 
-4.70444 -1.55807 2.07323 0.026695 -0.692665 -0.720765 
-4.94049 -1.45582 1.96623 0.026695 -0.692665 -0.720765 
-5.03416 -1.85564 2.34799 0.026695 -0.692665 -0.720765 
-5.17283 -1.91337 2.3986 0.026695 -0.692665 -0.720765 
-4.57977 -1.70834 2.22246 0.026695 -0.692665 -0.720765 
-4.73949 -1.73965 2.24688 0.026695 -0.692665 -0.720765 
-4.84968 -1.66791 2.17381 0.026695 -0.692665 -0.720765 
-4.78404 -1.83505 2.33717 0.026695 -0.692665 -0.720765 
-4.94666 -1.62053 2.12467 0.026695 -0.692665 -0.720765 
-4.61759 -1.59608 2.11297 0.026695 -0.692665 -0.720765 
-5.07811 -1.18364 3.08805 -0.0238402 0.694172 0.719414 
-5.0981 -1.49541 3.38765 -0.0238402 0.694172 0.719414 
-5.23182 -1.15651 3.05637 -0.0238402 0.694172 0.719414 
-4.79764 -1.67374 3.57025 -0.0238402 0.694172 0.719414 
-5.23362 -1.46768 3.35605 -0.0238402 0.694172 0.719414 
-4.99308 -1.33829 3.24008 -0.0238402 0.694172 0.719414 
-4.82594 -1.51952 3.42068 -0.0238402 0.694172 0.719414 
-4.88936 -1.40804 3.31102 -0.0238402 0.694172 0.719414 
-5.23556 -1.33822 3.23128 -0.0238402 0.694172 0.719414 
-4.95975 -1.11637 3.0275 -0.0238402 0.694172 0.719414 
-5.20103 -1.23642 3.13446 -0.0238402 0.694172 0.719414 
-5.09725 -1.27119 3.1717 -0.0238402 0.694172 0.719414 
-4.96713 -1.24948 3.15547 -0.0238402 0.694172 0.719414 
-4.8868 -1.33075 3.23664 -0.0238402 0.694172 0.719414 
-5.34899 -1.1739 3.06891 -0.0238402 0.694172 0.719414 
-5.34049 -1.25749 3.14974 -0.0238402 0.694172 0.719414 
-5.02999 -0.937068 2.85226 -0.0238402 0.694172 0.719414 
-5.32382 -1.39534 3.28312 -0.0238402 0.694172 0.719414 
-5.10793 -1.40773 3.30284 -0.0238402 0.694172 0.719414 
-4.87794 -1.61835 3.51401 -0.0238402 0.694172 0.719414 
-5.13358 -1.07538 2.98176 -0.0238402 0.694172 0.719414 
-5.18873 -0.993114 2.90052 -0.0238402 0.694172 0.719414 
-4.94412 -1.51871 3.41564 -0.0238402 0.694172 0.719414 
-4.95647 -1.01539 2.93035 -0.0238402 0.694172 0.719414 
-5.14695 -0.92087 2.83244 -0.0238402 0.694172 0.719414 
-5.44688 -1.37366 3.25781 -0.0238402 0.694172 0.719414 
-4.99694 -1.41709 3.31584 -0.0238402 0.694172 0.719414 
-5.02137 -1.57716 3.46917 -0.0238402 0.694172 0.719414 
-5.01337 -0.861664 2.78022 -0.0238402 0.694172 0.719414 
-5.42776 -1.30117 3.18866 -0.0238402 0.694172 0.719414 
-4.7314 -1.08922 3.0096 -0.0238402 0.694172 0.719414 
-4.57159 -1.00724 2.93637 -0.0238402 0.694172 0.719414 
-4.7249 -1.18102 3.09824 -0.0238402 0.694172 0.719414 
-4.82928 -1.06943 2.987 -0.0238402 0.694172 0.719414 
-4.521 -1.43394 3.34922 -0.0238402 0.694172 0.719414 
-4.86497 -1.18705 3.09901 -0.0238402 0.694172 0.719414 
-4.6026 -1.29941 3.21669 -0.0238402 0.694172 0.719414 
-4.72637 -1.52841 3.43283 -0.0238402 0.694172 0.719414 
-4.48926 -1.31992 3.24054 -0.0238402 0.694172 0.719414 
-4.95024 -0.793873 2.7172 -0.0238402 0.694172 0.719414 
-4.67741 -1.4011 3.31197 -0.0238402 0.694172 0.719414 
-4.22972 -1.10677 3.04456 -0.0238402 0.694172 0.719414 
-4.59274 -1.18541 3.10723 -0.0238402 0.694172 0.719414 
-4.77979 -1.32138 3.23148 -0.0238402 0.694172 0.719414 
-4.34461 -1.11145 3.04493 -0.0238402 0.694172 0.719414 
-4.86945 -0.895636 2.81813 -0.0238402 0.694172 0.719414 
-4.78628 -1.42785 3.33381 -0.0238402 0.694172 0.719414 
-4.87047 -0.971401 2.89107 -0.0238402 0.694172 0.719414 
-4.45438 -1.17651 3.10366 -0.0238402 0.694172 0.719414 
-4.43722 -1.0234 2.95678 -0.0238402 0.694172 0.719414 
-4.35826 -1.21032 3.13968 -0.0238402 0.694172 0.719414 
-4.61602 -1.53654 3.44464 -0.0238402 0.694172 0.719414 
-4.64251 -0.923721 2.85337 -0.0238402 0.694172 0.719414 
-4.51121 -1.10939 3.03694 -0.0238402 0.694172 0.719414 
-4.69592 -1.25552 3.17106 -0.0238402 0.694172 0.719414 
-4.67067 -1.62159 3.5246 -0.0238402 0.694172 0.719414 
-4.73667 -0.954208 2.87934 -0.0238402 0.694172 0.719414 
-4.82774 -0.827919 2.7544 -0.0238402 0.694172 0.719414 
-4.72187 -0.879768 2.80817 -0.0238402 0.694172 0.719414 
-4.76942 -1.59799 3.49831 -0.0238402 0.694172 0.719414 
-4.62163 -1.10056 3.02447 -0.0238402 0.694172 0.719414 
-4.49787 -1.24511 3.16816 -0.0238402 0.694172 0.719414 
-4.94884 -1.66696 3.46261 -0.535832 -0.616967 0.576399 
-5.35137 -1.56831 3.19418 -0.535832 -0.616967 0.576399 
-5.17023 -1.72903 3.19016 -0.535832 -0.616967 0.576399 
-5.34155 -1.73342 3.02616 -0.535832 -0.616967 0.576399 
-5.11534 -1.69135 3.28163 -0.535832 -0.616967 0.576399 
-5.04277 -1.81153 3.22017 -0.535832 -0.616967 0.576399 
-5.00361 -1.69487 3.38174 -0.535832 -0.616967 0.576399 
-5.5018 -1.71628 2.89554 -0.535832 -0.616967 0.576399 
-5.28064 -1.88666 2.91838 -0.535832 -0.616967 0.576399 
-5.23757 -1.75864 3.09578 -0.535832 -0.616967 0.576399 
-5.26538 -1.5952 3.24528 -0.535832 -0.616967 0.576399 
-5.48436 -1.54541 3.09508 -0.535832 -0.616967 0.576399 
-5.43676 -1.65145 3.02557 -0.535832 -0.616967 0.576399 
-5.32557 -1.50519 3.28588 -0.535832 -0.616967 0.576399 
-5.44879 -1.81004 2.84424 -0.535832 -0.616967 0.576399 
-5.37517 -1.80882 2.914 -0.535832 -0.616967 0.576399 
-5.10278 -1.60148 3.38973 -0.535832 -0.616967 0.576399 
-5.35634 -1.91795 2.81443 -0.535832 -0.616967 0.576399 
-5.11111 -1.8239 3.14335 -0.535832 -0.616967 0.576399 
-5.47431 -1.90689 2.7166 -0.535832 -0.616967 0.576399 
-4.91788 -1.76643 3.38469 -0.535832 -0.616967 0.576399 
-5.31211 -1.64788 3.14531 -0.535832 -0.616967 0.576399 
-5.20827 -1.88102 2.99173 -0.535832 -0.616967 0.576399 
-5.44412 -1.47821 3.2046 -0.535832 -0.616967 0.576399 
-5.18739 -1.60521 3.30706 -0.535832 -0.616967 0.576399 
-4.86036 -1.71626 3.49199 -0.535832 -0.616967 0.576399 
-4.79749 -2.17832 3.05471 -0.535832 -0.616967 0.576399 
-4.79702 -1.82037 3.43918 -0.535832 -0.616967 0.576399 
-5.0282 -2.08492 2.94039 -0.535832 -0.616967 0.576399 
-4.90456 -1.9217 3.23047 -0.535832 -0.616967 0.576399 
-4.81556 -2.00619 3.22259 -0.535832 -0.616967 0.576399 
-4.9824 -1.9216 3.1582 -0.535832 -0.616967 0.576399 
-4.88744 -2.21213 2.9348 -0.535832 -0.616967 0.576399 
-4.77788 -2.28259 2.96108 -0.535832 -0.616967 0.576399 
-5.17874 -2.11241 2.77093 -0.535832 -0.616967 0.576399 
-5.13226 -2.02411 2.90888 -0.535832 -0.616967 0.576399 
-4.73821 -2.13336 3.15807 -0.535832 -0.616967 0.576399 
-4.88532 -1.86045 3.31409 -0.535832 -0.616967 0.576399 
-5.05631 -1.94058 3.06913 -0.535832 -0.616967 0.576399 
-4.93731 -2.00644 3.10911 -0.535832 -0.616967 0.576399 
-5.26079 -2.02495 2.78847 -0.535832 -0.616967 0.576399 
-5.00773 -2.20668 2.8288 -0.535832 -0.616967 0.576399 
-5.39595 -2.01068 2.67811 -0.535832 -0.616967 0.576399 
-4.83748 -2.09147 3.11071 -0.535832 -0.616967 0.576399 
-4.75149 -1.92269 3.37174 -0.535832 -0.616967 0.576399 
-4.72807 -2.05236 3.2544 -0.535832 -0.616967 0.576399 
-4.94378 -2.11377 2.98794 -0.535832 -0.616967 0.576399 
-5.10024 -2.1818 2.76947 -0.535832 -0.616967 0.576399 
-4.8499 -2.29253 2.88345 -0.535832 -0.616967 0.576399 
-5.17071 -2.19125 2.69381 -0.535832 -0.616967 0.576399 
-5.23321 -1.96994 2.87313 -0.535832 -0.616967 0.576399 
-4.9688 -1.806 3.29487 -0.535832 -0.616967 0.576399 
-5.1019 -2.11081 2.8441 -0.535832 -0.616967 0.576399 
-4.73897 -1.79334 3.52217 -0.535832 -0.616967 0.576399 
-4.92365 -1.38061 2.05669 0.534714 0.619054 -0.575198 
-4.7614 -1.3176 2.27516 0.534714 0.619054 -0.575198 
-4.83265 -1.34616 2.17827 0.534714 0.619054 -0.575198 
-4.68563 -1.38611 2.2721 0.534714 0.619054 -0.575198 
-4.83998 -1.24785 2.27693 0.534714 0.619054 -0.575198 
-4.74519 -1.40759 2.19368 0.534714 0.619054 -0.575198 
-4.8344 -1.41392 2.10394 0.534714 0.619054 -0.575198 
-4.29136 -1.72864 2.27121 0.534714 0.619054 -0.575198 
-4.38243 -1.64976 2.27116 0.534714 0.619054 -0.575198 
-4.66603 -1.50202 2.16598 0.534714 0.619054 -0.575198 
-4.51293 -1.53445 2.27354 0.534714 0.619054 -0.575198 
-4.83338 -1.48594 2.02761 0.534714 0.619054 -0.575198 
-4.57799 -1.45535 2.29791 0.534714 0.619054 -0.575198 
-4.58148 -1.54421 2.19933 0.534714 0.619054 -0.575198 
-4.45701 -1.45708 2.40854 0.534714 0.619054 -0.575198 
-4.35639 -1.5805 2.36967 0.534714 0.619054 -0.575198 
-4.92909 -0.954218 2.5091 0.534714 0.619054 -0.575198 
-4.83575 -1.12617 2.4114 0.534714 0.619054 -0.575198 
-4.87404 -1.03932 2.46898 0.534714 0.619054 -0.575198 
-4.94914 -0.873198 2.57739 0.534714 0.619054 -0.575198 
-4.78943 -1.07399 2.51046 0.534714 0.619054 -0.575198 
-4.97899 -1.26166 2.13285 0.534714 0.619054 -0.575198 
-4.93981 -1.13972 2.3001 0.534714 0.619054 -0.575198 
-4.91476 -1.24564 2.20977 0.534714 0.619054 -0.575198 
-5.00144 -1.02844 2.36219 0.534714 0.619054 -0.575198 
-4.83128 -0.988765 2.56298 0.534714 0.619054 -0.575198 
-4.26019 -1.65666 2.37743 0.534714 0.619054 -0.575198 
-4.40892 -1.41971 2.49336 0.534714 0.619054 -0.575198 
-4.74584 -1.00395 2.62614 0.534714 0.619054 -0.575198 
-4.84764 -0.908004 2.63442 0.534714 0.619054 -0.575198 
-4.2981 -1.5568 2.4493 0.534714 0.619054 -0.575198 
-4.58731 -1.08639 2.68509 0.534714 0.619054 -0.575198 
-4.52462 -1.05253 2.77971 0.534714 0.619054 -0.575198 
-4.67114 -0.961706 2.74092 0.534714 0.619054 -0.575198 
-4.42053 -1.06957 2.85822 0.534714 0.619054 -0.575198 
-4.34591 -1.06117 2.93662 0.534714 0.619054 -0.575198 
-4.48493 -1.15492 2.70676 0.534714 0.619054 -0.575198 
-4.40429 -1.14546 2.7919 0.534714 0.619054 -0.575198 
-4.31215 -1.15417 2.86822 0.534714 0.619054 -0.575198 
-4.43367 -1.23735 2.66599 0.534714 0.619054 -0.575198 
-4.35775 -1.23579 2.73827 0.534714 0.619054 -0.575198 
-4.38814 -1.33552 2.60299 0.534714 0.619054 -0.575198 
-4.23244 -1.47154 2.60183 0.534714 0.619054 -0.575198 
-4.21928 -1.56192 2.51711 0.534714 0.619054 -0.575198 
-4.20739 -1.41265 2.68831 0.534714 0.619054 -0.575198 
-4.1966 -1.2689 2.85258 0.534714 0.619054 -0.575198 
-4.27118 -1.29006 2.76052 0.534714 0.619054 -0.575198 
-4.32102 -1.43282 2.56101 0.534714 0.619054 -0.575198 
-4.29968 -1.3516 2.668 0.534714 0.619054 -0.575198 
-4.21219 -1.17183 2.94223 0.534714 0.619054 -0.575198 
-4.70479 -2.21968 3.05433 0.844149 -0.371175 0.386836 
-4.58312 -2.0243 2.97607 0.844149 -0.371175 0.386836 
-4.64913 -1.85571 3.28119 0.844149 -0.371175 0.386836 
-4.6798 -1.7935 3.40755 0.844149 -0.371175 0.386836 
-4.57203 -1.65432 3.30583 0.844149 -0.371175 0.386836 
-4.56065 -1.86172 3.08261 0.844149 -0.371175 0.386836 
-4.65512 -2.23544 2.931 0.844149 -0.371175 0.386836 
-4.48793 -1.77755 3.00465 0.844149 -0.371175 0.386836 
-4.27238 -1.23211 3.05671 0.844149 -0.371175 0.386836 
-4.37795 -1.47015 3.05907 0.844149 -0.371175 0.386836 
-4.52784 -1.69752 3.16819 0.844149 -0.371175 0.386836 
-4.64196 -2.13858 2.99499 0.844149 -0.371175 0.386836 
-4.45965 -1.68426 3.0323 0.844149 -0.371175 0.386836 
-4.43447 -1.5378 3.11752 0.844149 -0.371175 0.386836 
-4.39878 -1.56336 3.01528 0.844149 -0.371175 0.386836 
-4.33698 -1.34398 3.09047 0.844149 -0.371175 0.386836 
-4.49296 -1.51906 3.26291 0.844149 -0.371175 0.386836 
-4.58144 -1.80668 3.18058 0.844149 -0.371175 0.386836 
-4.62617 -1.99815 3.09491 0.844149 -0.371175 0.386836 
-4.39256 -1.35505 3.20099 0.844149 -0.371175 0.386836 
-4.63434 -1.91146 3.19564 0.844149 -0.371175 0.386836 
-4.62987 -1.6511 3.43496 0.844149 -0.371175 0.386836 
-4.52439 -1.88521 2.98114 0.844149 -0.371175 0.386836 
-4.69052 -1.9476 3.28349 0.844149 -0.371175 0.386836 
-4.62208 -1.73613 3.33662 0.844149 -0.371175 0.386836 
-4.54311 -2.11439 2.80269 0.844149 -0.371175 0.386836 
-4.30999 -1.50157 2.88092 0.844149 -0.371175 0.386836 
-4.38405 -1.65719 2.89341 0.844149 -0.371175 0.386836 
-4.31596 -1.79107 2.61697 0.844149 -0.371175 0.386836 
-4.36282 -1.78568 2.72423 0.844149 -0.371175 0.386836 
-4.50945 -1.96183 2.8753 0.844149 -0.371175 0.386836 
-4.45191 -1.85202 2.85493 0.844149 -0.371175 0.386836 
-4.25092 -1.6097 2.64872 0.844149 -0.371175 0.386836 
-4.41053 -1.8718 2.74583 0.844149 -0.371175 0.386836 
-4.31247 -1.68352 2.71225 0.844149 -0.371175 0.386836 
-4.31485 -1.42894 2.96096 0.844149 -0.371175 0.386836 
-4.22904 -1.76445 2.45301 0.844149 -0.371175 0.386836 
-4.25528 -1.53989 2.725 0.844149 -0.371175 0.386836 
-4.38359 -1.90537 2.65503 0.844149 -0.371175 0.386836 
-4.21572 -1.66934 2.51498 0.844149 -0.371175 0.386836 
-4.35974 -1.96651 2.54455 0.844149 -0.371175 0.386836 
-4.45142 -2.02491 2.68847 0.844149 -0.371175 0.386836 
-4.32863 -1.61954 2.80865 0.844149 -0.371175 0.386836 
-4.25014 -1.3614 2.88456 0.844149 -0.371175 0.386836 
-4.28349 -1.8159 2.52248 0.844149 -0.371175 0.386836 
-4.22029 -1.38919 2.79293 0.844149 -0.371175 0.386836 
-4.29084 -1.33452 2.99896 0.844149 -0.371175 0.386836 
-4.39975 -1.74527 2.84338 0.844149 -0.371175 0.386836 
-4.60062 -2.15666 2.8876 0.844149 -0.371175 0.386836 
-4.49355 -2.01462 2.79014 0.844149 -0.371175 0.386836 
-4.35924 -0.791696 2.38901 -0.00973889 0.685896 0.727634 
-4.43501 -0.881705 2.47294 -0.00973889 0.685896 0.727634 
-4.25201 -0.663384 2.26937 -0.00973889 0.685896 0.727634 
-4.18574 -0.585168 2.19645 -0.00973889 0.685896 0.727634 
-4.07374 -0.460456 2.08027 -0.00972032 0.687365 0.726247 
-4.5174 -0.982644 2.56702 0.0238643 0.672411 0.739793 
-4.09284 -0.535152 2.14692 0.126293 0.616608 0.777074 
-4.25673 -0.743253 2.33801 0.157906 0.597034 0.786521 
-3.96666 -0.457381 2.06047 0.25679 0.5307 0.807723 
-4.33481 -0.880715 2.45544 0.25679 0.5307 0.807723 
-4.40906 -0.978089 2.54279 0.287519 0.507478 0.81228 
-4.08801 -0.623517 2.20721 0.320698 0.484996 0.813592 
-4.24863 -0.830742 2.3925 0.347704 0.458842 0.817659 
-4.46258 -1.07632 2.62187 0.347704 0.458842 0.817659 
-3.98036 -0.547022 2.1174 0.410376 0.407183 0.815962 
-4.15662 -0.749385 2.30646 0.410376 0.407183 0.815962 
-4.31732 -0.985963 2.50193 0.495977 0.321672 0.806557 
-4.06986 -0.723502 2.24406 0.55033 0.264974 0.791786 
-3.88211 -0.515545 2.04502 0.570987 0.238041 0.785691 
-3.97931 -0.647313 2.15522 0.600232 0.205221 0.77305 
-4.21527 -0.92401 2.41017 0.600232 0.205221 0.77305 
-4.34917 -1.08303 2.55534 0.620425 0.178353 0.763717 
-4.12056 -0.855517 2.31662 0.662867 0.114185 0.739979 
-4.36656 -1.18264 2.58477 0.722189 0.0181595 0.691458 
-3.90437 -0.644669 2.08756 0.722189 0.0181595 0.691458 
-4.23685 -1.03854 2.44524 0.739591 -0.0097132 0.672986 
-4.00407 -0.786141 2.19424 0.754305 -0.041041 0.65524 
-3.83364 -0.60385 2.0095 0.768383 -0.0735225 0.635754 
-4.1299 -0.967253 2.32403 0.794266 -0.135099 0.592359 
-3.92665 -0.74512 2.10199 0.805925 -0.167211 0.567913 
-4.26648 -1.14527 2.4646 0.814215 -0.196325 0.546361 
-4.06762 -0.927435 2.2459 0.823818 -0.225515 0.520064 
-4.32634 -1.2428 2.51488 0.834186 -0.287382 0.470686 
-4.20822 -1.11378 2.38289 0.840741 -0.313523 0.441428 
-3.85446 -0.721316 1.98908 0.844149 -0.371175 0.386836 
-4.15204 -1.06649 2.30736 0.844149 -0.371175 0.386836 
-3.97944 -0.861907 2.12696 0.844149 -0.371175 0.386836 
-4.26166 -1.21582 2.39368 0.838839 -0.474261 0.267255 
-3.9218 -0.821068 2.03278 0.838839 -0.474261 0.267255 
-4.03518 -0.953489 2.1519 0.838839 -0.474261 0.267255 
-4.10263 -1.04417 2.19308 0.81931 -0.545705 0.175889 
-4.33352 -1.31224 2.43495 0.811002 -0.566957 0.144343 
-3.82211 -0.722224 1.88467 0.811002 -0.566957 0.144343 
-4.20104 -1.16141 2.28318 0.800232 -0.589568 0.109721 
-3.88721 -0.800821 1.93677 0.788749 -0.609947 0.0764236 
-4.00529 -0.939008 2.04388 0.777484 -0.627369 0.0439016 
-4.26903 -1.2417 2.28492 0.71318 -0.695679 -0.0860483 
-3.96587 -0.891411 1.95489 0.71318 -0.695679 -0.0860483 
-4.08336 -1.02591 2.07367 0.694729 -0.709605 -0.117524 
-4.1829 -1.13961 2.17366 0.694729 -0.709605 -0.117524 
-4.34442 -1.32087 2.32346 0.654272 -0.733949 -0.182338 
-3.89178 -0.789943 1.80686 0.611415 -0.752874 -0.243623 
-4.17639 -1.10156 2.06951 0.534696 -0.775551 -0.33559 
-4.42183 -1.38603 2.33642 0.534696 -0.775551 -0.33559 
-4.05771 -0.95738 1.92609 0.5089 -0.780313 -0.3635 
-4.00332 -0.890549 1.85936 0.481451 -0.782966 -0.393915 
-4.30009 -1.23082 2.17419 0.481451 -0.782966 -0.393915 
-4.12703 -1.02879 1.98346 0.455084 -0.785466 -0.419455 
-4.25766 -1.15836 2.08655 0.396869 -0.785639 -0.474623 
-4.40659 -1.32479 2.23793 0.36657 -0.783201 -0.502218 
-3.95107 -0.775139 1.71228 0.307692 -0.776405 -0.55002 
-4.21953 -1.06943 1.98009 0.243153 -0.76397 -0.597685 
-4.50169 -1.3787 2.26304 0.209171 -0.757664 -0.618217 
-4.03072 -0.836724 1.75831 0.209171 -0.757664 -0.618217 
-4.15136 -0.975717 1.88781 0.209171 -0.757664 -0.618217 
-4.35455 -1.19915 2.09311 0.178762 -0.747135 -0.640183 
-4.11175 -0.907387 1.81866 0.14276 -0.737844 -0.659702 
-4.45824 -1.27932 2.16142 0.0768763 -0.715095 -0.694788 
-4.35106 -1.12449 2.0158 0.00973889 -0.685896 -0.727634 
-4.27233 -1.01457 1.91405 -0.0586758 -0.65402 -0.754198 
-4.05016 -0.750607 1.66853 -0.0586758 -0.65402 -0.754198 
-4.59575 -1.35359 2.23361 -0.123083 -0.615413 -0.778535 
-4.13451 -0.823334 1.73911 -0.123083 -0.615413 -0.778535 
-4.46031 -1.18266 2.07671 -0.157814 -0.593683 -0.789072 
-4.20498 -0.872564 1.79076 -0.190339 -0.574064 -0.79638 
-4.28447 -0.932929 1.85494 -0.257214 -0.528459 -0.809056 
-4.37097 -1.02983 1.94609 -0.287519 -0.507478 -0.81228 
-4.59376 -1.26985 2.17514 -0.317525 -0.481817 -0.816719 
-4.45747 -1.09902 2.02056 -0.347704 -0.458842 -0.817659 
-4.15657 -0.727017 1.6834 -0.379898 -0.430763 -0.818609 
-4.56187 -1.1853 2.1145 -0.409837 -0.403459 -0.81808 
-4.2467 -0.784451 1.75832 -0.466237 -0.348485 -0.813131 
-4.38323 -0.936987 1.90307 -0.493075 -0.325017 -0.806995 
-4.32075 -0.825372 1.82132 -0.546776 -0.264771 -0.794313 
-4.47893 -0.990979 1.98628 -0.573499 -0.234684 -0.784871 
-4.17346 -0.626501 1.65455 -0.595397 -0.204619 -0.776939 
-4.54678 -1.0657 2.05829 -0.595397 -0.204619 -0.776939 
-4.66597 -1.20133 2.18596 -0.595397 -0.204619 -0.776939 
-4.2518 -0.687644 1.73244 -0.640559 -0.142513 -0.754569 
-4.64253 -1.0999 2.14796 -0.700495 -0.0499335 -0.711908 
-4.40759 -0.800601 1.89487 -0.73833 0.00973317 -0.674369 
-4.46929 -0.882906 1.96105 -0.73833 0.00973317 -0.674369 
-4.75228 -1.19176 2.26596 -0.751679 0.0410522 -0.65825 
-4.24889 -0.582312 1.72813 -0.780479 0.103966 -0.616476 
-4.54497 -0.93437 2.04478 -0.780479 0.103966 -0.616476 
-4.31871 -0.660071 1.80381 -0.793166 0.135419 -0.593759 
-4.61614 -0.999307 2.12459 -0.793166 0.135419 -0.593759 
-4.38705 -0.696014 1.89207 -0.828333 0.258564 -0.497 
-4.70152 -1.05337 2.2331 -0.828333 0.258564 -0.497 
-4.50217 -0.804669 2.03118 -0.841099 0.343018 -0.4182 
-4.44009 -0.719744 1.9763 -0.844149 0.371175 -0.386836 
-4.58983 -0.894971 2.13499 -0.844149 0.371175 -0.386836 
-4.77123 -1.10273 2.33157 -0.844149 0.371175 -0.386836 
-4.23764 -0.481344 1.76388 -0.843851 0.399224 -0.358519 
-4.31038 -0.557921 1.85123 -0.841347 0.426137 -0.33248 
-4.64998 -0.953098 2.21219 -0.841347 0.426137 -0.33248 
-4.38335 -0.624415 1.96227 -0.826054 0.524841 -0.205372 
-4.71522 -1.00301 2.33166 -0.818318 0.547052 -0.176323 
-4.53239 -0.794529 2.12731 -0.818318 0.547052 -0.176323 
-4.59377 -0.856368 2.23321 -0.787478 0.611198 -0.0794702 
-4.4491 -0.688952 2.08202 -0.774975 0.630464 -0.04392 
-4.63938 -0.907555 2.30686 -0.760471 0.649251 -0.0125123 
-4.27151 -0.4831 1.91042 -0.760471 0.649251 -0.0125123 
-4.20907 -0.412201 1.86977 -0.730093 0.681516 0.0500064 
-4.72208 -1.00531 2.43168 -0.711743 0.697128 0.0862276 
-4.34089 -0.568098 2.0389 -0.693502 0.711322 0.114346 
-4.46377 -0.714734 2.19309 -0.651403 0.737235 0.179327 
-4.3776 -0.627329 2.13989 -0.584397 0.764943 0.270818 
-4.25699 -0.492517 2.0219 -0.562648 0.769855 0.301248 
-4.52363 -0.799639 2.30729 -0.562648 0.769855 0.301248 
-4.63679 -0.937469 2.44679 -0.531069 0.778152 0.335328 
-4.55529 -0.855197 2.3848 -0.480231 0.784216 0.392916 
-4.17443 -0.419543 1.98279 -0.480231 0.784216 0.392916 
-4.43709 -0.744562 2.30478 -0.396258 0.784429 0.477127 
-4.65314 -1.0038 2.55316 -0.365645 0.784445 0.500949 
-4.36904 -0.671562 2.24069 -0.365645 0.784445 0.500949 
-4.27663 -0.571987 2.15235 -0.365645 0.784445 0.500949 
-4.54208 -0.903683 2.47442 -0.273257 0.772387 0.573367 
-4.19914 -0.517704 2.11848 -0.239622 0.765849 0.596705 
-4.45904 -0.818278 2.39888 -0.239622 0.765849 0.596705 
-4.02349 -0.391115 2.00519 0.110615 0.854755 0.507107 
-4.09934 -0.363298 1.92562 -0.231798 0.934215 0.271133 
-3.98194 -0.348014 1.9226 0.0681258 0.871733 0.485223 
-3.91961 -0.310394 1.84655 0.0681258 0.871733 0.485223 
-4.05485 -0.329434 1.83863 -0.350547 0.923153 0.157816 
-4.15093 -0.386009 1.78172 -0.591294 0.774424 -0.225033 
-3.92353 -0.267865 1.74963 -0.23162 0.9335 0.273733 
-4.02949 -0.311957 1.73034 -0.526238 0.844562 -0.0989385 
-4.1728 -0.4965 1.68016 -0.617039 0.361713 -0.698875 
-4.09857 -0.386006 1.68804 -0.649216 0.588824 -0.48146 
-4.08058 -0.469174 1.61869 -0.548815 0.193074 -0.813341 
-4.0816 -0.589764 1.61489 -0.306886 -0.13384 -0.942289 
-4.01673 -0.355467 1.61884 -0.644023 0.482597 -0.593578 
-3.99676 -0.652087 1.62001 0.0248459 -0.398842 -0.916683 
-3.99181 -0.514358 1.57506 -0.267209 -0.172262 -0.948117 
-3.8946 -0.689784 1.67739 0.469522 -0.563093 -0.680055 
-3.89313 -0.588699 1.60376 0.248314 -0.507424 -0.825143 
-3.88138 -0.492961 1.55389 0.0438605 -0.405378 -0.913096 
-3.82427 -0.695035 1.78384 0.81623 -0.499765 -0.289832 
-3.81112 -0.612614 1.68945 0.727914 -0.546348 -0.4143 
-3.79046 -0.619889 1.88692 0.965169 -0.188866 0.181051 
-3.77279 -0.513549 1.62774 0.71148 -0.545634 -0.442809 
-3.76216 -0.557548 1.79089 0.953642 -0.294901 0.0600016 
-3.81012 -0.527375 1.947 0.862308 0.172462 0.476112 
-3.73233 -0.455676 1.7485 0.963427 -0.152532 0.220324 
-3.78378 -0.453612 1.87192 0.83894 0.216941 0.499116 
-3.85571 -0.422462 1.9436 0.583434 0.539465 0.60711 
-3.82919 -0.362714 1.86479 0.548671 0.572306 0.609447 
-3.85878 -0.368725 1.70128 0.534714 0.619054 -0.575198 
-3.84499 -0.443897 1.63345 0.534714 0.619054 -0.575198 
