ply
format ascii 1.0
comment Created by CloudCompare v2.11.3 (Anoia)
comment Created 15/04/2022 13:58
obj_info Generated by CloudCompare!
element vertex 841
property float x
property float y
property float z
property float nx
property float ny
property float nz
end_header
-1.30007 -5.1558 -0.0773809 -0.250337 -0.539547 -0.803878 
-1.19037 -5.00264 -0.214857 -0.250337 -0.539547 -0.803878 
-1.60331 -4.84014 -0.19436 -0.250337 -0.539547 -0.803878 
-1.15476 -5.10275 -0.158723 -0.250337 -0.539547 -0.803878 
-1.54688 -5.17157 0.0107825 -0.250337 -0.539547 -0.803878 
-1.24308 -5.28933 -0.00549594 -0.250337 -0.539547 -0.803878 
-1.44779 -4.95495 -0.16603 -0.250337 -0.539547 -0.803878 
-1.35197 -4.92073 -0.219158 -0.250337 -0.539547 -0.803878 
-1.35601 -4.97762 -0.17963 -0.250337 -0.539547 -0.803878 
-1.64373 -4.88153 -0.15383 -0.250337 -0.539547 -0.803878 
-1.35775 -4.95341 -0.195361 -0.250337 -0.539547 -0.803878 
-2.13626 -4.77454 -0.0709913 -0.250337 -0.539547 -0.803878 
-1.09294 -5.40657 0.0261619 -0.250337 -0.539547 -0.803878 
-1.28136 -5.12048 -0.107012 -0.250337 -0.539547 -0.803878 
-1.2696 -5.36795 0.0557095 -0.250337 -0.539547 -0.803878 
-1.10698 -5.39038 0.0196891 -0.250337 -0.539547 -0.803878 
-1.90509 -4.87123 -0.0786166 -0.250337 -0.539547 -0.803878 
-1.42238 -4.80332 -0.275985 -0.250337 -0.539547 -0.803878 
-1.16746 -5.20582 -0.0854183 -0.250337 -0.539547 -0.803878 
-1.47118 -5.12476 -0.0444859 -0.250337 -0.539547 -0.803878 
-1.2353 -4.85735 -0.298444 -0.250337 -0.539547 -0.803878 
-1.28581 -5.03913 -0.160323 -0.250337 -0.539547 -0.803878 
-1.37672 -4.9756 -0.17448 -0.250337 -0.539547 -0.803878 
-1.36215 -4.88754 -0.238276 -0.250337 -0.539547 -0.803878 
-1.289 -4.90728 -0.247988 -0.250337 -0.539547 -0.803878 
-1.32225 -4.95134 -0.207914 -0.250337 -0.539547 -0.803878 
-1.62266 -4.78223 -0.227225 -0.250337 -0.539547 -0.803878 
-1.35353 -5.22059 -0.0170143 -0.250337 -0.539547 -0.803878 
-1.41614 -4.99551 -0.148697 -0.250337 -0.539547 -0.803878 
-1.5704 -4.78154 -0.244112 -0.250337 -0.539547 -0.803878 
-1.28356 -4.9514 -0.220024 -0.250337 -0.539547 -0.803878 
-1.36845 -5.18844 -0.0339477 -0.250337 -0.539547 -0.803878 
-1.1383 -5.39368 0.0317521 -0.250337 -0.539547 -0.803878 
-1.20134 -5.40042 0.0560907 -0.250337 -0.539547 -0.803878 
-1.27388 -5.29353 0.0070093 -0.250337 -0.539547 -0.803878 
-1.27856 -5.06639 -0.144267 -0.250337 -0.539547 -0.803878 
-1.22393 -4.76085 -0.366908 -0.250337 -0.539547 -0.803878 
-1.46312 -5.0929 -0.0684442 -0.250337 -0.539547 -0.803878 
-1.55281 -4.97679 -0.118339 -0.250337 -0.539547 -0.803878 
-1.21739 -5.42912 0.0804417 -0.250337 -0.539547 -0.803878 
-1.58368 -4.91988 -0.146912 -0.250337 -0.539547 -0.803878 
-1.30667 -5.24469 -0.015533 -0.250337 -0.539547 -0.803878 
-1.90687 -4.88907 -0.066061 -0.250337 -0.539547 -0.803878 
-1.43558 -5.00356 -0.137176 -0.250337 -0.539547 -0.803878 
-1.21533 -5.22475 -0.0576483 -0.250337 -0.539547 -0.803878 
-1.79641 -4.81485 -0.150684 -0.250337 -0.539547 -0.803878 
-1.89381 -4.77142 -0.149283 -0.250337 -0.539547 -0.803878 
-1.61335 -4.93173 -0.129612 -0.250337 -0.539547 -0.803878 
-1.77727 -4.87181 -0.118394 -0.250337 -0.539547 -0.803878 
-1.28354 -4.87846 -0.269087 -0.250337 -0.539547 -0.803878 
-1.23663 -5.39913 0.0663139 -0.250337 -0.539547 -0.803878 
-1.53872 -4.81208 -0.233532 -0.250337 -0.539547 -0.803878 
-1.6447 -5.12633 0.0111031 -0.250337 -0.539547 -0.803878 
-1.25165 -5.35078 0.0385212 -0.250337 -0.539547 -0.803878 
-1.22932 -5.07817 -0.151819 -0.250337 -0.539547 -0.803878 
-1.27654 -5.20241 -0.053432 -0.250337 -0.539547 -0.803878 
-1.56388 -4.88991 -0.173285 -0.250337 -0.539547 -0.803878 
-2.05372 -4.81817 -0.067594 -0.250337 -0.539547 -0.803878 
-1.59454 -4.79595 -0.226836 -0.250337 -0.539547 -0.803878 
-1.37935 -4.74011 -0.332012 -0.250337 -0.539547 -0.803878 
-1.09254 -5.38398 0.0108485 -0.250337 -0.539547 -0.803878 
-1.35167 -5.08529 -0.108588 -0.250337 -0.539547 -0.803878 
-1.28441 -5.3594 0.0546111 -0.250337 -0.539547 -0.803878 
-1.43931 -4.86338 -0.230275 -0.250337 -0.539547 -0.803878 
-1.61882 -5.11034 -0.00778329 -0.250337 -0.539547 -0.803878 
-1.41668 -4.94322 -0.183699 -0.250337 -0.539547 -0.803878 
-1.28061 -5.32712 0.0317107 -0.250337 -0.539547 -0.803878 
-1.6192 -5.06959 -0.035069 -0.250337 -0.539547 -0.803878 
-1.26366 -5.07182 -0.145301 -0.250337 -0.539547 -0.803878 
-1.67367 -4.85802 -0.160231 -0.250337 -0.539547 -0.803878 
-1.63807 -4.84803 -0.178134 -0.250337 -0.539547 -0.803878 
-1.61157 -4.77052 -0.238587 -0.250337 -0.539547 -0.803878 
-1.70089 -4.74371 -0.228544 -0.250337 -0.539547 -0.803878 
-1.29207 -5.12106 -0.103257 -0.250337 -0.539547 -0.803878 
-1.32809 -5.08445 -0.116559 -0.250337 -0.539547 -0.803878 
-1.51914 -5.10099 -0.0453998 -0.250337 -0.539547 -0.803878 
-1.10095 -5.34104 -0.0153917 -0.250337 -0.539547 -0.803878 
-1.40409 -4.937 -0.191835 -0.250337 -0.539547 -0.803878 
-2.03181 -4.75769 -0.115148 -0.250337 -0.539547 -0.803878 
-2.0946 -4.77434 -0.0842204 -0.250337 -0.539547 -0.803878 
-1.46907 -5.16665 -0.0169766 -0.250337 -0.539547 -0.803878 
-1.80902 -5.01818 -0.00998774 -0.250337 -0.539547 -0.803878 
-1.5784 -5.05338 -0.0587905 -0.250337 -0.539547 -0.803878 
-1.65533 -4.91143 -0.130071 -0.250337 -0.539547 -0.803878 
-1.63206 -4.96797 -0.099361 -0.250337 -0.539547 -0.803878 
-1.99223 -4.85101 -0.0648288 -0.250337 -0.539547 -0.803878 
-1.16479 -5.19008 -0.0968481 -0.250337 -0.539547 -0.803878 
-1.16281 -5.1129 -0.149369 -0.250337 -0.539547 -0.803878 
-1.23406 -4.93964 -0.243492 -0.250337 -0.539547 -0.803878 
-1.73625 -4.80788 -0.174281 -0.250337 -0.539547 -0.803878 
-1.40966 -5.11307 -0.0716783 -0.250337 -0.539547 -0.803878 
-1.33363 -5.01663 -0.160427 -0.250337 -0.539547 -0.803878 
-1.18521 -5.04985 -0.184728 -0.250337 -0.539547 -0.803878 
-1.1522 -5.26988 -0.0471352 -0.250337 -0.539547 -0.803878 
-1.73391 -4.74914 -0.214519 -0.250337 -0.539547 -0.803878 
-1.31141 -5.26871 0.00211081 -0.250337 -0.539547 -0.803878 
-1.2699 -5.35759 0.0488352 -0.250337 -0.539547 -0.803878 
-1.2296 -5.23364 -0.0471835 -0.250337 -0.539547 -0.803878 
-1.40375 -4.86984 -0.237104 -0.250337 -0.539547 -0.803878 
-2.10848 -4.7506 -0.0958201 -0.250337 -0.539547 -0.803878 
-1.08382 -5.55253 0.121454 -0.250337 -0.539547 -0.803878 
-1.71968 -5.00461 -0.0471878 -0.250337 -0.539547 -0.803878 
-1.86774 -4.94748 -0.03908 -0.250337 -0.539547 -0.803878 
-1.16752 -5.0745 -0.173711 -0.250337 -0.539547 -0.803878 
-1.30694 -4.84368 -0.28512 -0.250337 -0.539547 -0.803878 
-1.1987 -4.94143 -0.253404 -0.250337 -0.539547 -0.803878 
-1.53337 -4.96714 -0.130937 -0.250337 -0.539547 -0.803878 
-2.01607 -4.8515 -0.057006 -0.250337 -0.539547 -0.803878 
-1.23621 -5.13729 -0.109902 -0.250337 -0.539547 -0.803878 
-1.63088 -5.08683 -0.0198051 -0.250337 -0.539547 -0.803878 
-1.55116 -4.84707 -0.206091 -0.250337 -0.539547 -0.803878 
-1.24205 -5.20104 -0.0651959 -0.250337 -0.539547 -0.803878 
-1.56532 -4.86482 -0.189705 -0.250337 -0.539547 -0.803878 
-1.83635 -4.80265 -0.146339 -0.250337 -0.539547 -0.803878 
-1.42677 -5.08455 -0.0854835 -0.250337 -0.539547 -0.803878 
-1.72314 -4.80233 -0.182128 -0.250337 -0.539547 -0.803878 
-1.66575 -5.08661 -0.00899157 -0.250337 -0.539547 -0.803878 
-1.77728 -4.7537 -0.197822 -0.250337 -0.539547 -0.803878 
-1.62735 -4.88885 -0.154051 -0.250337 -0.539547 -0.803878 
-1.37242 -5.15429 -0.0556636 -0.250337 -0.539547 -0.803878 
-1.84062 -4.75394 -0.177753 -0.250337 -0.539547 -0.803878 
-1.50027 -5.03907 -0.0929711 -0.250337 -0.539547 -0.803878 
-1.65187 -4.94793 -0.106618 -0.250337 -0.539547 -0.803878 
-2.0279 -4.83853 -0.0620162 -0.250337 -0.539547 -0.803878 
-1.56712 -4.80904 -0.226655 -0.250337 -0.539547 -0.803878 
-1.20873 -4.90366 -0.275652 -0.250337 -0.539547 -0.803878 
-1.97273 -4.76306 -0.130107 -0.250337 -0.539547 -0.803878 
-1.3761 -4.87419 -0.242869 -0.250337 -0.539547 -0.803878 
-1.32353 -5.2038 -0.0377286 -0.250337 -0.539547 -0.803878 
-1.29081 -4.81332 -0.310606 -0.250337 -0.539547 -0.803878 
-1.73719 -4.7822 -0.191253 -0.250337 -0.539547 -0.803878 
-1.33447 -4.81821 -0.293597 -0.250337 -0.539547 -0.803878 
-1.5401 -5.20253 0.0294711 -0.250337 -0.539547 -0.803878 
-1.97733 -4.88992 -0.0433447 -0.250337 -0.539547 -0.803878 
-1.51504 -4.98381 -0.125489 -0.250337 -0.539547 -0.803878 
-1.31139 -4.8566 -0.275034 -0.250337 -0.539547 -0.803878 
-1.77616 -5.02674 -0.0145613 -0.250337 -0.539547 -0.803878 
-1.18829 -5.07727 -0.165327 -0.250337 -0.539547 -0.803878 
-1.30829 -5.16816 -0.066492 -0.250337 -0.539547 -0.803878 
-1.43551 -4.96354 -0.164112 -0.250337 -0.539547 -0.803878 
-1.40787 -5.1457 -0.0502973 -0.250337 -0.539547 -0.803878 
-1.86813 -4.77687 -0.153688 -0.250337 -0.539547 -0.803878 
-1.73731 -4.83785 -0.153791 -0.250337 -0.539547 -0.803878 
-1.38323 -5.02908 -0.136463 -0.250337 -0.539547 -0.803878 
-1.26927 -4.81423 -0.316765 -0.250337 -0.539547 -0.803878 
-1.8354 -4.82805 -0.129557 -0.250337 -0.539547 -0.803878 
-1.3534 -4.77737 -0.315115 -0.250337 -0.539547 -0.803878 
-1.54809 -5.21052 0.0373605 -0.250337 -0.539547 -0.803878 
-1.20665 -5.14612 -0.113255 -0.250337 -0.539547 -0.803878 
-1.29542 -4.83421 -0.295109 -0.250337 -0.539547 -0.803878 
-1.53679 -5.04058 -0.0804719 -0.250337 -0.539547 -0.803878 
-1.36418 -5.32271 0.055008 -0.250337 -0.539547 -0.803878 
-1.45135 -4.93099 -0.181022 -0.250337 -0.539547 -0.803878 
-1.24949 -5.11454 -0.121026 -0.250337 -0.539547 -0.803878 
-1.45033 -5.20969 0.00608169 -0.250337 -0.539547 -0.803878 
-1.32758 -4.943 -0.211847 -0.250337 -0.539547 -0.803878 
-1.24348 -4.96381 -0.224276 -0.250337 -0.539547 -0.803878 
-1.28324 -5.34683 0.0457908 -0.250337 -0.539547 -0.803878 
-1.13745 -5.40583 0.0396544 -0.250337 -0.539547 -0.803878 
-1.73204 -4.88152 -0.12608 -0.250337 -0.539547 -0.803878 
-1.93111 -4.75193 -0.150667 -0.250337 -0.539547 -0.803878 
-1.74551 -4.96075 -0.0685703 -0.250337 -0.539547 -0.803878 
-1.82808 -4.81196 -0.142674 -0.250337 -0.539547 -0.803878 
-1.44804 -4.84801 -0.237868 -0.250337 -0.539547 -0.803878 
-1.26652 -5.17622 -0.0741933 -0.250337 -0.539547 -0.803878 
-1.19149 -5.20747 -0.0767611 -0.250337 -0.539547 -0.803878 
-1.24792 -5.18512 -0.074057 -0.250337 -0.539547 -0.803878 
-1.19983 -5.01019 -0.206809 -0.250337 -0.539547 -0.803878 
-1.44682 -5.27982 0.0521375 -0.250337 -0.539547 -0.803878 
-1.80854 -4.7858 -0.166409 -0.250337 -0.539547 -0.803878 
-1.15413 -5.47868 0.0938865 -0.250337 -0.539547 -0.803878 
-1.34673 -5.02018 -0.153925 -0.250337 -0.539547 -0.803878 
-1.90664 -4.90292 -0.0568174 -0.250337 -0.539547 -0.803878 
-1.85172 -4.83294 -0.12114 -0.250337 -0.539547 -0.803878 
-1.09364 -5.465 0.0656738 -0.250337 -0.539547 -0.803878 
-1.45569 -4.97054 -0.153065 -0.250337 -0.539547 -0.803878 
-1.7884 -4.99951 -0.029023 -0.250337 -0.539547 -0.803878 
-1.25419 -4.86709 -0.285958 -0.250337 -0.539547 -0.803878 
-1.32135 -5.02969 -0.155507 -0.250337 -0.539547 -0.803878 
-1.63322 -5.09462 -0.0138315 -0.250337 -0.539547 -0.803878 
-1.24614 -4.90994 -0.259667 -0.250337 -0.539547 -0.803878 
-1.87358 -4.79834 -0.137539 -0.250337 -0.539547 -0.803878 
-1.9514 -4.76395 -0.136207 -0.250337 -0.539547 -0.803878 
-1.45002 -4.91218 -0.194095 -0.250337 -0.539547 -0.803878 
-1.21347 -5.21172 -0.0669964 -0.250337 -0.539547 -0.803878 
-1.39996 -4.97551 -0.167233 -0.250337 -0.539547 -0.803878 
-1.47765 -4.96831 -0.147659 -0.250337 -0.539547 -0.803878 
-1.72964 -4.81668 -0.170435 -0.250337 -0.539547 -0.803878 
-1.28583 -5.05455 -0.149945 -0.250337 -0.539547 -0.803878 
-2.02172 -4.76608 -0.112674 -0.250337 -0.539547 -0.803878 
-1.76514 -4.98983 -0.042841 -0.250337 -0.539547 -0.803878 
-1.2726 -4.9674 -0.212712 -0.250337 -0.539547 -0.803878 
-1.89676 -4.81363 -0.119975 -0.250337 -0.539547 -0.803878 
-1.33347 -4.7779 -0.321019 -0.250337 -0.539547 -0.803878 
-1.19761 -5.37482 0.0377064 -0.250337 -0.539547 -0.803878 
-1.65062 -4.93359 -0.116655 -0.250337 -0.539547 -0.803878 
-1.42896 -5.0369 -0.11684 -0.250337 -0.539547 -0.803878 
-1.22267 -4.80959 -0.334528 -0.250337 -0.539547 -0.803878 
-1.72618 -5.0605 -0.00756297 -0.250337 -0.539547 -0.803878 
-1.52875 -5.21462 0.0340405 -0.250337 -0.539547 -0.803878 
-1.46175 -5.0222 -0.116416 -0.250337 -0.539547 -0.803878 
-1.3439 -5.2952 0.0301372 -0.250337 -0.539547 -0.803878 
-1.1817 -5.23397 -0.0620112 -0.250337 -0.539547 -0.803878 
-1.55242 -4.90159 -0.169033 -0.250337 -0.539547 -0.803878 
-1.4739 -5.15507 -0.0232452 -0.250337 -0.539547 -0.803878 
-1.32966 -4.91366 -0.230919 -0.250337 -0.539547 -0.803878 
-1.71416 -5.01407 -0.0425584 -0.250337 -0.539547 -0.803878 
-1.24093 -5.2586 -0.0268382 -0.250337 -0.539547 -0.803878 
-1.44379 -4.83209 -0.249913 -0.250337 -0.539547 -0.803878 
-1.32379 -4.7695 -0.329713 -0.250337 -0.539547 -0.803878 
-1.16902 -5.37902 0.0315453 -0.250337 -0.539547 -0.803878 
-1.57892 -4.93085 -0.141029 -0.250337 -0.539547 -0.803878 
-1.27492 -5.33698 0.0365576 -0.250337 -0.539547 -0.803878 
-1.19298 -4.89803 -0.284387 -0.250337 -0.539547 -0.803878 
-1.38285 -4.89402 -0.227413 -0.250337 -0.539547 -0.803878 
-1.75918 -4.8592 -0.132561 -0.250337 -0.539547 -0.803878 
-1.36588 -5.31352 0.0493646 -0.250337 -0.539547 -0.803878 
-1.23713 -5.16883 -0.0884029 -0.250337 -0.539547 -0.803878 
-1.41187 -5.18553 -0.0222511 -0.250337 -0.539547 -0.803878 
-1.61512 -5.05481 -0.0462873 -0.250337 -0.539547 -0.803878 
-1.89786 -4.83649 -0.10425 -0.250337 -0.539547 -0.803878 
-2.06564 -4.80966 -0.0695707 -0.250337 -0.539547 -0.803878 
-1.40947 -4.75538 -0.312281 -0.250337 -0.539547 -0.803878 
-1.22666 -4.84988 -0.306183 -0.250337 -0.539547 -0.803878 
-1.35574 -5.0068 -0.16009 -0.250337 -0.539547 -0.803878 
-1.14947 -5.15606 -0.124533 -0.250337 -0.539547 -0.803878 
-1.83828 -4.9079 -0.0749514 -0.250337 -0.539547 -0.803878 
-1.71798 -4.86663 -0.140514 -0.250337 -0.539547 -0.803878 
-1.79123 -4.96236 -0.0531133 -0.250337 -0.539547 -0.803878 
-1.8052 -4.8872 -0.0992652 -0.250337 -0.539547 -0.803878 
-1.17614 -5.30909 -0.0132424 -0.250337 -0.539547 -0.803878 
-1.23774 -4.84608 -0.305256 -0.250337 -0.539547 -0.803878 
-1.59495 -4.81425 -0.214398 -0.250337 -0.539547 -0.803878 
-1.14233 -5.28585 -0.0394982 -0.250337 -0.539547 -0.803878 
-1.73166 -4.77153 -0.200166 -0.250337 -0.539547 -0.803878 
-1.46451 -4.82013 -0.251441 -0.250337 -0.539547 -0.803878 
-1.52528 -5.09073 -0.0503639 -0.250337 -0.539547 -0.803878 
-1.33305 -4.75571 -0.336077 -0.250337 -0.539547 -0.803878 
-1.25728 -5.00031 -0.195392 -0.250337 -0.539547 -0.803878 
-1.35272 -4.78793 -0.308224 -0.250337 -0.539547 -0.803878 
-1.06578 -5.52816 0.0993972 -0.250337 -0.539547 -0.803878 
-1.34941 -5.24198 -0.00392072 -0.250337 -0.539547 -0.803878 
-1.60828 -4.95765 -0.113776 -0.250337 -0.539547 -0.803878 
-1.11317 -5.50664 0.0998176 -0.250337 -0.539547 -0.803878 
-1.85198 -4.87459 -0.0930507 -0.250337 -0.539547 -0.803878 
-1.44452 -5.17558 -0.018683 -0.250337 -0.539547 -0.803878 
-1.31661 -5.33562 0.04874 -0.250337 -0.539547 -0.803878 
-1.21916 -4.86283 -0.299832 -0.250337 -0.539547 -0.803878 
-1.3605 -4.80222 -0.296175 -0.250337 -0.539547 -0.803878 
-1.21548 -4.83491 -0.319765 -0.250337 -0.539547 -0.803878 
-1.88201 -4.93336 -0.0440898 -0.250337 -0.539547 -0.803878 
-1.25194 -5.20234 -0.0612085 -0.250337 -0.539547 -0.803878 
-1.49314 -4.79584 -0.258781 -0.250337 -0.539547 -0.803878 
-1.95484 -4.88931 -0.0508246 -0.250337 -0.539547 -0.803878 
-1.26637 -5.25527 -0.0210844 -0.250337 -0.539547 -0.803878 
-1.44984 -4.75738 -0.298251 -0.250337 -0.539547 -0.803878 
-1.55638 -4.93967 -0.142175 -0.250337 -0.539547 -0.803878 
-1.53605 -5.16863 0.00540385 -0.250337 -0.539547 -0.803878 
-1.63656 -5.07483 -0.0260907 -0.250337 -0.539547 -0.803878 
-1.90678 -4.80689 -0.121357 -0.250337 -0.539547 -0.803878 
-1.26276 -5.13408 -0.103716 -0.250337 -0.539547 -0.803878 
-1.84547 -4.80599 -0.141229 -0.250337 -0.539547 -0.803878 
-1.3765 -5.11515 -0.0807017 -0.250337 -0.539547 -0.803878 
-1.52523 -4.91106 -0.171204 -0.250337 -0.539547 -0.803878 
-1.30186 -4.78002 -0.329527 -0.250337 -0.539547 -0.803878 
-1.27606 -5.05346 -0.153749 -0.250337 -0.539547 -0.803878 
-1.38356 -5.09581 -0.0914881 -0.250337 -0.539547 -0.803878 
-1.51075 -4.82359 -0.234584 -0.250337 -0.539547 -0.803878 
-1.3169 -5.25225 -0.0072345 -0.250337 -0.539547 -0.803878 
-1.43937 -4.79085 -0.279029 -0.250337 -0.539547 -0.803878 
-1.34708 -5.2849 0.0242079 -0.250337 -0.539547 -0.803878 
-1.82917 -4.97838 -0.0304226 -0.250337 -0.539547 -0.803878 
-1.55881 -4.78356 -0.246396 -0.250337 -0.539547 -0.803878 
-1.2495 -4.82484 -0.315846 -0.250337 -0.539547 -0.803878 
-1.15394 -5.42277 0.0562253 -0.250337 -0.539547 -0.803878 
-1.31663 -5.09541 -0.112792 -0.250337 -0.539547 -0.803878 
-1.47045 -5.07023 -0.0813867 -0.250337 -0.539547 -0.803878 
-1.87979 -4.91266 -0.0587107 -0.250337 -0.539547 -0.803878 
-1.18917 -5.03117 -0.196043 -0.250337 -0.539547 -0.803878 
-1.55089 -5.02426 -0.0870224 -0.250337 -0.539547 -0.803878 
-1.42026 -5.02539 -0.127312 -0.250337 -0.539547 -0.803878 
-1.31324 -4.74529 -0.349306 -0.250337 -0.539547 -0.803878 
-1.22083 -5.34782 0.0268467 -0.250337 -0.539547 -0.803878 
-2.07748 -4.79229 -0.0775317 -0.250337 -0.539547 -0.803878 
-1.27392 -5.13938 -0.0966439 -0.250337 -0.539547 -0.803878 
-1.64215 -4.98008 -0.0880492 -0.250337 -0.539547 -0.803878 
-1.52483 -5.19495 0.0195787 -0.250337 -0.539547 -0.803878 
-1.3204 -5.34718 0.0577035 -0.250337 -0.539547 -0.803878 
-1.38591 -5.00816 -0.149692 -0.250337 -0.539547 -0.803878 
-1.62592 -4.98489 -0.0899161 -0.250337 -0.539547 -0.803878 
-1.17738 -5.29605 -0.021625 -0.250337 -0.539547 -0.803878 
-1.46044 -5.10722 -0.0596553 -0.250337 -0.539547 -0.803878 
-1.24583 -4.89442 -0.270207 -0.250337 -0.539547 -0.803878 
-1.50435 -5.10894 -0.044699 -0.250337 -0.539547 -0.803878 
-1.65804 -4.85209 -0.169126 -0.250337 -0.539547 -0.803878 
-2.01328 -4.80112 -0.0917664 -0.250337 -0.539547 -0.803878 
-1.13443 -5.33868 -0.00645097 -0.250337 -0.539547 -0.803878 
-1.95993 -5.51554 0.54057 0.174304 -0.841726 0.510995 
-1.90276 -5.41166 0.692144 0.174304 -0.841726 0.510995 
-1.80037 -5.48853 0.531305 0.174304 -0.841726 0.510995 
-1.60769 -5.30615 0.766362 0.174304 -0.841726 0.510995 
-1.59233 -5.262 0.833788 0.174304 -0.841726 0.510995 
-1.45947 -5.13932 0.990797 0.174304 -0.841726 0.510995 
-1.28184 -5.11373 0.973113 0.174304 -0.841726 0.510995 
-1.85895 -5.48564 0.555759 0.174304 -0.841726 0.510995 
-1.31737 -5.11498 0.983012 0.174304 -0.841726 0.510995 
-1.08888 -5.09292 0.942427 0.174304 -0.841726 0.510995 
-1.50608 -5.09377 1.08138 0.174304 -0.841726 0.510995 
-1.57241 -5.29748 0.768747 0.174304 -0.841726 0.510995 
-1.63274 -5.39925 0.621705 0.174304 -0.841726 0.510995 
-1.19088 -5.19587 0.807454 0.174304 -0.841726 0.510995 
-1.59893 -5.11868 1.07166 0.174304 -0.841726 0.510995 
-1.74139 -5.45696 0.563372 0.174304 -0.841726 0.510995 
-1.45043 -5.20861 0.873825 0.174304 -0.841726 0.510995 
-1.75969 -5.4619 0.561404 0.174304 -0.841726 0.510995 
-1.01146 -5.12313 0.866703 0.174304 -0.841726 0.510995 
-1.7681 -5.18035 1.02717 0.174304 -0.841726 0.510995 
-1.37076 -5.16679 0.915798 0.174304 -0.841726 0.510995 
-1.44206 -5.18024 0.917668 0.174304 -0.841726 0.510995 
-1.74613 -5.43029 0.608822 0.174304 -0.841726 0.510995 
-1.68743 -5.36999 0.688215 0.174304 -0.841726 0.510995 
-1.23383 -5.2021 0.811663 0.174304 -0.841726 0.510995 
-1.50802 -5.14801 0.992846 0.174304 -0.841726 0.510995 
-1.79696 -5.30487 0.832132 0.174304 -0.841726 0.510995 
-1.10641 -5.07994 0.969657 0.174304 -0.841726 0.510995 
-1.57292 -5.3693 0.650828 0.174304 -0.841726 0.510995 
-1.39244 -5.07294 1.0774 0.174304 -0.841726 0.510995 
-1.79707 -5.47961 0.544864 0.174304 -0.841726 0.510995 
-1.66812 -5.20797 0.948114 0.174304 -0.841726 0.510995 
-1.7018 -5.10336 1.13146 0.174304 -0.841726 0.510995 
-0.995063 -5.05906 0.966531 0.174304 -0.841726 0.510995 
-1.77007 -5.29476 0.83971 0.174304 -0.841726 0.510995 
-1.5687 -5.04871 1.17653 0.174304 -0.841726 0.510995 
-1.47987 -5.12624 1.01917 0.174304 -0.841726 0.510995 
-1.74241 -5.39856 0.659735 0.174304 -0.841726 0.510995 
-1.49423 -5.30849 0.724343 0.174304 -0.841726 0.510995 
-1.36762 -5.07999 1.05746 0.174304 -0.841726 0.510995 
-1.65752 -5.34536 0.71865 0.174304 -0.841726 0.510995 
-1.36255 -5.21847 0.828062 0.174304 -0.841726 0.510995 
-1.80978 -5.29752 0.848537 0.174304 -0.841726 0.510995 
-1.53678 -5.32582 0.710169 0.174304 -0.841726 0.510995 
-1.86503 -5.41642 0.671613 0.174304 -0.841726 0.510995 
-1.52598 -5.36947 0.634755 0.174304 -0.841726 0.510995 
-1.44393 -5.08589 1.07343 0.174304 -0.841726 0.510995 
-1.21976 -5.13162 0.922824 0.174304 -0.841726 0.510995 
-1.46286 -5.19341 0.903004 0.174304 -0.841726 0.510995 
-1.85163 -5.30202 0.855219 0.174304 -0.841726 0.510995 
-1.77813 -5.28634 0.856262 0.174304 -0.841726 0.510995 
-1.85738 -5.44793 0.617234 0.174304 -0.841726 0.510995 
-1.62399 -5.1221 1.07447 0.174304 -0.841726 0.510995 
-1.26952 -5.11642 0.964559 0.174304 -0.841726 0.510995 
-1.50362 -5.22781 0.860158 0.174304 -0.841726 0.510995 
-1.42742 -5.23424 0.823944 0.174304 -0.841726 0.510995 
-1.876 -5.40366 0.696289 0.174304 -0.841726 0.510995 
-1.24374 -5.194 0.828321 0.174304 -0.841726 0.510995 
-1.54121 -5.09765 1.08681 0.174304 -0.841726 0.510995 
-1.90113 -5.50786 0.533422 0.174304 -0.841726 0.510995 
-1.24205 -5.16024 0.883261 0.174304 -0.841726 0.510995 
-1.46831 -5.09487 1.06686 0.174304 -0.841726 0.510995 
-1.36839 -5.11588 0.998707 0.174304 -0.841726 0.510995 
-0.956987 -5.07738 0.923596 0.174304 -0.841726 0.510995 
-1.41738 -5.28966 0.729454 0.174304 -0.841726 0.510995 
-1.30285 -5.15134 0.918348 0.174304 -0.841726 0.510995 
-0.821192 -5.04018 0.939084 0.174304 -0.841726 0.510995 
-1.88289 -5.36359 0.764488 0.174304 -0.841726 0.510995 
-1.38956 -5.15274 0.945212 0.174304 -0.841726 0.510995 
-0.955196 -5.0903 0.901759 0.174304 -0.841726 0.510995 
-1.88783 -5.49267 0.553928 0.174304 -0.841726 0.510995 
-1.41973 -5.24964 0.796048 0.174304 -0.841726 0.510995 
-1.72956 -5.2092 0.96677 0.174304 -0.841726 0.510995 
-1.73522 -5.41274 0.634003 0.174304 -0.841726 0.510995 
-1.58051 -5.04741 1.18264 0.174304 -0.841726 0.510995 
-1.72315 -5.18982 0.996483 0.174304 -0.841726 0.510995 
-1.82812 -5.41492 0.661666 0.174304 -0.841726 0.510995 
-1.8329 -5.24708 0.93925 0.174304 -0.841726 0.510995 
-1.60808 -5.24153 0.872739 0.174304 -0.841726 0.510995 
-0.911962 -5.05907 0.938564 0.174304 -0.841726 0.510995 
-1.77813 -5.21563 0.972529 0.174304 -0.841726 0.510995 
-1.35633 -5.06377 1.08032 0.174304 -0.841726 0.510995 
-1.21558 -5.17226 0.854598 0.174304 -0.841726 0.510995 
-1.89242 -5.38451 0.733303 0.174304 -0.841726 0.510995 
-1.68023 -5.34206 0.731724 0.174304 -0.841726 0.510995 
-1.34331 -5.13824 0.953501 0.174304 -0.841726 0.510995 
-1.75451 -5.22074 0.956177 0.174304 -0.841726 0.510995 
-1.7865 -5.33425 0.780311 0.174304 -0.841726 0.510995 
-1.82999 -5.37732 0.724117 0.174304 -0.841726 0.510995 
-1.144 -5.1672 0.838833 0.174304 -0.841726 0.510995 
-1.67221 -5.15411 1.03806 0.174304 -0.841726 0.510995 
-1.91417 -5.52301 0.512893 0.174304 -0.841726 0.510995 
-1.727 -5.18126 1.01185 0.174304 -0.841726 0.510995 
-1.67629 -5.32549 0.757634 0.174304 -0.841726 0.510995 
-1.29657 -5.05256 1.07865 0.174304 -0.841726 0.510995 
-1.41772 -5.25656 0.783989 0.174304 -0.841726 0.510995 
-1.08569 -5.08371 0.956482 0.174304 -0.841726 0.510995 
-1.40384 -5.13586 0.97778 0.174304 -0.841726 0.510995 
-1.68365 -5.08737 1.15163 0.174304 -0.841726 0.510995 
-1.73025 -5.1526 1.06006 0.174304 -0.841726 0.510995 
-1.39648 -5.29425 0.714866 0.174304 -0.841726 0.510995 
-1.66031 -5.06726 1.17686 0.174304 -0.841726 0.510995 
-1.6355 -5.16104 1.01431 0.174304 -0.841726 0.510995 
-1.4939 -5.34359 0.666519 0.174304 -0.841726 0.510995 
-1.16223 -5.10508 0.947097 0.174304 -0.841726 0.510995 
-1.69057 -5.21582 0.942759 0.174304 -0.841726 0.510995 
-1.67926 -5.23164 0.912944 0.174304 -0.841726 0.510995 
-1.75065 -5.28342 0.851832 0.174304 -0.841726 0.510995 
-1.53735 -5.15849 0.985473 0.174304 -0.841726 0.510995 
-1.72594 -5.06396 1.20435 0.174304 -0.841726 0.510995 
-1.80346 -5.41586 0.651833 0.174304 -0.841726 0.510995 
-1.82826 -5.34813 0.771528 0.174304 -0.841726 0.510995 
-1.65156 -5.0582 1.1888 0.174304 -0.841726 0.510995 
-1.24909 -5.13048 0.934565 0.174304 -0.841726 0.510995 
-1.08601 -5.16963 0.815318 0.174304 -0.841726 0.510995 
-1.69612 -5.41233 0.621526 0.174304 -0.841726 0.510995 
-1.00515 -5.10667 0.891648 0.174304 -0.841726 0.510995 
-1.30804 -5.26236 0.737552 0.174304 -0.841726 0.510995 
-1.83172 -5.39804 0.690644 0.174304 -0.841726 0.510995 
-1.53085 -5.23361 0.85978 0.174304 -0.841726 0.510995 
-0.970744 -5.0753 0.931646 0.174304 -0.841726 0.510995 
-1.49385 -5.23622 0.84305 0.174304 -0.841726 0.510995 
-1.04616 -5.13925 0.85187 0.174304 -0.841726 0.510995 
-1.61065 -5.18738 0.962638 0.174304 -0.841726 0.510995 
-1.19747 -5.2022 0.799277 0.174304 -0.841726 0.510995 
-1.85208 -5.4214 0.659085 0.174304 -0.841726 0.510995 
-1.55615 -5.15205 1.0024 0.174304 -0.841726 0.510995 
-1.72724 -5.36199 0.71476 0.174304 -0.841726 0.510995 
-1.49261 -5.31504 0.713029 0.174304 -0.841726 0.510995 
-1.92015 -5.50036 0.552158 0.174304 -0.841726 0.510995 
-1.74775 -5.30415 0.816772 0.174304 -0.841726 0.510995 
-1.44923 -5.15147 0.967379 0.174304 -0.841726 0.510995 
-1.8623 -5.2971 0.866897 0.174304 -0.841726 0.510995 
-1.34957 -5.07418 1.06093 0.174304 -0.841726 0.510995 
-1.91809 -5.41646 0.68941 0.174304 -0.841726 0.510995 
-1.70089 -5.26594 0.863817 0.174304 -0.841726 0.510995 
-1.27059 -5.19389 0.837537 0.174304 -0.841726 0.510995 
-1.80457 -5.34574 0.767498 0.174304 -0.841726 0.510995 
-1.11104 -5.14574 0.863029 0.174304 -0.841726 0.510995 
-1.34695 -5.09691 1.02268 0.174304 -0.841726 0.510995 
-1.76159 -5.2284 0.945969 0.174304 -0.841726 0.510995 
-1.86873 -5.50213 0.531946 0.174304 -0.841726 0.510995 
-1.61881 -5.05805 1.17803 0.174304 -0.841726 0.510995 
-1.5297 -5.27104 0.79785 0.174304 -0.841726 0.510995 
-1.19848 -5.13248 0.914239 0.174304 -0.841726 0.510995 
-0.975063 -5.11679 0.864877 0.174304 -0.841726 0.510995 
-1.41786 -5.21647 0.849949 0.174304 -0.841726 0.510995 
-1.46602 -5.33046 0.67873 0.174304 -0.841726 0.510995 
-1.85329 -5.2795 0.892795 0.174304 -0.841726 0.510995 
-1.22923 -5.04476 1.06883 0.174304 -0.841726 0.510995 
-1.83977 -5.34076 0.787522 0.174304 -0.841726 0.510995 
-1.50453 -5.10887 1.05603 0.174304 -0.841726 0.510995 
-1.71312 -5.08752 1.16129 0.174304 -0.841726 0.510995 
-1.84812 -5.46819 0.580809 0.174304 -0.841726 0.510995 
-1.37659 -5.20552 0.854066 0.174304 -0.841726 0.510995 
-1.86806 -5.44823 0.620342 0.174304 -0.841726 0.510995 
-1.53463 -5.33703 0.690999 0.174304 -0.841726 0.510995 
-0.980252 -5.05578 0.966938 0.174304 -0.841726 0.510995 
-1.66835 -5.40511 0.624047 0.174304 -0.841726 0.510995 
-1.75205 -5.09526 1.16168 0.174304 -0.841726 0.510995 
-1.45659 -5.1158 1.0285 0.174304 -0.841726 0.510995 
-1.57488 -5.10196 1.09105 0.174304 -0.841726 0.510995 
-1.70755 -5.13787 1.07665 0.174304 -0.841726 0.510995 
-1.48103 -5.2767 0.772175 0.174304 -0.841726 0.510995 
-1.34155 -5.1581 0.920253 0.174304 -0.841726 0.510995 
-1.25131 -5.17855 0.85627 0.174304 -0.841726 0.510995 
-1.7005 -5.16186 1.03482 0.174304 -0.841726 0.510995 
-1.83683 -5.29869 0.855706 0.174304 -0.841726 0.510995 
-1.72655 -5.27661 0.854918 0.174304 -0.841726 0.510995 
-1.57161 -5.12267 1.0559 0.174304 -0.841726 0.510995 
-1.61931 -5.36491 0.673657 0.174304 -0.841726 0.510995 
-1.59215 -5.33214 0.718392 0.174304 -0.841726 0.510995 
-1.77679 -5.24454 0.924549 0.174304 -0.841726 0.510995 
-1.41723 -5.2068 0.865639 0.174304 -0.841726 0.510995 
-1.6674 -5.22172 0.925268 0.174304 -0.841726 0.510995 
-1.35824 -5.05761 1.09109 0.174304 -0.841726 0.510995 
-1.7708 -5.39783 0.670497 0.174304 -0.841726 0.510995 
-1.17658 -5.1905 0.811488 0.174304 -0.841726 0.510995 
-1.40316 -5.19174 0.885667 0.174304 -0.841726 0.510995 
-1.33046 -5.22721 0.802895 0.174304 -0.841726 0.510995 
-1.35365 -5.20253 0.851275 0.174304 -0.841726 0.510995 
-1.84144 -5.32718 0.810419 0.174304 -0.841726 0.510995 
-1.70692 -5.20787 0.961333 0.174304 -0.841726 0.510995 
-0.901994 -5.04988 0.950315 0.174304 -0.841726 0.510995 
-1.63469 -5.32099 0.751046 0.174304 -0.841726 0.510995 
-1.79615 -5.31121 0.821442 0.174304 -0.841726 0.510995 
-1.797 -5.27437 0.882292 0.174304 -0.841726 0.510995 
-1.52046 -5.10892 1.0613 0.174304 -0.841726 0.510995 
-1.04673 -5.04917 1.00017 0.174304 -0.841726 0.510995 
-1.35987 -5.18483 0.882458 0.174304 -0.841726 0.510995 
-1.66626 -5.21531 0.935425 0.174304 -0.841726 0.510995 
-1.63402 -5.25945 0.85201 0.174304 -0.841726 0.510995 
-1.0098 -5.08673 0.926003 0.174304 -0.841726 0.510995 
-1.56668 -5.30796 0.749583 0.174304 -0.841726 0.510995 
-1.53534 -5.356 0.660047 0.174304 -0.841726 0.510995 
-1.78447 -5.23841 0.937215 0.174304 -0.841726 0.510995 
-1.77547 -5.27085 0.880844 0.174304 -0.841726 0.510995 
-1.89689 -5.44207 0.640162 0.174304 -0.841726 0.510995 
-1.48206 -5.24454 0.825398 0.174304 -0.841726 0.510995 
-1.41978 -5.27973 0.746589 0.174304 -0.841726 0.510995 
-1.43511 -5.14608 0.971484 0.174304 -0.841726 0.510995 
-1.36401 -5.22498 0.817844 0.174304 -0.841726 0.510995 
-1.69871 -5.37567 0.682664 0.174304 -0.841726 0.510995 
-1.86646 -5.41098 0.681052 0.174304 -0.841726 0.510995 
-1.74052 -5.16115 1.04947 0.174304 -0.841726 0.510995 
-1.65628 -5.40705 0.616801 0.174304 -0.841726 0.510995 
-1.87062 -5.52267 0.498797 0.174304 -0.841726 0.510995 
-1.28862 -5.24101 0.766123 0.174304 -0.841726 0.510995 
-1.73891 -5.04939 1.23268 0.174304 -0.841726 0.510995 
-1.75444 -5.2396 0.925145 0.174304 -0.841726 0.510995 
-1.57953 -5.09209 1.10885 0.174304 -0.841726 0.510995 
-1.42289 -5.27086 0.762221 0.174304 -0.841726 0.510995 
-1.8769 -5.45583 0.61081 0.174304 -0.841726 0.510995 
-1.29141 -5.10566 0.989601 0.174304 -0.841726 0.510995 
-1.71433 -5.42306 0.610008 0.174304 -0.841726 0.510995 
-0.918234 -5.09003 0.889763 0.174304 -0.841726 0.510995 
-1.8969 -5.47478 0.586393 0.174304 -0.841726 0.510995 
-1.77117 -5.32053 0.797708 0.174304 -0.841726 0.510995 
-1.17458 -5.06748 1.01307 0.174304 -0.841726 0.510995 
-1.62098 -5.06683 1.16432 0.174304 -0.841726 0.510995 
-1.71172 -5.05813 1.20916 0.174304 -0.841726 0.510995 
-1.50505 -5.27055 0.790356 0.174304 -0.841726 0.510995 
-1.5863 -5.06933 1.14855 0.174304 -0.841726 0.510995 
-1.23833 -5.18631 0.839147 0.174304 -0.841726 0.510995 
-1.22056 -5.22287 0.773049 0.174304 -0.841726 0.510995 
-1.49786 -5.21258 0.883266 0.174304 -0.841726 0.510995 
-1.55352 -5.19074 0.93789 0.174304 -0.841726 0.510995 
-1.63684 -5.21117 0.932339 0.174304 -0.841726 0.510995 
-1.60748 -5.38876 0.63045 0.174304 -0.841726 0.510995 
-1.70113 -5.38183 0.673357 0.174304 -0.841726 0.510995 
-1.11005 -5.10585 0.928276 0.174304 -0.841726 0.510995 
-1.59503 -5.07572 1.14097 0.174304 -0.841726 0.510995 
-1.67746 -5.3 0.799936 0.174304 -0.841726 0.510995 
-1.56672 -5.36238 0.660113 0.174304 -0.841726 0.510995 
-1.53078 -5.05189 1.15854 0.174304 -0.841726 0.510995 
-1.89673 -5.48332 0.572294 0.174304 -0.841726 0.510995 
-1.39985 -5.04792 1.12102 0.174304 -0.841726 0.510995 
-1.23802 -5.17603 0.855948 0.174304 -0.841726 0.510995 
-1.95385 -5.52355 0.525366 0.174304 -0.841726 0.510995 
-1.52691 -5.08677 1.09989 0.174304 -0.841726 0.510995 
-1.78521 -5.38995 0.68829 0.174304 -0.841726 0.510995 
-1.32396 -5.12749 0.964663 0.174304 -0.841726 0.510995 
-1.69348 -5.17208 1.01566 0.174304 -0.841726 0.510995 
-1.6934 -5.25408 0.880811 0.174304 -0.841726 0.510995 
-1.87529 -5.39159 0.715893 0.174304 -0.841726 0.510995 
-1.87151 -5.50802 0.523191 0.174304 -0.841726 0.510995 
-1.43899 -5.15692 0.954974 0.174304 -0.841726 0.510995 
-1.80465 -5.17124 1.05445 0.174304 -0.841726 0.510995 
-1.80851 -5.31954 0.811896 0.174304 -0.841726 0.510995 
-1.54662 -5.10989 1.06851 0.174304 -0.841726 0.510995 
-1.37412 -5.07085 1.07467 0.174304 -0.841726 0.510995 
-1.34575 -5.26927 0.738874 0.174304 -0.841726 0.510995 
-1.71513 -5.14331 1.07025 0.174304 -0.841726 0.510995 
-1.19392 -5.1049 0.958056 0.174304 -0.841726 0.510995 
-1.26879 -5.18039 0.859129 0.174304 -0.841726 0.510995 
-1.58885 -5.30251 0.766011 0.174304 -0.841726 0.510995 
-1.60122 -5.3945 0.618907 0.174304 -0.841726 0.510995 
-1.47445 -5.16865 0.947617 0.174304 -0.841726 0.510995 
-1.94962 -5.55124 0.478406 0.174304 -0.841726 0.510995 
-1.59735 -5.27321 0.817035 0.174304 -0.841726 0.510995 
-1.4104 -5.05087 1.11973 0.174304 -0.841726 0.510995 
-1.18024 -5.13044 0.91146 0.174304 -0.841726 0.510995 
-1.38151 -5.10086 1.02781 0.174304 -0.841726 0.510995 
-1.47869 -5.3027 0.728632 0.174304 -0.841726 0.510995 
-1.83705 -5.44451 0.616027 0.174304 -0.841726 0.510995 
-1.79904 -5.18613 1.02807 0.174304 -0.841726 0.510995 
-1.05145 -5.04419 1.00996 0.174304 -0.841726 0.510995 
-1.47042 -5.22191 0.858687 0.174304 -0.841726 0.510995 
-1.355 -5.08822 1.03967 0.174304 -0.841726 0.510995 
-1.8455 -5.49038 0.543445 0.174304 -0.841726 0.510995 
-1.45984 -5.1993 0.892298 0.174304 -0.841726 0.510995 
-1.57665 -5.31451 0.742173 0.174304 -0.841726 0.510995 
-1.61857 -5.3806 0.647612 0.174304 -0.841726 0.510995 
-1.56321 -5.06563 1.14686 0.174304 -0.841726 0.510995 
-1.00567 -5.07781 0.93927 0.174304 -0.841726 0.510995 
-1.09874 -5.11149 0.915196 0.174304 -0.841726 0.510995 
-1.53423 -5.25997 0.81757 0.174304 -0.841726 0.510995 
-1.76349 -5.13741 1.09622 0.174304 -0.841726 0.510995 
-1.54424 -5.1778 0.95605 0.174304 -0.841726 0.510995 
-1.40534 -5.25079 0.789311 0.174304 -0.841726 0.510995 
-1.92372 -5.53295 0.499766 0.174304 -0.841726 0.510995 
-1.19284 -5.1674 0.854936 0.174304 -0.841726 0.510995 
-1.62085 -5.28577 0.804287 0.174304 -0.841726 0.510995 
-1.18677 -5.06599 1.01963 0.174304 -0.841726 0.510995 
-1.80221 -5.45669 0.584282 0.174304 -0.841726 0.510995 
-1.41377 -5.29457 0.720169 0.174304 -0.841726 0.510995 
-1.39157 -5.15822 0.936881 0.174304 -0.841726 0.510995 
-1.1805 -5.16493 0.854838 0.174304 -0.841726 0.510995 
-1.65297 -5.14086 1.05337 0.174304 -0.841726 0.510995 
-1.36982 -5.23878 0.797103 0.174304 -0.841726 0.510995 
-1.12365 -5.08803 0.962164 0.174304 -0.841726 0.510995 
-1.27649 -5.13739 0.932408 0.174304 -0.841726 0.510995 
-1.44891 -5.09147 1.06593 0.174304 -0.841726 0.510995 
-1.7391 -5.35303 0.733485 0.174304 -0.841726 0.510995 
-1.53025 -5.30767 0.737807 0.174304 -0.841726 0.510995 
-1.53331 -5.34431 0.678588 0.174304 -0.841726 0.510995 
-1.39127 -5.08626 1.0551 0.174304 -0.841726 0.510995 
-1.43441 -5.20106 0.880859 0.174304 -0.841726 0.510995 
-1.50098 -5.2837 0.767375 0.174304 -0.841726 0.510995 
-1.17327 -5.18343 0.821989 0.174304 -0.841726 0.510995 
-1.28995 -5.20264 0.829665 0.174304 -0.841726 0.510995 
-1.34396 -5.1495 0.935211 0.174304 -0.841726 0.510995 
-1.22853 -5.11046 0.960568 0.174304 -0.841726 0.510995 
-1.48403 -5.09994 1.06381 0.174304 -0.841726 0.510995 
-1.6536 -5.27422 0.83431 0.174304 -0.841726 0.510995 
-1.85242 -5.50624 0.5197 0.174304 -0.841726 0.510995 
-1.45411 -5.23342 0.834271 0.174304 -0.841726 0.510995 
-1.07833 -5.12224 0.890664 0.174304 -0.841726 0.510995 
-1.50582 -5.32168 0.706546 0.174304 -0.841726 0.510995 
-1.26935 -5.07595 1.03104 0.174304 -0.841726 0.510995 
-0.911437 -5.08236 0.900088 0.174304 -0.841726 0.510995 
-1.69982 -5.42425 0.603165 0.174304 -0.841726 0.510995 
-1.32033 -5.14205 0.939503 0.174304 -0.841726 0.510995 
-1.65927 -5.10324 1.11734 0.174304 -0.841726 0.510995 
-1.70429 -5.09686 1.14298 0.174304 -0.841726 0.510995 
-1.82964 -5.25768 0.920724 0.174304 -0.841726 0.510995 
-1.78632 -5.20391 0.994557 0.174304 -0.841726 0.510995 
-1.08754 -5.0524 1.0086 0.174304 -0.841726 0.510995 
-1.33464 -5.16729 0.902816 0.174304 -0.841726 0.510995 
-1.48021 -5.05657 1.13383 0.174304 -0.841726 0.510995 
-1.33661 -5.21991 0.816954 0.174304 -0.841726 0.510995 
-1.67943 -5.37839 0.67172 0.174304 -0.841726 0.510995 
-1.68639 -5.1219 1.09578 0.174304 -0.841726 0.510995 
-1.06287 -5.13069 0.87156 0.174304 -0.841726 0.510995 
-1.25292 -5.16527 0.878648 0.174304 -0.841726 0.510995 
-1.91628 -5.49198 0.564618 0.174304 -0.841726 0.510995 
-1.78674 -5.19634 1.00716 0.174304 -0.841726 0.510995 
-1.64139 -5.28016 0.820428 0.174304 -0.841726 0.510995 
-1.38158 -5.2815 0.730815 0.174304 -0.841726 0.510995 
-0.934999 -5.09963 0.879622 0.174304 -0.841726 0.510995 
-1.33359 -5.13824 0.95023 0.174304 -0.841726 0.510995 
-1.3321 -5.0582 1.08132 0.174304 -0.841726 0.510995 
-1.25307 -5.08588 1.00924 0.174304 -0.841726 0.510995 
-1.79204 -5.21051 0.985625 0.174304 -0.841726 0.510995 
-1.32884 -5.17403 0.889781 0.174304 -0.841726 0.510995 
-1.35711 -5.13389 0.965289 0.174304 -0.841726 0.510995 
-1.52369 -5.3213 0.713184 0.174304 -0.841726 0.510995 
-1.90759 -5.39372 0.723269 0.174304 -0.841726 0.510995 
-0.994019 -5.12648 0.855332 0.174304 -0.841726 0.510995 
-1.49234 -5.06915 1.11724 0.174304 -0.841726 0.510995 
-1.60632 -5.34615 0.700123 0.174304 -0.841726 0.510995 
-1.79583 -5.44603 0.599654 0.174304 -0.841726 0.510995 
-1.85169 -5.50005 0.529633 0.174304 -0.841726 0.510995 
-1.05137 -5.15362 0.83 0.174304 -0.841726 0.510995 
-1.34341 -5.17965 0.885445 0.174304 -0.841726 0.510995 
-1.74758 -5.22396 0.94855 0.174304 -0.841726 0.510995 
-1.40759 -5.1576 0.943292 0.174304 -0.841726 0.510995 
-1.97272 -5.55904 0.473351 0.174304 -0.841726 0.510995 
-0.857298 -5.05544 0.926136 0.174304 -0.841726 0.510995 
-1.77131 -5.14387 1.08823 0.174304 -0.841726 0.510995 
-1.64091 -5.39055 0.63876 0.174304 -0.841726 0.510995 
-1.86915 -5.38195 0.729686 0.174304 -0.841726 0.510995 
-1.89568 -5.53733 0.48313 0.174304 -0.841726 0.510995 
-1.7129 -5.33084 0.761162 0.174304 -0.841726 0.510995 
-1.89294 -5.46542 0.600439 0.174304 -0.841726 0.510995 
-1.533 -5.36402 0.646085 0.174304 -0.841726 0.510995 
-1.16633 -5.11996 0.924018 0.174304 -0.841726 0.510995 
-1.36166 -5.10273 1.01807 0.174304 -0.841726 0.510995 
-1.52134 -5.29403 0.757233 0.174304 -0.841726 0.510995 
-1.56173 -5.25506 0.834906 0.174304 -0.841726 0.510995 
-1.49504 -5.2607 0.803196 0.174304 -0.841726 0.510995 
-1.29773 -5.11234 0.98076 0.174304 -0.841726 0.510995 
-1.9422 -5.53363 0.504864 0.174304 -0.841726 0.510995 
-1.50273 -5.20433 0.898462 0.174304 -0.841726 0.510995 
-1.68753 -5.44364 0.567161 0.174304 -0.841726 0.510995 
-1.1392 -5.07205 0.993663 0.174304 -0.841726 0.510995 
-1.56327 -5.23346 0.870933 0.174304 -0.841726 0.510995 
-1.57865 -5.17545 0.971498 0.174304 -0.841726 0.510995 
-1.77467 -5.47768 0.540491 0.174304 -0.841726 0.510995 
-1.2637 -5.10176 0.986697 0.174304 -0.841726 0.510995 
-0.886829 -5.05271 0.940565 0.174304 -0.841726 0.510995 
-1.51349 -5.12273 1.03626 0.174304 -0.841726 0.510995 
-1.61487 -5.32564 0.736721 0.174304 -0.841726 0.510995 
-1.49067 -5.09099 1.08076 0.174304 -0.841726 0.510995 
-1.15808 -5.06196 1.01661 0.174304 -0.841726 0.510995 
-1.66885 -5.12991 1.07671 0.174304 -0.841726 0.510995 
-1.03293 -5.08607 0.934866 0.174304 -0.841726 0.510995 
-1.57337 -5.14696 1.01656 0.174304 -0.841726 0.510995 
-0.933475 -5.06101 0.942609 0.174304 -0.841726 0.510995 
-1.14583 -5.12398 0.910507 0.174304 -0.841726 0.510995 
-1.8092 -5.39831 0.682613 0.174304 -0.841726 0.510995 
-1.71115 -5.23304 0.921366 0.174304 -0.841726 0.510995 
-1.81767 -5.3935 0.693374 0.174304 -0.841726 0.510995 
-1.24671 -5.0733 1.02778 0.174304 -0.841726 0.510995 
-1.67232 -5.36113 0.697708 0.174304 -0.841726 0.510995 
-1.93031 -5.43249 0.667162 0.174304 -0.841726 0.510995 
-1.44138 -5.17158 0.931677 0.174304 -0.841726 0.510995 
-1.58652 -5.29634 0.775368 0.174304 -0.841726 0.510995 
-1.83005 -5.43659 0.62669 0.174304 -0.841726 0.510995 
-1.97743 -5.57132 0.454744 0.174304 -0.841726 0.510995 
-1.24286 -5.22887 0.770681 0.174304 -0.841726 0.510995 
-1.5095 -5.20148 0.90543 0.174304 -0.841726 0.510995 
-1.65376 -5.20978 0.940306 0.174304 -0.841726 0.510995 
-1.62565 -5.41179 0.598704 0.174304 -0.841726 0.510995 
-1.84094 -5.38182 0.720406 0.174304 -0.841726 0.510995 
-1.79555 -5.35567 0.748129 0.174304 -0.841726 0.510995 
-1.05281 -5.08443 0.944242 0.174304 -0.841726 0.510995 
-1.15 -5.10674 0.94026 0.174304 -0.841726 0.510995 
-1.5913 -5.0508 1.18069 0.174304 -0.841726 0.510995 
-1.79013 -5.44996 0.591275 0.174304 -0.841726 0.510995 
-1.53978 -5.11697 1.05457 0.174304 -0.841726 0.510995 
-1.53571 -5.32 0.719369 0.174304 -0.841726 0.510995 
-1.36799 -5.19731 0.864684 0.174304 -0.841726 0.510995 
-1.42242 -5.18574 0.90202 0.174304 -0.841726 0.510995 
-1.96318 -5.56962 0.45274 0.174304 -0.841726 0.510995 
-1.63328 -5.1124 1.09354 0.174304 -0.841726 0.510995 
-1.18587 -5.08844 0.982415 0.174304 -0.841726 0.510995 
-1.44492 -5.11064 1.03306 0.174304 -0.841726 0.510995 
-1.79756 -5.33708 0.779383 0.174304 -0.841726 0.510995 
-1.87867 -5.47265 0.583757 0.174304 -0.841726 0.510995 
-1.20793 -5.13197 0.918264 0.174304 -0.841726 0.510995 
-1.4211 -5.22682 0.834017 0.174304 -0.841726 0.510995 
-1.57935 -5.38308 0.630331 0.174304 -0.841726 0.510995 
-1.09797 -5.04644 1.0219 0.174304 -0.841726 0.510995 
-1.60852 -5.29294 0.788359 0.174304 -0.841726 0.510995 
-1.42492 -5.3205 0.681275 0.174304 -0.841726 0.510995 
-1.74569 -5.12373 1.11272 0.174304 -0.841726 0.510995 
-1.67697 -5.4327 0.581588 0.174304 -0.841726 0.510995 
-1.13391 -5.16695 0.835841 0.174304 -0.841726 0.510995 
-1.60723 -5.17553 0.980964 0.174304 -0.841726 0.510995 
-1.71981 -5.07592 1.18263 0.174304 -0.841726 0.510995 
-1.65704 -5.24429 0.884677 0.174304 -0.841726 0.510995 
-1.0694 -5.11397 0.901265 0.174304 -0.841726 0.510995 
-1.47934 -5.1119 1.04257 0.174304 -0.841726 0.510995 
-1.8717 -5.47648 0.575119 0.174304 -0.841726 0.510995 
-1.76083 -5.20745 0.980162 0.174304 -0.841726 0.510995 
-1.33755 -5.24481 0.776337 0.174304 -0.841726 0.510995 
-1.10572 -5.13902 0.872282 0.174304 -0.841726 0.510995 
-1.40662 -5.17937 0.907169 0.174304 -0.841726 0.510995 
-1.5733 -5.26699 0.819182 0.174304 -0.841726 0.510995 
-1.82597 -5.50453 0.513612 0.174304 -0.841726 0.510995 
-1.55933 -5.31326 0.738408 0.174304 -0.841726 0.510995 
-1.51407 -5.13359 1.0186 0.174304 -0.841726 0.510995 
-1.31018 -5.16653 0.895835 0.174304 -0.841726 0.510995 
-1.39803 -5.14119 0.967058 0.174304 -0.841726 0.510995 
-1.6212 -5.40437 0.609406 0.174304 -0.841726 0.510995 
-1.31232 -5.11973 0.973505 0.174304 -0.841726 0.510995 
-1.28939 -5.13076 0.94766 0.174304 -0.841726 0.510995 
-1.68981 -5.42639 0.596279 0.174304 -0.841726 0.510995 
-1.8113 -5.1894 1.02682 0.174304 -0.841726 0.510995 
-1.69289 -5.07287 1.17858 0.174304 -0.841726 0.510995 
-1.52164 -5.15751 0.981815 0.174304 -0.841726 0.510995 
-1.21315 -5.10617 0.96245 0.174304 -0.841726 0.510995 
-1.81384 -5.37954 0.715041 0.174304 -0.841726 0.510995 
-1.78188 -5.30763 0.82252 0.174304 -0.841726 0.510995 
-1.76363 -5.15274 1.07106 0.174304 -0.841726 0.510995 
-1.57424 -5.05772 1.16358 0.174304 -0.841726 0.510995 
-1.21759 -5.14888 0.893718 0.174304 -0.841726 0.510995 
-1.0375 -5.13245 0.860147 0.174304 -0.841726 0.510995 
-1.66565 -5.0963 1.1309 0.174304 -0.841726 0.510995 
-1.72034 -5.25625 0.886298 0.174304 -0.841726 0.510995 
-1.02142 -5.07154 0.954885 0.174304 -0.841726 0.510995 
-1.67728 -5.077 1.16654 0.174304 -0.841726 0.510995 
-1.26546 -5.12181 0.954329 0.174304 -0.841726 0.510995 
-1.15469 -5.16343 0.84863 0.174304 -0.841726 0.510995 
-1.83758 -5.48407 0.551157 0.174304 -0.841726 0.510995 
-1.35046 -5.19136 0.86856 0.174304 -0.841726 0.510995 
-1.66723 -5.12058 1.09151 0.174304 -0.841726 0.510995 
-1.66285 -5.36128 0.694264 0.174304 -0.841726 0.510995 
-1.35538 -5.07078 1.06848 0.174304 -0.841726 0.510995 
-1.42155 -5.24007 0.81239 0.174304 -0.841726 0.510995 
-1.74737 -5.26266 0.884862 0.174304 -0.841726 0.510995 
-1.65442 -5.05314 1.19809 0.174304 -0.841726 0.510995 
-1.78292 -5.29678 0.840713 0.174304 -0.841726 0.510995 
-1.40122 -5.27328 0.750937 0.174304 -0.841726 0.510995 
-1.64185 -5.29347 0.798693 0.174304 -0.841726 0.510995 
-1.45016 -5.12768 1.00681 0.174304 -0.841726 0.510995 
-1.20981 -5.08599 0.994504 0.174304 -0.841726 0.510995 
-1.45717 -5.05499 1.12868 0.174304 -0.841726 0.510995 
-0.854712 -5.05004 0.934146 0.174304 -0.841726 0.510995 
-1.82491 -5.43035 0.635217 0.174304 -0.841726 0.510995 
-1.63166 -5.31368 0.76204 0.174304 -0.841726 0.510995 
-1.53576 -5.28426 0.778153 0.174304 -0.841726 0.510995 
-1.60372 -5.35387 0.686553 0.174304 -0.841726 0.510995 
-1.83262 -5.48787 0.543232 0.174304 -0.841726 0.510995 
-1.83748 -5.45615 0.597026 0.174304 -0.841726 0.510995 
-1.57225 -5.10807 1.08012 0.174304 -0.841726 0.510995 
-1.39934 -5.26298 0.767244 0.174304 -0.841726 0.510995 
-1.6157 -5.24694 0.8664 0.174304 -0.841726 0.510995 
-1.86587 -5.37325 0.742878 0.174304 -0.841726 0.510995 
-1.5994 -5.17907 0.972525 0.174304 -0.841726 0.510995 
-1.38966 -5.26622 0.758666 0.174304 -0.841726 0.510995 
-1.13534 -5.11415 0.923145 0.174304 -0.841726 0.510995 
-1.67272 -5.29217 0.811219 0.174304 -0.841726 0.510995 
-1.67704 -5.42058 0.601546 0.174304 -0.841726 0.510995 
-1.04981 -5.06417 0.976556 0.174304 -0.841726 0.510995 
-1.45897 -5.14935 0.974146 0.174304 -0.841726 0.510995 
-1.76006 -5.28909 0.845661 0.174304 -0.841726 0.510995 
-1.31018 -5.08094 1.03657 0.174304 -0.841726 0.510995 
-1.56385 -5.17349 0.969725 0.174304 -0.841726 0.510995 
-1.8009 -5.22264 0.968673 0.174304 -0.841726 0.510995 
-1.59132 -5.18962 0.952459 0.174304 -0.841726 0.510995 
-1.09407 -5.12876 0.885239 0.174304 -0.841726 0.510995 
-1.86658 -5.32406 0.824003 0.174304 -0.841726 0.510995 
-1.1714 -5.04827 1.0436 0.174304 -0.841726 0.510995 
-1.50691 -5.26237 0.804436 0.174304 -0.841726 0.510995 
-1.54957 -5.13643 1.02586 0.174304 -0.841726 0.510995 
-1.52476 -5.13987 1.01186 0.174304 -0.841726 0.510995 
-1.70295 -5.12115 1.10259 0.174304 -0.841726 0.510995 
-1.61928 -5.19197 0.958003 0.174304 -0.841726 0.510995 
-1.0714 -5.09818 0.92789 0.174304 -0.841726 0.510995 
-1.58307 -5.05671 1.16822 0.174304 -0.841726 0.510995 
-0.942868 -5.07912 0.915996 0.174304 -0.841726 0.510995 
-1.71063 -5.37647 0.68536 0.174304 -0.841726 0.510995 
-1.5766 -5.28164 0.7962 0.174304 -0.841726 0.510995 
-1.05731 -5.07506 0.961162 0.174304 -0.841726 0.510995 
-1.77508 -5.11314 1.14002 0.174304 -0.841726 0.510995 
-1.81382 -5.2201 0.977188 0.174304 -0.841726 0.510995 
-1.3905 -5.06579 1.08851 0.174304 -0.841726 0.510995 
-1.48522 -5.33901 0.671123 0.174304 -0.841726 0.510995 
-1.63122 -5.29775 0.788093 0.174304 -0.841726 0.510995 
-1.6088 -5.20746 0.928996 0.174304 -0.841726 0.510995 
-1.25241 -5.06971 1.03561 0.174304 -0.841726 0.510995 
-1.01362 -5.09893 0.907227 0.174304 -0.841726 0.510995 
-1.71163 -5.28285 0.839637 0.174304 -0.841726 0.510995 
-1.48909 -5.19842 0.903596 0.174304 -0.841726 0.510995 
-1.91127 -5.48448 0.57528 0.174304 -0.841726 0.510995 
-1.61319 -5.31727 0.749927 0.174304 -0.841726 0.510995 
-1.91819 -5.48128 0.582865 0.174304 -0.841726 0.510995 
-1.4227 -5.52122 0.350505 0.174304 -0.841726 0.510995 
-0.93936 -5.18348 0.743223 0.174304 -0.841726 0.510995 
-0.888787 -5.10575 0.854015 0.174304 -0.841726 0.510995 
-1.04312 -5.33385 0.530889 0.174304 -0.841726 0.510995 
-1.60333 -5.57051 0.33022 0.174304 -0.841726 0.510995 
-1.43729 -5.3532 0.631677 0.174304 -0.841726 0.510995 
-1.08297 -5.43164 0.383503 0.174304 -0.841726 0.510995 
-1.24574 -5.36713 0.544326 0.174304 -0.841726 0.510995 
-1.07687 -5.3489 0.517486 0.174304 -0.841726 0.510995 
-1.2259 -5.52581 0.276745 0.174304 -0.841726 0.510995 
-1.55553 -5.50575 0.420629 0.174304 -0.841726 0.510995 
-1.10735 -5.54316 0.208342 0.174304 -0.841726 0.510995 
-1.61199 -5.48977 0.465886 0.174304 -0.841726 0.510995 
-1.17434 -5.21718 0.766855 0.174304 -0.841726 0.510995 
-0.974113 -5.22385 0.688538 0.174304 -0.841726 0.510995 
-1.71074 -5.50679 0.471121 0.174304 -0.841726 0.510995 
-1.02949 -5.42949 0.369047 0.174304 -0.841726 0.510995 
-1.51654 -5.54157 0.348605 0.174304 -0.841726 0.510995 
-1.33571 -5.41367 0.498071 0.174304 -0.841726 0.510995 
-1.14876 -5.24242 0.716752 0.174304 -0.841726 0.510995 
-1.06848 -5.30681 0.583881 0.174304 -0.841726 0.510995 
-1.01856 -5.29787 0.581784 0.174304 -0.841726 0.510995 
-0.935299 -5.16495 0.772317 0.174304 -0.841726 0.510995 
-1.39119 -5.31417 0.680342 0.174304 -0.841726 0.510995 
-1.30172 -5.46157 0.407874 0.174304 -0.841726 0.510995 
