ply
format ascii 1.0
element vertex 1634
property float x
property float y
property float z
end_header
-0.060418 0.0729403 0.864636
-0.0586847 0.073107 0.862141
-0.0569591 0.0732704 0.859629
-0.0552303 0.0734116 0.856818
-0.0535028 0.0735361 0.853792
-0.0517814 0.0736508 0.850645
-0.0500769 0.0737756 0.84769
-0.0484011 0.0739389 0.845315
-0.0467488 0.0741364 0.843441
-0.0451193 0.0743725 0.842138
-0.0435083 0.0746439 0.841333
-0.0419046 0.0749266 0.840712
-0.0403041 0.0752119 0.840125
-0.0387104 0.0755118 0.839761
-0.0371189 0.0758143 0.839416
-0.0355263 0.0761072 0.838958
-0.0339335 0.0763918 0.838389
-0.0323409 0.0766675 0.837694
-0.0307494 0.0769353 0.836914
-0.0291605 0.0772021 0.836113
-0.0275741 0.0774666 0.835298
-0.0259916 0.0777376 0.83458
-0.0244124 0.0780168 0.833976
-0.0228357 0.0782982 0.833407
-0.021262 0.0785953 0.833044
-0.0196906 0.0789149 0.832984
-0.0181194 0.0792354 0.832948
-0.0165487 0.0795814 0.833227
-0.0149756 0.0799739 0.834119
-0.0133994 0.0803791 0.835167
-0.0118191 0.0807933 0.836329
-0.0102364 0.081199 0.837359
-0.00865087 0.0816007 0.838335
-0.0070652 0.0819787 0.839013
-0.00547863 0.0823529 0.839619
-0.00389281 0.082711 0.840027
-0.00230649 0.0830663 0.840397
-0.000726239 0.0833874 0.840341
0.00084934 0.0836913 0.840061
0.00242573 0.0840019 0.839872
0.00400641 0.0843317 0.839924
0.0055956 0.0846901 0.840329
0.00719123 0.0850661 0.840945
0.0087933 0.0854568 0.841739
0.0104176 0.0859058 0.843229
0.0120641 0.0864048 0.845309
0.0137184 0.0869079 0.847425
0.0153896 0.0874371 0.849838
0.0170544 0.0879339 0.851853
0.0186896 0.0883498 0.852881
0.0202946 0.0886929 0.853038
0.0218825 0.0889981 0.852752
0.0234262 0.0892154 0.851432
0.0249449 0.0893908 0.849635
0.0268313 0.0902817 0.856194
-0.104558 0.0667851 0.880625
-0.102945 0.0671609 0.881176
-0.101306 0.0675188 0.881427
-0.0996786 0.067887 0.881838
-0.0980406 0.068247 0.882129
-0.0963915 0.0685988 0.882291
-0.0947181 0.068933 0.882141
-0.093059 0.0692764 0.882172
-0.0913854 0.0696084 0.882003
-0.0897138 0.0699413 0.881853
-0.0880501 0.0702806 0.881804
-0.0863557 0.0705902 0.881304
-0.084661 0.0708984 0.880774
-0.0829663 0.0712042 0.880214
-0.0812812 0.0715155 0.879774
-0.0796017 0.0718323 0.879394
-0.0779512 0.0721793 0.879465
-0.0762937 0.0725165 0.879426
-0.0746192 0.0728357 0.879075
-0.0729545 0.0731626 0.878886
-0.0712789 0.0734762 0.878476
-0.0695702 0.0737448 0.877403
-0.0678506 0.0739925 0.876046
-0.0660752 0.0741561 0.873459
-0.0642849 0.0742839 0.870371
-0.0624868 0.0743819 0.866892
-0.0607078 0.0744892 0.86358
-0.0589435 0.0746005 0.860348
-0.0572239 0.0747666 0.85795
-0.0554973 0.0749047 0.855166
-0.0537746 0.0750302 0.85223
-0.0520574 0.0751457 0.849178
-0.050354 0.0752656 0.84623
-0.0486796 0.075426 0.843866
-0.0470323 0.0756282 0.842116
-0.0454076 0.0758709 0.84093
-0.0438008 0.0761486 0.840244
-0.0422012 0.0764383 0.839741
-0.0406044 0.0767308 0.839272
-0.0390139 0.0770383 0.839014
-0.037423 0.0773397 0.838673
-0.0358288 0.0776235 0.838105
-0.034234 0.0778964 0.837384
-0.0326398 0.0781593 0.83655
-0.031046 0.0784086 0.835534
-0.0294573 0.0786661 0.834647
-0.0278729 0.0789313 0.833857
-0.026292 0.0792018 0.833157
-0.0247156 0.0794893 0.832675
-0.0231418 0.0797868 0.832323
-0.0215697 0.0800925 0.832093
-0.0199995 0.0804202 0.832143
-0.0184293 0.0807477 0.832198
-0.0168592 0.0810924 0.832463
-0.0152875 0.0814701 0.833157
-0.0137133 0.0818609 0.834001
-0.0121353 0.0822677 0.83505
-0.0105559 0.0826585 0.835875
-0.00897425 0.0830452 0.836649
-0.00739002 0.0834312 0.837418
-0.00580339 0.0838213 0.838224
-0.00422137 0.0841675 0.838484
-0.00263712 0.084523 0.838852
-0.00105972 0.0848412 0.838756
0.000509946 0.085124 0.838244
0.00207999 0.0854179 0.83786
0.00366217 0.0857616 0.838094
0.00524633 0.0861122 0.838401
0.00683907 0.08649 0.839024
0.00843846 0.0868806 0.839814
0.0100622 0.0873402 0.841402
0.0117122 0.0878592 0.843696
0.0133769 0.0884015 0.846234
0.01506 0.0889707 0.849076
0.0167422 0.0895169 0.851629
0.0183972 0.089981 0.853204
0.020021 0.0903644 0.853828
0.0216249 0.0907009 0.853903
0.0231807 0.0909358 0.852807
0.0250539 0.0918234 0.859215
-0.104829 0.0683734 0.879633
-0.103204 0.0687389 0.880024
-0.101572 0.069102 0.880355
-0.099948 0.0694709 0.880786
-0.0983202 0.069838 0.881187
-0.0966825 0.070199 0.881478
-0.0950261 0.0705441 0.881539
-0.0933774 0.0708978 0.8817
-0.0917119 0.0712355 0.881641
-0.0900485 0.0715759 0.881602
-0.0883923 0.071922 0.881662
-0.0866986 0.0722326 0.881183
-0.0850103 0.0725467 0.880753
-0.083328 0.0728633 0.880394
-0.0816446 0.0731787 0.879994
-0.0799652 0.0734957 0.879634
-0.0783265 0.0738567 0.879915
-0.076667 0.0741932 0.879866
-0.0749966 0.0745177 0.879616
-0.0733373 0.0748539 0.879547
-0.0716671 0.0751759 0.879267
-0.0699626 0.0754523 0.878316
-0.0682532 0.075715 0.877211
-0.0664605 0.0758551 0.87434
-0.0646205 0.0759095 0.870285
-0.0627675 0.0759209 0.865653
-0.0609377 0.0759417 0.861191
-0.0591652 0.0760293 0.857717
-0.0574531 0.0761989 0.855423
-0.0557409 0.0763525 0.852941
-0.0540292 0.0764892 0.850241
-0.0523218 0.0766156 0.84741
-0.0506246 0.0767401 0.844605
-0.0489555 0.0769045 0.842361
-0.0473159 0.0771193 0.840811
-0.0456952 0.0773661 0.839724
-0.0440956 0.077658 0.83925
-0.0425031 0.0779643 0.83898
-0.0409118 0.0782709 0.838721
-0.0393244 0.0785866 0.838571
-0.0377331 0.078886 0.838221
-0.0361368 0.0791607 0.837541
-0.0345379 0.0794145 0.836598
-0.032942 0.0796661 0.835634
-0.0313473 0.0799053 0.834512
-0.0297596 0.0801627 0.833635
-0.0281762 0.0804276 0.832873
-0.0265977 0.0807073 0.8323
-0.0250218 0.0809941 0.831834
-0.0234501 0.0813067 0.831684
-0.0218796 0.081629 0.831667
-0.0203096 0.0819585 0.831741
-0.0187395 0.0822854 0.831792
-0.0171695 0.0826279 0.832023
-0.0155988 0.0829803 0.832389
-0.0140263 0.0833534 0.832999
-0.0124504 0.0837527 0.833929
-0.0108735 0.0841262 0.834546
-0.0092953 0.0844975 0.835123
-0.00771373 0.0848835 0.83587
-0.00613119 0.0852605 0.836504
-0.00455278 0.0855988 0.836668
-0.00297103 0.0859531 0.837033
-0.00139608 0.0862687 0.836923
0.000169569 0.0865434 0.836324
0.00173689 0.0868356 0.83593
0.00331848 0.0871884 0.836269
0.00490031 0.0875385 0.836576
0.00649283 0.0879242 0.837293
0.00809469 0.0883339 0.838285
0.00971952 0.0888049 0.839991
0.0113711 0.0893386 0.84242
0.0130431 0.0899114 0.84527
0.0147347 0.0905128 0.848431
0.0164267 0.0910911 0.851307
0.0181004 0.0916049 0.85342
0.0197417 0.0920287 0.854489
0.0213646 0.0924044 0.855006
0.0229401 0.0926748 0.854326
-0.106712 0.0695845 0.878131
-0.10508 0.0699432 0.878412
-0.103461 0.0703131 0.878863
-0.101839 0.0706824 0.879294
-0.100207 0.0710454 0.879614
-0.0985736 0.0714068 0.879925
-0.0969389 0.0717693 0.880236
-0.0952934 0.0721226 0.880417
-0.0936545 0.0724826 0.880688
-0.0920071 0.0728351 0.880859
-0.0903603 0.0731897 0.88104
-0.0887124 0.0735433 0.88121
-0.0870328 0.0738663 0.880931
-0.0853521 0.0741872 0.880622
-0.083678 0.0745127 0.880393
-0.0820094 0.0748438 0.880233
-0.0803371 0.0751689 0.880004
-0.0786978 0.0755311 0.880295
-0.0770356 0.0758668 0.880215
-0.0753623 0.0761895 0.879936
-0.0736984 0.076521 0.879806
-0.072034 0.0768514 0.879657
-0.0703379 0.0771382 0.878897
-0.0686425 0.0774224 0.878096
-0.0667913 0.0774787 0.874116
-0.0649032 0.0774574 0.869093
-0.063007 0.0773948 0.863535
-0.0611566 0.0773718 0.858587
-0.0593906 0.0774593 0.855205
-0.0576893 0.0776384 0.85311
-0.0559818 0.0777914 0.850682
-0.054282 0.0779419 0.848234
-0.0525892 0.0780881 0.845755
-0.050902 0.078227 0.843193
-0.0492412 0.0784039 0.841174
-0.0476085 0.0786293 0.839819
-0.0459946 0.0788893 0.838934
-0.0443963 0.0791818 0.838483
-0.0428049 0.0794891 0.838233
-0.0412145 0.0797966 0.837979
-0.0396275 0.0801108 0.837827
-0.0380346 0.0804017 0.837374
-0.0364408 0.0806827 0.836797
-0.0348409 0.0809288 0.835775
-0.0332457 0.0811793 0.834815
-0.0316514 0.0814168 0.833705
-0.0300642 0.0816724 0.832834
-0.0284815 0.081937 0.832082
-0.0269053 0.0822298 0.831692
-0.0253308 0.0825244 0.831321
-0.0237598 0.0828437 0.831275
-0.0221899 0.083174 0.831357
-0.0206201 0.0835049 0.831447
-0.0190499 0.0838316 0.831489
-0.0174799 0.084165 0.83161
-0.0159095 0.0844992 0.831748
-0.0143384 0.0848539 0.83212
-0.0127643 0.0852423 0.83291
-0.0111901 0.0856002 0.833323
-0.00961512 0.0859559 0.8337
-0.00803648 0.0863321 0.834333
-0.00645758 0.0866977 0.834826
-0.00488415 0.0870186 0.834784
-0.00330643 0.0873647 0.835048
-0.00173266 0.087687 0.835028
-0.000167288 0.0879709 0.834553
0.00139879 0.0882644 0.8342
0.00298019 0.0886272 0.834648
0.0045597 0.088977 0.834951
0.00615209 0.0893714 0.835761
0.0077572 0.0897993 0.836959
0.00938599 0.0902941 0.838897
0.0110393 0.0908424 0.841454
0.0127214 0.0914532 0.844687
0.0144185 0.0920793 0.848067
0.0161209 0.0926914 0.851273
0.0178103 0.0932481 0.85383
0.0194723 0.0937219 0.855433
0.0211133 0.0941356 0.856364
0.0230262 0.0951473 0.863934
-0.106955 0.0711472 0.876851
-0.105327 0.0715094 0.877161
-0.103711 0.0718809 0.877622
-0.102097 0.0722543 0.878122
-0.100474 0.0726236 0.878543
-0.09885 0.0729922 0.878954
-0.0972173 0.0733554 0.879274
-0.0955736 0.0737094 0.879465
-0.0939365 0.0740701 0.879746
-0.0922917 0.0744254 0.879937
-0.0906465 0.0747797 0.880128
-0.0890074 0.0751398 0.880409
-0.0873374 0.0754713 0.880259
-0.085673 0.0758075 0.88018
-0.0840158 0.0761514 0.880201
-0.0823617 0.0764972 0.880272
-0.0806963 0.0768312 0.880163
-0.0790617 0.0771995 0.880543
-0.077399 0.0775355 0.880474
-0.0757211 0.0778534 0.880135
-0.0740533 0.0781811 0.879956
-0.07239 0.0785146 0.879836
-0.0690276 0.0791267 0.878887
-0.0671509 0.0791447 0.87446
-0.0613764 0.0787982 0.856039
-0.0596242 0.0788989 0.852918
-0.057939 0.0790978 0.851146
-0.0562391 0.0792569 0.848859
-0.05455 0.0794211 0.846649
-0.0528674 0.0795809 0.844414
-0.0511893 0.0797328 0.84209
-0.0495333 0.0799152 0.840192
-0.047905 0.0801479 0.838956
-0.0462922 0.0804076 0.838085
-0.0446944 0.0806988 0.837634
-0.0431037 0.0810053 0.83738
-0.0415138 0.0813106 0.837117
-0.0399274 0.0816242 0.836957
-0.0383374 0.0819223 0.836608
-0.0367465 0.0822106 0.836145
-0.0351493 0.0824655 0.835252
-0.0335562 0.0827247 0.834426
-0.0319631 0.082968 0.833412
-0.0303769 0.0832295 0.832632
-0.0287938 0.0834927 0.831872
-0.0272172 0.083785 0.831484
-0.025642 0.0840765 0.831094
-0.0240708 0.0843957 0.831037
-0.0225001 0.0847174 0.831026
-0.0209304 0.085049 0.831119
-0.0193603 0.0853769 0.831171
-0.0177902 0.0857015 0.831189
-0.0162203 0.0860193 0.831122
-0.0146502 0.0863556 0.83128
-0.013078 0.086727 0.831853
-0.0115063 0.0870689 0.83207
-0.00993361 0.0874143 0.83233
-0.00835816 0.0877819 0.832844
-0.00678269 0.0881356 0.833198
-0.00521287 0.0884435 0.833018
-0.00363814 0.0887872 0.833254
-0.00206612 0.0891123 0.833272
-0.000500842 0.0894054 0.832917
0.00106552 0.0897089 0.832687
0.00264503 0.0900721 0.833143
0.00422038 0.0904132 0.833348
0.00581037 0.0908084 0.834154
0.00741594 0.0912482 0.83547
0.00904317 0.0917476 0.837435
0.0107022 0.0923265 0.840287
0.0123941 0.0929781 0.84392
0.0140994 0.0936369 0.847608
0.0158125 0.0942859 0.851167
0.0175167 0.0948855 0.854154
0.0191916 0.0953925 0.85609
0.0208429 0.0958292 0.857253
-0.108878 0.0723869 0.87585
-0.107222 0.0727262 0.87584
-0.105578 0.0730754 0.875961
-0.103948 0.0734347 0.876242
-0.102328 0.0738043 0.876662
-0.100707 0.0741713 0.877062
-0.0990924 0.0745479 0.877573
-0.097468 0.0749163 0.877973
-0.0958345 0.0752785 0.878274
-0.0942073 0.0756464 0.878665
-0.0925712 0.076007 0.878956
-0.0909287 0.076364 0.879166
-0.089292 0.0767258 0.879467
-0.0876314 0.0770648 0.879438
-0.0859773 0.0774115 0.879498
-0.0843367 0.0777717 0.879759
-0.0826972 0.078133 0.88005
-0.0810456 0.0784827 0.880161
-0.0794112 0.0788521 0.880552
-0.0777546 0.0791971 0.880593
-0.0760749 0.0795123 0.880244
-0.0744076 0.0798421 0.880084
-0.07274 0.0801708 0.879905
-0.0634119 0.0802118 0.857817
-0.0615771 0.0801879 0.853106
-0.0598701 0.0803557 0.850939
-0.0581933 0.0805624 0.849317
-0.0565035 0.0807331 0.847237
-0.0548239 0.0809083 0.845235
-0.0531538 0.0810883 0.843308
-0.0514805 0.0812461 0.841106
-0.0498359 0.0814502 0.839531
-0.0482112 0.0816889 0.838403
-0.0466015 0.0819546 0.837635
-0.0450011 0.0822381 0.837088
-0.0434097 0.0825411 0.836808
-0.0418169 0.0828358 0.83642
-0.0402262 0.083133 0.836057
-0.0386372 0.0834306 0.83571
-0.0370494 0.0837275 0.835367
-0.0354569 0.083999 0.834704
-0.033868 0.0842751 0.8341
-0.0322792 0.0845411 0.833381
-0.0306936 0.0848092 0.8327
-0.0291092 0.0850693 0.831925
-0.0275309 0.0853534 0.83144
-0.0259541 0.0856363 0.830955
-0.0243817 0.0859459 0.830791
-0.0228103 0.0862593 0.830673
-0.0212404 0.0865894 0.83075
-0.0196704 0.086917 0.830806
-0.0181003 0.0872431 0.830839
-0.0165305 0.0875539 0.830692
-0.0149607 0.087882 0.83075
-0.0133902 0.0882285 0.831022
-0.0118206 0.0885513 0.831018
-0.0102506 0.0888803 0.831085
-0.0086785 0.08923 0.831394
-0.00710723 0.0895664 0.831542
-0.00553877 0.0898792 0.831429
-0.00396597 0.0902228 0.831667
-0.00239454 0.0905578 0.831793
-0.00082723 0.0908684 0.831653
0.0007414 0.091189 0.831624
0.0023196 0.0915514 0.832073
0.0038932 0.0918922 0.832263
0.00548151 0.0922856 0.833053
0.00708748 0.0927358 0.834455
0.00871131 0.0932314 0.836353
0.0103684 0.0938156 0.839212
0.0120667 0.0944989 0.843135
0.0137742 0.0951754 0.846951
0.015491 0.0958454 0.850675
0.0172023 0.0964726 0.853899
0.0188883 0.0970114 0.85615
0.0205488 0.0974709 0.85754
-0.110877 0.0736805 0.875688
-0.109181 0.0739911 0.87525
-0.107499 0.0743113 0.874951
-0.105833 0.0746424 0.874807
-0.104192 0.0749923 0.874953
-0.102566 0.075355 0.875272
-0.100937 0.0757161 0.875573
-0.0993242 0.0760904 0.876073
-0.0977017 0.0764594 0.876473
-0.0960783 0.0768286 0.876874
-0.094462 0.0772057 0.877384
-0.0928361 0.0775744 0.877785
-0.0912015 0.0779368 0.878085
-0.0895735 0.078307 0.878486
-0.0879224 0.0786554 0.878576
-0.0862772 0.0790086 0.878757
-0.0846453 0.0793774 0.879138
-0.0830157 0.0797503 0.879569
-0.0813785 0.0801166 0.879899
-0.0797516 0.0804959 0.88041
-0.0781018 0.0808488 0.880571
-0.0764299 0.081175 0.880362
-0.0747658 0.08151 0.880273
-0.0618104 0.0816279 0.850917
-0.0601585 0.081883 0.849946
-0.05848 0.082083 0.848272
-0.0567901 0.082249 0.846179
-0.0551103 0.0824193 0.84416
-0.0534409 0.0825964 0.842239
-0.051772 0.0827584 0.840147
-0.0501351 0.0829764 0.838783
-0.0485178 0.0832303 0.837867
-0.0469116 0.0835038 0.837205
-0.0453105 0.0837843 0.836644
-0.0437159 0.0840774 0.836242
-0.0421229 0.0843701 0.835841
-0.0405274 0.0846492 0.835273
-0.0389388 0.0849456 0.834922
-0.0373559 0.0852587 0.834769
-0.0357659 0.0855383 0.834228
-0.0341775 0.0858155 0.833653
-0.032592 0.0860971 0.83314
-0.0310074 0.0863723 0.832555
-0.0294229 0.086634 0.831806
-0.0278449 0.0869248 0.831424
-0.0262677 0.0872078 0.830935
-0.0246937 0.0875066 0.830656
-0.0231212 0.0878099 0.830414
-0.0215506 0.0881301 0.830382
-0.01998 0.0884419 0.830253
-0.0184103 0.0887607 0.830201
-0.0168408 0.0890709 0.830056
-0.0152718 0.0893906 0.830013
-0.0137026 0.0897182 0.830079
-0.0121342 0.0900391 0.830048
-0.0105646 0.0903733 0.830187
-0.00899415 0.0907169 0.830422
-0.00742461 0.0910461 0.830495
-0.00585517 0.0913763 0.830572
-0.00428321 0.091721 0.830821
-0.00271366 0.0920484 0.83087
-0.00114566 0.0923683 0.830835
0.000423953 0.0926963 0.830892
0.00199716 0.0930422 0.831144
0.00356945 0.0933802 0.831313
0.00515567 0.0937729 0.832073
0.00676263 0.0942334 0.833569
0.00838739 0.0947397 0.835559
0.010043 0.0953291 0.838424
0.0117421 0.0960286 0.842446
0.0134516 0.0967207 0.846375
0.0151675 0.0973991 0.85012
0.0168783 0.0980337 0.853369
0.0185743 0.0986043 0.855922
0.0202464 0.0990953 0.857624
-0.112907 0.0749974 0.875846
-0.111184 0.0752895 0.875138
-0.109468 0.0755837 0.87448
-0.107754 0.0758779 0.873819
-0.106054 0.0761807 0.873288
-0.104397 0.0765161 0.873226
-0.102771 0.0768759 0.873518
-0.101137 0.0772312 0.873729
-0.0995281 0.0776076 0.874243
-0.0979163 0.0779838 0.874744
-0.0962968 0.0783534 0.875164
-0.0946923 0.0787394 0.875794
-0.0930866 0.0791268 0.876434
-0.0914695 0.079505 0.876944
-0.08985 0.0798816 0.877445
-0.0882137 0.0802441 0.877725
-0.0865686 0.0805962 0.877896
-0.0849467 0.0809764 0.878406
-0.0833249 0.0813569 0.878947
-0.0816966 0.0817329 0.879408
-0.0800705 0.0821131 0.879928
-0.0784357 0.0824847 0.880329
-0.0767714 0.0828209 0.88025
-0.0751112 0.083161 0.880241
-0.0638228 0.0830168 0.852368
-0.0621594 0.0832604 0.85126
-0.0604951 0.0834952 0.850044
-0.0588008 0.0836654 0.848029
-0.0571011 0.0838107 0.845722
-0.0554157 0.0839676 0.843572
-0.053746 0.0841409 0.841648
-0.0520775 0.0843009 0.839582
-0.0504451 0.0845275 0.838347
-0.048831 0.084788 0.837532
-0.0472242 0.0850589 0.836868
-0.0456175 0.0853238 0.836119
-0.0440205 0.0856083 0.835622
-0.0424248 0.0858911 0.83511
-0.0408248 0.0861525 0.834341
-0.0392388 0.0864539 0.834068
-0.0376565 0.0867656 0.833904
-0.0360693 0.0870537 0.833472
-0.0344831 0.0873382 0.833001
-0.0329016 0.0876372 0.832706
-0.0313174 0.0879136 0.832141
-0.0297353 0.0881907 0.831596
-0.0281574 0.0884833 0.831232
-0.0265795 0.0887641 0.830747
-0.0250045 0.0890547 0.830362
-0.023431 0.0893466 0.829999
-0.02186 0.0896567 0.829852
-0.0202893 0.0899589 0.829616
-0.0187195 0.0902675 0.829464
-0.0171507 0.0905759 0.829302
-0.0155826 0.0908852 0.829149
-0.0140149 0.0912037 0.829098
-0.0124469 0.0915303 0.829145
-0.0108778 0.0918734 0.829379
-0.00930796 0.0922203 0.829644
-0.00773701 0.0925685 0.829934
-0.00616659 0.0929091 0.830125
-0.00459598 0.0932466 0.830293
-0.0030268 0.093574 0.830344
-0.00145764 0.0939023 0.830399
0.000111939 0.0942299 0.830459
0.00168323 0.0945675 0.830617
0.0032548 0.094905 0.830775
0.00483801 0.095287 0.831421
0.00644362 0.0957503 0.832912
0.00806508 0.0962519 0.834816
0.00971928 0.096847 0.83769
0.0114187 0.0975585 0.841781
0.0131286 0.0982634 0.845779
0.0148397 0.0989383 0.849425
0.0165514 0.0995845 0.852746
0.0182495 0.100167 0.855387
0.0199283 0.100683 0.857296
-0.114623 0.0746967 0.876444
-0.114937 0.0763119 0.875973
-0.113224 0.0766134 0.875395
-0.111487 0.0768927 0.874538
-0.10974 0.077163 0.873554
-0.107995 0.0774304 0.872537
-0.106265 0.0777075 0.871662
-0.104588 0.0780243 0.871352
-0.102946 0.0783683 0.871426
-0.101316 0.0787238 0.871646
-0.0997103 0.0791009 0.872167
-0.0981107 0.0794845 0.87278
-0.0965029 0.0798636 0.873313
-0.0949114 0.0802598 0.874075
-0.093319 0.0806582 0.874855
-0.0917136 0.0810455 0.875495
-0.0900962 0.0814227 0.875995
-0.0884695 0.0817935 0.876385
-0.0868334 0.0821539 0.876656
-0.0852203 0.0825415 0.877276
-0.0836074 0.0829324 0.877926
-0.0819879 0.083318 0.878506
-0.0803661 0.0837019 0.879077
-0.0787378 0.0840812 0.879567
-0.0770859 0.0844321 0.879688
-0.0658222 0.0843777 0.853412
-0.0641523 0.0846175 0.852267
-0.0624854 0.0848555 0.851096
-0.0608183 0.085084 0.849834
-0.0591178 0.0852413 0.847696
-0.0574165 0.0853813 0.845372
-0.0557296 0.0855326 0.84321
-0.0540588 0.0857014 0.841273
-0.0523907 0.0858601 0.839225
-0.050758 0.0860853 0.837999
-0.0491441 0.0863453 0.837201
-0.0475373 0.086616 0.836536
-0.04593 0.0868782 0.835783
-0.0443328 0.0871617 0.835286
-0.0427369 0.0874435 0.834774
-0.0411341 0.0876955 0.833906
-0.0395479 0.0879953 0.833621
-0.0379633 0.0882974 0.833352
-0.0363764 0.0885843 0.83292
-0.0347907 0.0888697 0.832463
-0.0332128 0.0891851 0.832358
-0.03163 0.0894693 0.831903
-0.0300503 0.0897636 0.831569
-0.0284732 0.0900654 0.831316
-0.0268946 0.0903475 0.830845
-0.0253178 0.0906276 0.830357
-0.0237428 0.0909084 0.829874
-0.0221706 0.0912078 0.829615
-0.0205993 0.0915007 0.829273
-0.0190296 0.0918077 0.829103
-0.0174607 0.0921131 0.828913
-0.0158926 0.0924207 0.828743
-0.0143251 0.0927295 0.828598
-0.0127574 0.0930571 0.828656
-0.0111886 0.0934037 0.828916
-0.00961874 0.0937518 0.829201
-0.00804802 0.0941026 0.829507
-0.00647676 0.094452 0.829792
-0.00490733 0.0947801 0.82986
-0.00333857 0.0951071 0.829899
-0.00176953 0.0954341 0.829948
-0.000200317 0.0957629 0.830015
0.00136938 0.0960918 0.830091
0.00294445 0.0964473 0.830434
0.00452748 0.0968312 0.831084
0.00613307 0.0972972 0.832588
0.00775419 0.0978031 0.834502
0.0094072 0.0984017 0.837364
0.0110993 0.0991001 0.841248
0.0128032 0.0997986 0.845106
0.0145049 0.100455 0.848509
0.0162108 0.101096 0.851718
0.0179064 0.101681 0.854344
0.0195876 0.102209 0.856363
-0.115229 0.0779113 0.875263
-0.113505 0.0782016 0.874576
-0.111755 0.0784702 0.873585
-0.109986 0.078721 0.87235
-0.108221 0.0789699 0.87111
-0.106464 0.0792207 0.869915
-0.104779 0.0795274 0.869482
-0.103128 0.0798624 0.86943
-0.101492 0.0802088 0.869544
-0.0998806 0.0805782 0.869962
-0.0982925 0.0809706 0.870675
-0.0966877 0.0813498 0.871206
-0.0951092 0.081756 0.872093
-0.0935285 0.0821628 0.872991
-0.0919372 0.0825628 0.87378
-0.0903317 0.082951 0.874409
-0.0887227 0.0833381 0.875016
-0.0870965 0.0837068 0.875407
-0.0854936 0.0841057 0.876146
-0.0838894 0.0845051 0.876906
-0.0822796 0.0849011 0.877616
-0.0806617 0.0852906 0.878226
-0.0790384 0.0856747 0.878786
-0.0661718 0.0860128 0.853686
-0.0645056 0.0862597 0.852644
-0.0628393 0.0864989 0.851523
-0.0611633 0.0867131 0.850104
-0.0594488 0.0868432 0.847688
-0.0577415 0.0869701 0.84525
-0.0560494 0.0871095 0.842985
-0.0543777 0.0872755 0.841044
-0.0527122 0.0874389 0.839097
-0.0510825 0.0876702 0.837979
-0.0494677 0.0879289 0.837178
-0.0478627 0.0882056 0.836595
-0.0462513 0.0884576 0.835739
-0.0446505 0.0887318 0.835134
-0.0430517 0.0890046 0.834534
-0.0414458 0.0892464 0.833568
-0.0398551 0.0895297 0.833091
-0.0382684 0.0898217 0.832716
-0.0366817 0.0901074 0.832274
-0.0350946 0.0903829 0.831721
-0.0335172 0.090698 0.83163
-0.0319349 0.0909821 0.831175
-0.0303572 0.0912845 0.830939
-0.0287805 0.0915862 0.830699
-0.0272036 0.0918778 0.830337
-0.0256275 0.0921648 0.829939
-0.0240531 0.0924528 0.829553
-0.022481 0.0927516 0.829285
-0.0209093 0.0930427 0.828939
-0.0193396 0.0933497 0.82877
-0.0177707 0.093655 0.828579
-0.0162024 0.0939617 0.82841
-0.0146349 0.0942716 0.828275
-0.0130671 0.0946009 0.82835
-0.0114982 0.0949495 0.828629
-0.00992781 0.0953074 0.829007
-0.00835686 0.0956567 0.829301
-0.00678569 0.0960051 0.829572
-0.00521635 0.0963313 0.829616
-0.00364756 0.0966566 0.829643
-0.00208011 0.0969738 0.829585
-0.000509008 0.0973125 0.829758
0.00106277 0.0976522 0.82994
0.00264043 0.0980198 0.830405
0.00422622 0.0984158 0.831166
0.00583681 0.0989032 0.832865
0.00745861 0.0994131 0.834793
0.00910927 0.100007 0.837557
0.0107944 0.10069 0.841214
0.012491 0.101373 0.844851
0.0141781 0.101994 0.847835
0.0158752 0.102618 0.850828
0.017565 0.103196 0.853339
0.019249 0.103739 0.855474
0.0215675 0.103474 0.865873
0.0209253 0.104246 0.857237
-0.117149 0.0791467 0.874283
-0.115457 0.0794613 0.873925
-0.11374 0.079755 0.873288
-0.111971 0.0800056 0.872086
-0.110202 0.0802513 0.870832
-0.10843 0.0804913 0.869496
-0.106664 0.0807311 0.868184
-0.104971 0.081029 0.867646
-0.103322 0.081362 0.867581
-0.101678 0.0816993 0.867584
-0.100061 0.0820603 0.867889
-0.0984742 0.0824516 0.868585
-0.0968708 0.0828294 0.869096
-0.0952953 0.0832365 0.869981
-0.0937266 0.0836532 0.870988
-0.0921542 0.0840699 0.871992
-0.0905678 0.0844762 0.872843
-0.0889848 0.0848891 0.873781
-0.0873782 0.0852789 0.874427
-0.0857867 0.0856902 0.875316
-0.084191 0.0860992 0.876185
-0.0825809 0.086495 0.876875
-0.0809558 0.0868746 0.877365
-0.079325 0.0872486 0.877786
-0.0648637 0.087911 0.853116
-0.0631948 0.088147 0.851978
-0.061506 0.0883389 0.850314
-0.0597845 0.0884553 0.84778
-0.0580719 0.0885708 0.845255
-0.0563789 0.0887074 0.842996
-0.0547022 0.0888614 0.840966
-0.0530387 0.0890287 0.839101
-0.0514083 0.0892591 0.837982
-0.0497925 0.0895162 0.837179
-0.0481835 0.0897834 0.836501
-0.0465708 0.0900321 0.835622
-0.0449663 0.0902963 0.834915
-0.043364 0.0905583 0.834204
-0.0417577 0.0907976 0.833235
-0.0401644 0.0910715 0.832655
-0.0385772 0.0913609 0.832263
-0.0369883 0.0916361 0.831717
-0.0353993 0.091901 0.831061
-0.0338209 0.0922079 0.830869
-0.0322389 0.092489 0.830405
-0.0306617 0.0927905 0.830164
-0.0290869 0.0931012 0.830022
-0.0275115 0.0934015 0.829773
-0.0259371 0.0936998 0.829496
-0.0243635 0.0939962 0.829207
-0.0227911 0.0942947 0.828947
-0.0212197 0.0945867 0.828616
-0.0196499 0.0948953 0.828463
-0.0180807 0.0952019 0.828302
-0.0165123 0.0955102 0.82815
-0.0149443 0.0958291 0.828114
-0.013376 0.0961674 0.828283
-0.0118066 0.0965146 0.82855
-0.0102354 0.0968812 0.829011
-0.00866424 0.0972301 0.829289
-0.00709355 0.0975685 0.829455
-0.00552521 0.097885 0.829394
-0.00395636 0.098209 0.82941
-0.00239009 0.0985158 0.829252
-0.00081742 0.0988649 0.829525
0.000756362 0.0992158 0.829819
0.00233696 0.0995952 0.830403
0.00392548 0.100005 0.831282
0.0055391 0.100506 0.833094
0.00716106 0.101019 0.835019
0.00881141 0.101617 0.837772
0.0104909 0.102286 0.841233
0.0121829 0.102962 0.844739
0.0138654 0.103575 0.847593
0.0155582 0.104193 0.850474
0.0172436 0.104766 0.852889
0.0189305 0.105322 0.855127
0.0206068 0.105833 0.856904
-0.117307 0.0806453 0.872262
-0.115636 0.0809707 0.872083
-0.113933 0.0812719 0.871571
-0.112165 0.0815198 0.870357
-0.11039 0.0817576 0.869023
-0.108629 0.0820022 0.867796
-0.106875 0.0822478 0.866599
-0.105176 0.082536 0.865957
-0.103518 0.0828599 0.86578
-0.101877 0.0831964 0.865771
-0.100252 0.0835487 0.865962
-0.098659 0.0839317 0.866546
-0.0970492 0.0842996 0.866943
-0.0954741 0.0847042 0.867792
-0.0939079 0.0851211 0.868788
-0.0923466 0.0855474 0.86989
-0.0907725 0.0859637 0.870866
-0.089217 0.0864053 0.872141
-0.0876313 0.0868174 0.873049
-0.0860568 0.0872458 0.874157
-0.0844722 0.087669 0.875166
-0.0828659 0.0880675 0.875895
-0.0812365 0.088441 0.876295
-0.0669019 0.0893381 0.85482
-0.0652336 0.0895847 0.853813
-0.0635631 0.0898201 0.852685
-0.0618694 0.0900042 0.850967
-0.0601443 0.0901149 0.848408
-0.0584283 0.0902245 0.845857
-0.0567286 0.0903483 0.843503
-0.0550462 0.0904915 0.841375
-0.0533806 0.090655 0.839505
-0.0517449 0.0908751 0.838286
-0.0501213 0.0911141 0.8373
-0.0485081 0.0913714 0.836519
-0.0468937 0.091617 0.835615
-0.0452852 0.0918699 0.834799
-0.0436794 0.0921214 0.833983
-0.0420726 0.0923595 0.833009
-0.0404758 0.092621 0.83231
-0.0388837 0.0928907 0.831716
-0.0372926 0.0931545 0.831048
-0.0357019 0.0934092 0.830291
-0.0341221 0.0937051 0.829994
-0.0325408 0.0939847 0.829513
-0.0309644 0.0942845 0.829261
-0.0293902 0.0945938 0.829122
-0.027817 0.0949042 0.82898
-0.0262443 0.0952126 0.828823
-0.0246721 0.0955202 0.828664
-0.0231009 0.0958293 0.828518
-0.0215302 0.0961387 0.828382
-0.0199606 0.0964576 0.82834
-0.0183913 0.0967757 0.828295
-0.0168222 0.0970936 0.828253
-0.0152534 0.0974215 0.828311
-0.0136842 0.0977594 0.828468
-0.0121141 0.098106 0.828722
-0.0105421 0.0984728 0.829183
-0.00897099 0.0988132 0.829368
-0.00740056 0.0991439 0.829447
-0.0058329 0.09945 0.829281
-0.00426494 0.0997636 0.829196
-0.00269844 0.100071 0.829041
-0.00112405 0.10043 0.829412
0.000452253 0.100792 0.829819
0.00203739 0.101194 0.830614
0.00363323 0.101634 0.831792
0.00525015 0.10215 0.833717
0.00687555 0.102678 0.835747
0.00852976 0.10329 0.838606
0.010204 0.103945 0.841857
0.0118874 0.104596 0.84506
0.0135631 0.10519 0.847683
0.0152517 0.105801 0.850446
0.0169306 0.106358 0.852675
0.018617 0.106918 0.854916
0.020289 0.107422 0.85659
-0.11917 0.0818388 0.870785
-0.11749 0.0821568 0.870501
-0.115816 0.0824785 0.870274
-0.114108 0.0827719 0.869682
-0.112334 0.0830103 0.868385
-0.110575 0.0832561 0.867199
-0.108838 0.0835171 0.86621
-0.107107 0.0837784 0.865241
-0.105418 0.0840734 0.864698
-0.103762 0.0843964 0.864528
-0.10212 0.0847306 0.864498
-0.100488 0.0850747 0.864587
-0.0988791 0.0854404 0.86495
-0.0972621 0.0857998 0.86523
-0.0956724 0.0861878 0.865863
-0.0940994 0.0865956 0.866734
-0.0925332 0.0870138 0.867732
-0.090971 0.087441 0.868823
-0.0894357 0.087903 0.87033
-0.0878767 0.0883438 0.871574
-0.086322 0.0887951 0.872932
-0.0847531 0.0892359 0.874147
-0.0831494 0.0896371 0.874896
-0.0815197 0.0900084 0.875276
-0.0672735 0.0910149 0.855495
-0.0656046 0.0912622 0.854519
-0.0639283 0.0914895 0.853315
-0.0622301 0.0916668 0.851546
-0.0605015 0.0917713 0.84896
-0.0587821 0.0918745 0.846391
-0.0570763 0.0919865 0.843939
-0.0553876 0.092117 0.841702
-0.0537196 0.0922761 0.83982
-0.052078 0.0924838 0.83848
-0.0504465 0.0927042 0.8373
-0.048832 0.0929585 0.836508
-0.0472197 0.0932108 0.835695
-0.0456073 0.0934538 0.834781
-0.043998 0.0936951 0.833867
-0.0423899 0.0939296 0.832879
-0.0407873 0.0941708 0.831976
-0.0391928 0.0944303 0.83127
-0.0375991 0.0946824 0.830493
-0.0360062 0.0949247 0.829628
-0.0344248 0.0952094 0.829215
-0.0328439 0.0954879 0.828735
-0.0312667 0.0957782 0.828385
-0.0296948 0.0960965 0.828342
-0.0281235 0.0964161 0.828307
-0.0265523 0.0967343 0.828265
-0.0249814 0.0970528 0.82822
-0.023411 0.0973716 0.828176
-0.0218407 0.09769 0.828141
-0.0202712 0.098018 0.828199
-0.0187017 0.098346 0.828256
-0.0171322 0.098674 0.828314
-0.0155627 0.099002 0.828372
-0.0139931 0.09933 0.82843
-0.0124234 0.0996684 0.828588
-0.0108516 0.100027 0.82896
-0.00928096 0.100359 0.829059
-0.0077107 0.10069 0.829138
-0.00614069 0.101014 0.829158
-0.00457116 0.101338 0.829174
-0.00300251 0.101656 0.829127
-0.00142412 0.102035 0.829698
0.000156502 0.102419 0.830301
0.00174486 0.102833 0.831204
0.00334666 0.103297 0.832601
0.00496749 0.103828 0.834644
0.00659717 0.104371 0.836786
0.00825295 0.10499 0.839658
0.00992321 0.10563 0.842713
0.0115983 0.106254 0.845601
0.0132702 0.106839 0.848088
0.0149525 0.107433 0.850644
0.0166285 0.107985 0.852784
0.0183114 0.108538 0.854924
0.0199827 0.109041 0.856573
-0.120921 0.0829504 0.868272
-0.119294 0.0833049 0.868475
-0.117634 0.0836353 0.868369
-0.115964 0.0839556 0.868143
-0.114261 0.0842493 0.867577
-0.112511 0.0845038 0.866512
-0.110777 0.084766 0.865564
-0.109056 0.0850363 0.864724
-0.107337 0.0853056 0.863876
-0.105651 0.0856 0.863357
-0.103998 0.0859231 0.863184
-0.102348 0.0862487 0.863051
-0.100717 0.0865906 0.863125
-0.0991011 0.0869482 0.863387
-0.0974771 0.0872984 0.863555
-0.095879 0.0876755 0.864053
-0.0942992 0.0880741 0.864803
-0.0927356 0.0884936 0.865794
-0.0911922 0.0889389 0.867097
-0.0896698 0.0894146 0.868743
-0.0881286 0.0898748 0.870198
-0.0865979 0.0903544 0.871873
-0.0850457 0.0908149 0.87331
-0.0834463 0.0912223 0.874106
-0.0818331 0.091615 0.874725
-0.0676513 0.0927039 0.85628
-0.0659899 0.0929676 0.855493
-0.0643165 0.0932031 0.854406
-0.0626107 0.0933691 0.852539
-0.0608738 0.0934595 0.849838
-0.059142 0.0935395 0.847049
-0.0574247 0.0936281 0.844381
-0.0557216 0.093727 0.841841
-0.0540508 0.0938798 0.839922
-0.0524072 0.0940827 0.838558
-0.0507709 0.0942917 0.837272
-0.0491522 0.094536 0.836378
-0.0475423 0.0947958 0.835659
-0.0459262 0.0950279 0.834658
-0.0443141 0.0952612 0.833665
-0.0427077 0.0955017 0.832755
-0.0411043 0.0957407 0.831846
-0.0395067 0.0959894 0.831039
-0.0379103 0.0962303 0.830159
-0.0363148 0.0964606 0.829183
-0.0347298 0.0967258 0.828571
-0.0331475 0.0969938 0.827993
-0.0315694 0.0972744 0.827554
-0.0299984 0.097593 0.827519
-0.0284289 0.097921 0.827577
-0.0268594 0.098249 0.827634
-0.0252899 0.098577 0.827692
-0.0237204 0.098905 0.82775
-0.0221509 0.099233 0.827808
-0.0205814 0.099561 0.827865
-0.0190119 0.099889 0.827923
-0.0174424 0.100217 0.827981
-0.0158728 0.100545 0.828038
-0.0143033 0.100873 0.828096
-0.0127336 0.101212 0.828258
-0.011162 0.101571 0.828625
-0.00959133 0.101903 0.82873
-0.00802019 0.102242 0.82889
-0.00644793 0.102587 0.829109
-0.0048762 0.102923 0.829246
-0.00330358 0.103263 0.829422
-0.00172128 0.103665 0.830196
-0.000135786 0.104071 0.831007
0.00145448 0.104488 0.831928
0.0030578 0.104957 0.833345
0.00467806 0.105484 0.835307
0.00630686 0.106022 0.837368
0.00796044 0.106635 0.840136
0.00962863 0.107271 0.843102
0.0113004 0.107887 0.845862
0.0129714 0.108472 0.848314
0.0146531 0.109067 0.850846
0.016326 0.109613 0.85289
0.018006 0.11016 0.854943
0.0196798 0.110674 0.856663
0.0219845 0.110417 0.866492
0.0213707 0.111221 0.858677
-0.121051 0.0844193 0.866073
-0.11942 0.0847681 0.866213
-0.117777 0.0851069 0.866227
-0.116105 0.0854229 0.865961
-0.114407 0.0857174 0.865418
-0.112692 0.0859948 0.864683
-0.110981 0.086273 0.863955
-0.109273 0.0865512 0.863236
-0.107576 0.0868377 0.862613
-0.105893 0.0871317 0.86211
-0.104232 0.0874459 0.861836
-0.102583 0.0877699 0.861696
-0.100944 0.0881031 0.86166
-0.0993212 0.0884513 0.861809
-0.0976901 0.0887915 0.861867
-0.0960852 0.0891595 0.862249
-0.0945064 0.0895567 0.862979
-0.0929521 0.0899842 0.864055
-0.0914134 0.0904334 0.865384
-0.0899089 0.0909287 0.867234
-0.0883789 0.0914013 0.868814
-0.0868589 0.0918938 0.870607
-0.0853176 0.0923677 0.872174
-0.0837291 0.0927881 0.873108
-0.0821195 0.0931834 0.873767
-0.0680016 0.0943477 0.856518
-0.0663393 0.0946109 0.855742
-0.0646699 0.094855 0.854761
-0.0629628 0.0950193 0.852905
-0.0612235 0.0951045 0.8502
-0.0594887 0.0951777 0.847392
-0.0577682 0.0952598 0.844696
-0.0560546 0.0953354 0.841942
-0.0543779 0.0954745 0.839906
-0.0527289 0.0956647 0.838425
-0.0510912 0.0958695 0.837123
-0.049469 0.0961041 0.836143
-0.047862 0.0963723 0.835528
-0.0462483 0.0966125 0.834629
-0.0446356 0.0968451 0.833643
-0.0430282 0.0970836 0.832736
-0.0414266 0.0973309 0.831925
-0.039828 0.0975781 0.83112
-0.0382264 0.0977999 0.830061
-0.0366303 0.0980282 0.829065
-0.0350422 0.0982802 0.828336
-0.0334579 0.0985374 0.827653
-0.0318781 0.098808 0.827128
-0.0303086 0.099136 0.827186
-0.0287391 0.099464 0.827243
-0.0271695 0.099792 0.827301
-0.0256001 0.10012 0.827359
-0.0240306 0.100448 0.827416
-0.0224611 0.100776 0.827474
-0.0208916 0.101104 0.827532
-0.019322 0.101432 0.827589
-0.0177525 0.10176 0.827647
-0.016183 0.102088 0.827705
-0.0146135 0.102416 0.827762
-0.0130437 0.102754 0.827921
-0.011473 0.103104 0.828183
-0.0099021 0.103444 0.828357
-0.00832997 0.103792 0.828618
-0.00675627 0.104151 0.828974
-0.00518137 0.104512 0.82934
-0.00360358 0.104886 0.829843
-0.00201815 0.105301 0.830736
-0.000429614 0.105719 0.831652
0.00116406 0.10615 0.832685
0.00276875 0.106623 0.834107
0.00438562 0.107131 0.835866
0.00601424 0.107669 0.837887
0.00766581 0.108274 0.840538
0.00933138 0.108905 0.843408
0.010998 0.109505 0.845982
0.0126716 0.110105 0.848522
0.0143497 0.110693 0.85094
0.0160229 0.111242 0.852986
0.0176995 0.111783 0.854946
0.0193773 0.11231 0.856767
0.0210687 0.112861 0.85879
-0.122811 0.0855354 0.863761
-0.121205 0.0859005 0.864111
-0.119576 0.0862479 0.864236
-0.11794 0.0865904 0.864309
-0.116259 0.0868961 0.863924
-0.114566 0.0871911 0.863412
-0.112874 0.0874844 0.862883
-0.111177 0.0877704 0.862276
-0.109481 0.0880568 0.861669
-0.107797 0.0883501 0.861161
-0.106123 0.0886509 0.860746
-0.104454 0.0889546 0.860363
-0.102806 0.0892769 0.860206
-0.101159 0.0895994 0.860061
-0.0995299 0.0899393 0.860108
-0.0978921 0.0902697 0.860056
-0.0962801 0.0906271 0.860321
-0.0946952 0.0910158 0.860933
-0.0931443 0.0914441 0.862016
-0.0916094 0.0918958 0.863351
-0.09011 0.0923953 0.865224
-0.0885981 0.0928882 0.867007
-0.0870947 0.0933995 0.868994
-0.08556 0.0938804 0.870618
-0.0839862 0.094318 0.871737
-0.0823981 0.0947418 0.872691
-0.068341 0.0959744 0.856541
-0.0666797 0.0962398 0.855801
-0.0650119 0.0964874 0.854871
-0.063308 0.0966572 0.853115
-0.0615668 0.0967382 0.850409
-0.0598334 0.0968138 0.847675
-0.0581107 0.0968913 0.844975
-0.0563945 0.0969604 0.842213
-0.0547124 0.0970874 0.840078
-0.0530578 0.0972643 0.838487
-0.0514156 0.0974579 0.837086
-0.0497893 0.0976819 0.836013
-0.048182 0.0979502 0.835404
-0.0465708 0.0981985 0.834607
-0.0449599 0.0984383 0.833718
-0.0433521 0.0986775 0.832825
-0.0417521 0.0989332 0.832121
-0.0401529 0.0991814 0.831339
-0.0385522 0.0994109 0.830369
-0.0369562 0.0996454 0.829455
-0.0353666 0.0998957 0.828717
-0.0337789 0.100141 0.827927
-0.0321963 0.1004 0.827284
-0.030623 0.100708 0.827139
-0.0290504 0.101016 0.827003
-0.0274797 0.101335 0.826967
-0.0259103 0.101663 0.827025
-0.0243408 0.101991 0.827083
-0.0227713 0.102319 0.827141
-0.0212017 0.102647 0.827198
-0.0196322 0.102975 0.827256
-0.0180627 0.103303 0.827314
-0.0164932 0.103631 0.827371
-0.0149237 0.103959 0.827429
-0.0133535 0.104306 0.827672
-0.0117827 0.104655 0.827931
-0.0102111 0.105006 0.828202
-0.00863779 0.105366 0.828574
-0.00706128 0.105747 0.829142
-0.00548413 0.106125 0.829655
-0.00390244 0.106521 0.830366
-0.00231412 0.10695 0.83137
-0.000722386 0.107382 0.832399
0.00087435 0.107824 0.833524
0.00248059 0.1083 0.834945
0.00409386 0.108787 0.836474
0.00572199 0.109322 0.838434
0.00737068 0.109917 0.840952
0.00903195 0.110533 0.843641
0.0106939 0.111121 0.846054
0.0123677 0.111724 0.848594
0.0140452 0.112316 0.851006
0.0157192 0.11287 0.853068
0.0173928 0.113406 0.854944
0.0190716 0.113939 0.856793
0.0207626 0.114491 0.858804
-0.124602 0.0866759 0.861819
-0.123014 0.087052 0.862298
-0.121405 0.0874128 0.86259
-0.119773 0.0877564 0.862676
-0.118153 0.0881099 0.862883
-0.116475 0.088416 0.862517
-0.114786 0.088711 0.862023
-0.113098 0.0890049 0.861514
-0.111402 0.0892897 0.860908
-0.109699 0.0895658 0.860207
-0.108015 0.0898578 0.85969
-0.106334 0.0901492 0.859176
-0.104657 0.0904411 0.858678
-0.103 0.0907531 0.858403
-0.101346 0.0910652 0.85814
-0.0997189 0.0914031 0.858185
-0.0980912 0.091741 0.858225
-0.0964831 0.0921004 0.858503
-0.0949075 0.0924965 0.859202
-0.0933672 0.092935 0.860384
-0.0918357 0.0933895 0.861731
-0.0903388 0.0938913 0.863603
-0.0888443 0.0944045 0.865587
-0.0873446 0.0949201 0.867592
-0.0858131 0.0954042 0.869229
-0.0842438 0.0958465 0.870384
-0.0686597 0.0975654 0.856164
-0.0669987 0.0978297 0.855438
-0.0653352 0.0980846 0.854599
-0.0636356 0.0982612 0.852951
-0.0618987 0.0983489 0.850366
-0.0601692 0.0984315 0.84775
-0.0584496 0.0985156 0.84516
-0.0567322 0.0985815 0.842411
-0.0550484 0.0987052 0.840278
-0.0533887 0.0988698 0.838587
-0.0517448 0.0990601 0.837174
-0.0501137 0.0992721 0.835999
-0.0485025 0.0995296 0.835297
-0.0468908 0.0997775 0.834493
-0.0452793 0.100016 0.833612
-0.0436711 0.100254 0.832734
-0.0420732 0.10052 0.832128
-0.0404757 0.100776 0.831451
-0.0388742 0.101006 0.830494
-0.0372795 0.10125 0.829695
-0.0356886 0.101499 0.828952
-0.0341013 0.101752 0.828246
-0.0325155 0.101999 0.827497
-0.0309396 0.102295 0.82723
-0.0293647 0.10259 0.82697
-0.0277921 0.102897 0.826821
-0.0262207 0.103207 0.826691
-0.0246511 0.103535 0.826749
-0.0230816 0.103863 0.826807
-0.0215121 0.104191 0.826864
-0.0199426 0.104519 0.826922
-0.0183731 0.104847 0.82698
-0.0168036 0.105184 0.82713
-0.0152339 0.105513 0.827196
-0.0136636 0.105862 0.82745
-0.0120919 0.106221 0.827809
-0.0105186 0.106593 0.828283
-0.00894376 0.106968 0.82878
-0.00736436 0.107374 0.829568
-0.00578375 0.107771 0.830268
-0.0042007 0.108169 0.830979
-0.00261125 0.108601 0.831986
-0.0010183 0.109033 0.833006
0.000579767 0.10948 0.834143
0.00218334 0.109936 0.835367
0.0037946 0.110412 0.836771
0.0054183 0.110926 0.838513
0.00706115 0.111502 0.840808
0.00871953 0.112112 0.843407
0.0103836 0.112715 0.845914
0.0120601 0.113335 0.848566
0.0137412 0.113942 0.851088
0.0154185 0.114512 0.853259
0.0170896 0.11504 0.855045
0.0187718 0.115588 0.856986
0.0204589 0.116131 0.858888
-0.126356 0.08779 0.859589
-0.124786 0.0881761 0.860199
-0.123201 0.0885536 0.860692
-0.121582 0.0889043 0.860877
-0.119951 0.0892469 0.860945
-0.11833 0.0895966 0.861112
-0.116655 0.0899029 0.860755
-0.114978 0.0902041 0.860358
-0.113299 0.0905032 0.85993
-0.111595 0.0907775 0.85922
-0.109885 0.0910442 0.858421
-0.108204 0.0913341 0.857906
-0.106515 0.0916147 0.857282
-0.10482 0.091887 0.856567
-0.103165 0.0921953 0.856271
-0.101512 0.0925049 0.855993
-0.0998886 0.0928435 0.856045
-0.0982664 0.0931831 0.856117
-0.0966772 0.0935592 0.85659
-0.0951061 0.0939579 0.85731
-0.0935759 0.0944063 0.858586
-0.0920546 0.0948707 0.860027
-0.0905609 0.095375 0.861903
-0.0890687 0.0958902 0.86388
-0.0875786 0.096418 0.865975
-0.0860419 0.0968937 0.867501
-0.084475 0.0973369 0.868652
-0.0690173 0.0992248 0.856524
-0.0673528 0.099485 0.855751
-0.0656735 0.0997109 0.854629
-0.0639783 0.0998961 0.853097
-0.0622451 0.0999907 0.850625
-0.0605153 0.100073 0.848049
-0.0587947 0.100154 0.845483
-0.0570762 0.100218 0.84275
-0.0553827 0.100319 0.840425
-0.0537172 0.10047 0.838622
-0.0520711 0.100655 0.837178
-0.0504353 0.100854 0.835891
-0.04882 0.101101 0.835086
-0.0472103 0.101355 0.834371
-0.0455985 0.101593 0.833493
-0.0439898 0.101831 0.832615
-0.0423939 0.102105 0.832115
-0.0407979 0.10237 0.831526
-0.0391978 0.102608 0.830677
-0.0376045 0.102863 0.830001
-0.0360132 0.103115 0.829299
-0.0344264 0.103378 0.828701
-0.0328388 0.103622 0.827932
-0.0312582 0.103896 0.827452
-0.0296807 0.104178 0.827065
-0.0281059 0.104472 0.826787
-0.0265318 0.104759 0.826451
-0.0249613 0.105078 0.826416
-0.0233918 0.105406 0.826473
-0.0218223 0.105734 0.826531
-0.0202528 0.106062 0.826589
-0.0186832 0.10639 0.826646
-0.0171137 0.106738 0.826898
-0.0155437 0.107077 0.827066
-0.0139727 0.107439 0.827436
-0.0124001 0.107812 0.827916
-0.0108248 0.108209 0.82861
-0.00924798 0.108596 0.829217
-0.00766761 0.109005 0.830014
-0.00608612 0.109402 0.830705
-0.00450115 0.10981 0.831489
-0.00291216 0.110231 0.832383
-0.0013184 0.110664 0.833395
0.000280628 0.111113 0.834535
0.00188315 0.111561 0.835665
0.00349117 0.112021 0.836892
0.0051102 0.112513 0.838421
0.00674536 0.113059 0.840412
0.00839697 0.113651 0.842794
0.0100623 0.114266 0.845383
0.0117409 0.114903 0.848149
0.0134279 0.115539 0.850894
0.0151155 0.116147 0.85338
0.0167938 0.116703 0.855374
0.0184759 0.11725 0.857292
0.0201584 0.117783 0.859063
-0.128109 0.0889033 0.857422
-0.126528 0.0892786 0.857895
-0.124953 0.08966 0.85844
-0.123364 0.0900314 0.858867
-0.121742 0.0903782 0.858997
-0.120103 0.0907116 0.858972
-0.118485 0.0910611 0.859141
-0.116812 0.0913659 0.85878
-0.115137 0.0916656 0.858372
-0.113459 0.0919617 0.857932
-0.111756 0.092233 0.857209
-0.110057 0.0925051 0.856498
-0.108387 0.0928026 0.856076
-0.106701 0.0930826 0.855462
-0.105009 0.0933527 0.854748
-0.103354 0.0936571 0.85443
-0.101694 0.0939571 0.854049
-0.100066 0.0942865 0.85401
-0.0984483 0.0946285 0.854102
-0.0968644 0.0950071 0.854606
-0.0952967 0.0954065 0.855333
-0.0937696 0.095856 0.856608
-0.0922515 0.0963228 0.858048
-0.0907678 0.0968379 0.860013
-0.089279 0.0973559 0.861991
-0.0877917 0.0978855 0.864081
-0.0862465 0.0983478 0.865442
-0.0846833 0.0987927 0.866599
-0.08311 0.0992294 0.867661
-0.0693834 0.100902 0.857032
-0.0676907 0.101111 0.855751
-0.066 0.101315 0.85442
-0.0643147 0.101519 0.853104
-0.062591 0.101632 0.850868
-0.0608693 0.101732 0.848512
-0.0591549 0.101829 0.846142
-0.057433 0.101886 0.843394
-0.0557324 0.101972 0.840946
-0.0540567 0.102099 0.838927
-0.0524045 0.10227 0.837366
-0.0507633 0.102456 0.835959
-0.0491436 0.10269 0.835053
-0.0475329 0.102943 0.834333
-0.0459229 0.103188 0.833543
-0.0443105 0.103415 0.832572
-0.0427113 0.103677 0.831968
-0.0411171 0.103951 0.831473
-0.0395188 0.104199 0.83073
-0.0379273 0.104465 0.830175
-0.0363372 0.104728 0.829589
-0.0347528 0.105011 0.829197
-0.0331656 0.105266 0.828545
-0.0315835 0.105541 0.828082
-0.0300015 0.105801 0.827485
-0.0284238 0.106081 0.827078
-0.0268459 0.106344 0.826511
-0.025273 0.10664 0.826269
-0.0237019 0.106948 0.82614
-0.0221329 0.107286 0.82629
-0.0205633 0.107615 0.826356
-0.0189939 0.107953 0.82651
-0.0174241 0.108324 0.826961
-0.0158535 0.108676 0.827246
-0.0142816 0.109042 0.827649
-0.0127074 0.109436 0.828317
-0.0111304 0.109845 0.829113
-0.009553 0.110227 0.829651
-0.00797147 0.110637 0.830451
-0.006389 0.111033 0.831122
-0.00480465 0.11143 0.831787
-0.0032151 0.11185 0.832667
-0.00162057 0.112286 0.833683
-2.07314e-05 0.112737 0.834828
0.00158241 0.113187 0.835959
0.00319122 0.113648 0.837181
0.00480622 0.114123 0.838514
0.00643628 0.114649 0.840299
0.0080815 0.115215 0.842436
0.00974257 0.115823 0.844913
0.0114179 0.116454 0.847592
0.0131082 0.117112 0.850488
0.0148023 0.117751 0.853205
0.0164875 0.118333 0.855408
0.0181695 0.118883 0.857321
0.0198515 0.119416 0.859073
-0.129897 0.0900439 0.855617
-0.128313 0.0904144 0.85604
-0.126714 0.0907743 0.856332
-0.125122 0.0911415 0.85671
-0.12352 0.091501 0.856993
-0.121882 0.091832 0.856954
-0.120246 0.0921643 0.856926
-0.118631 0.0925138 0.857094
-0.116961 0.092817 0.856732
-0.115288 0.0931152 0.856324
-0.113613 0.0934107 0.855884
-0.111913 0.0936799 0.855163
-0.110216 0.0939509 0.854454
-0.10855 0.0942468 0.854043
-0.106867 0.0945259 0.853438
-0.105178 0.094795 0.852732
-0.103527 0.0951 0.852424
-0.101878 0.0954061 0.852134
-0.100253 0.0957359 0.852105
-0.0986462 0.0960865 0.852296
-0.0970651 0.096466 0.852802
-0.0954995 0.0968649 0.853523
-0.0939757 0.0973166 0.854801
-0.0924675 0.097794 0.856333
-0.0909802 0.0983034 0.858211
-0.0895018 0.0988336 0.860288
-0.0880163 0.0993644 0.862362
-0.0864736 0.0998283 0.863718
-0.0849092 0.100269 0.864821
-0.0714332 0.102345 0.858534
-0.0697583 0.102596 0.857695
-0.0680463 0.102772 0.856081
-0.0663445 0.102955 0.854562
-0.0646636 0.103168 0.853364
-0.0629435 0.103289 0.851244
-0.0612245 0.103395 0.848993
-0.0595116 0.103497 0.846704
-0.0577863 0.103548 0.843932
-0.0560785 0.103618 0.841364
-0.0543957 0.103728 0.839217
-0.0527337 0.103874 0.837432
-0.0510877 0.104047 0.835925
-0.0494673 0.10428 0.835022
-0.0478533 0.104523 0.834217
-0.0462452 0.104776 0.833518
-0.0446344 0.10501 0.832634
-0.0430343 0.105272 0.832025
-0.0414394 0.105545 0.831537
-0.0398447 0.105811 0.830983
-0.0382544 0.106088 0.830531
-0.0366652 0.106362 0.830057
-0.0350831 0.106665 0.829863
-0.0334977 0.106942 0.829427
-0.0319142 0.107221 0.829002
-0.0303299 0.107482 0.828422
-0.0287497 0.107759 0.827988
-0.0271662 0.107987 0.827104
-0.0255888 0.108249 0.826543
-0.0240164 0.108553 0.82638
-0.0224465 0.108892 0.826537
-0.020876 0.109224 0.826626
-0.0193058 0.109575 0.826896
-0.0177352 0.109967 0.827542
-0.0161631 0.110322 0.827841
-0.01459 0.110679 0.828156
-0.0130145 0.111076 0.828831
-0.0114366 0.111484 0.829606
-0.00985885 0.111853 0.830029
-0.00827723 0.112255 0.830737
-0.00669396 0.112652 0.831401
-0.00510989 0.113039 0.831972
-0.00351971 0.113461 0.832856
-0.00192442 0.113901 0.833893
-0.000323955 0.114354 0.835035
0.00127809 0.114796 0.836075
0.0028846 0.115246 0.837177
0.00449484 0.115697 0.838288
0.00612128 0.116211 0.839939
0.00775988 0.116755 0.841849
0.00941956 0.117364 0.844308
0.0110963 0.118011 0.847089
0.0127929 0.1187 0.850217
0.0144908 0.11936 0.853079
0.0161836 0.119973 0.855512
0.0178665 0.12053 0.857453
0.01984 0.121981 0.867038
-0.131801 0.0912705 0.854852
-0.13017 0.0916045 0.854849
-0.128537 0.0919376 0.854835
-0.12691 0.0922746 0.854868
-0.125292 0.0926198 0.854993
-0.123665 0.092957 0.855026
-0.122007 0.0932689 0.854776
-0.120362 0.0935901 0.854632
-0.118748 0.0939371 0.85478
-0.117082 0.0942394 0.854428
-0.115414 0.0945385 0.854044
-0.113755 0.0948435 0.853727
-0.112068 0.0951218 0.853121
-0.110376 0.0953915 0.852427
-0.108723 0.0956974 0.852131
-0.107045 0.0959764 0.851546
-0.105359 0.0962453 0.850857
-0.10371 0.0965492 0.85055
-0.102065 0.0968551 0.850269
-0.100433 0.0971741 0.850129
-0.0988358 0.0975316 0.850403
-0.0972645 0.0979193 0.850995
-0.0957014 0.0983191 0.851713
-0.0941797 0.0987716 0.852981
-0.0926812 0.0992585 0.854603
-0.0911972 0.0997711 0.856482
-0.0897152 0.100295 0.858472
-0.0882329 0.100829 0.860545
-0.0867032 0.101309 0.862045
-0.085134 0.10174 0.863039
-0.0734988 0.103808 0.86018
-0.0717999 0.104025 0.859002
-0.0701226 0.104274 0.858147
-0.0683982 0.104426 0.856334
-0.0666925 0.104602 0.854769
-0.0650162 0.104826 0.853691
-0.0632999 0.104956 0.851691
-0.0615785 0.105058 0.84943
-0.0598634 0.105155 0.84714
-0.058131 0.10519 0.844256
-0.0564168 0.105245 0.841581
-0.0547315 0.10535 0.839414
-0.0530642 0.105482 0.837526
-0.0514163 0.10565 0.836001
-0.0497951 0.105883 0.835104
-0.0481775 0.106117 0.834222
-0.0465658 0.106359 0.833428
-0.0449569 0.1066 0.832633
-0.0433562 0.106862 0.832033
-0.0417607 0.107135 0.831549
-0.0401678 0.107412 0.831101
-0.0385787 0.107698 0.830743
-0.0369903 0.107981 0.830364
-0.0354111 0.108306 0.830373
-0.0338278 0.108605 0.830147
-0.0322459 0.108907 0.829947
-0.0306624 0.109192 0.829589
-0.0290799 0.10947 0.829173
-0.0274921 0.109682 0.828155
-0.0259109 0.109928 0.827452
-0.0243354 0.11022 0.827169
-0.022763 0.110549 0.827236
