ply
format ascii 1.0
element vertex 1697
property float x
property float y
property float z
end_header
0.0732692 0.219758 0.71705
0.0748218 0.220646 0.71826
0.0763818 0.221545 0.719504
0.077938 0.222428 0.720675
0.0795474 0.223415 0.722275
0.0811777 0.224438 0.724019
0.0827833 0.225401 0.725493
0.0843816 0.22634 0.726865
0.0859502 0.227209 0.727943
-0.0148988 0.200011 0.808302
-0.0170625 0.201222 0.809878
-0.0155177 0.201862 0.809808
-0.0134244 0.199148 0.800558
-0.0140096 0.201596 0.805153
-0.00827903 0.198288 0.775584
-0.00687209 0.197828 0.770146
-0.00547775 0.19741 0.764952
-0.00403401 0.197674 0.763166
-0.00257574 0.198133 0.762351
-0.00111989 0.198589 0.761525
0.000327213 0.198985 0.760412
0.00177213 0.199389 0.759344
0.00320912 0.199756 0.758104
0.0046484 0.200161 0.757051
0.0060912 0.200611 0.756226
0.00754496 0.201143 0.755804
0.00900461 0.201721 0.755599
0.0104679 0.202321 0.755503
0.0119342 0.202938 0.755489
0.0133968 0.203535 0.755373
0.0148594 0.20413 0.755253
0.0163187 0.204707 0.755049
0.0177692 0.205244 0.754651
0.0192174 0.205773 0.754222
0.0206553 0.206257 0.753585
0.0220915 0.206742 0.752954
0.0235229 0.207212 0.752256
0.024967 0.207742 0.751844
0.0264153 0.208296 0.751536
0.0278791 0.208911 0.75152
0.0293489 0.209551 0.751613
0.0308305 0.210231 0.751894
0.0323293 0.210975 0.752457
0.0338384 0.211747 0.753148
0.0353403 0.212485 0.75368
0.0368427 0.213219 0.754191
0.0383377 0.213923 0.75456
0.0398023 0.214521 0.754447
0.041253 0.215072 0.754128
0.0428559 0.216114 0.756005
0.0446002 0.217582 0.759775
0.0464978 0.219491 0.765483
0.0486245 0.218814 0.766388
0.0484328 0.221467 0.77145
0.0503918 0.220251 0.769978
0.0501921 0.222868 0.774843
0.052009 0.224411 0.778837
0.0560223 0.214819 0.720607
0.0570011 0.214261 0.715597
0.0580133 0.213822 0.711129
0.0594694 0.214537 0.711642
0.0609014 0.215189 0.711878
0.0623523 0.215885 0.712302
0.0638159 0.216608 0.712839
0.0653019 0.217381 0.713583
0.0667984 0.218171 0.714401
0.0682809 0.218926 0.715057
0.0698084 0.219778 0.716122
0.0713436 0.220642 0.717231
0.0728689 0.221476 0.718205
0.0744227 0.222367 0.719414
0.0759761 0.223251 0.720581
0.0775364 0.22414 0.72177
0.0791681 0.225177 0.723558
0.0808128 0.226231 0.725405
0.0824336 0.227225 0.726996
0.0840576 0.228215 0.728563
0.0856286 0.22909 0.729646
-0.0247872 0.198183 0.811055
-0.0254211 0.199614 0.810404
-0.0238739 0.200082 0.809453
-0.0216965 0.199251 0.809819
-0.0223297 0.20064 0.808967
-0.0207866 0.201242 0.808702
-0.0186076 0.200562 0.809844
-0.0192421 0.201939 0.808928
-0.0176984 0.202565 0.808792
-0.0161551 0.203183 0.808609
-0.0146277 0.20338 0.806317
-0.0125124 0.201399 0.80087
-0.0131069 0.203572 0.804016
-0.00742353 0.199972 0.773334
-0.00604318 0.199272 0.766777
-0.00461705 0.199289 0.763781
-0.00315644 0.199747 0.762964
-0.00170041 0.20018 0.762033
-0.000253995 0.200549 0.760793
0.00118818 0.200915 0.759541
0.00262202 0.201238 0.758096
0.00405734 0.201603 0.756859
0.00550032 0.202045 0.756002
0.00695422 0.202575 0.755568
0.00841457 0.203154 0.755368
0.00987841 0.203756 0.755279
0.0113448 0.204371 0.755254
0.0128042 0.204946 0.755035
0.0142632 0.20552 0.754815
0.0157185 0.206077 0.754514
0.0171736 0.206634 0.754215
0.0186272 0.207186 0.7539
0.0200708 0.207695 0.753379
0.0215123 0.208201 0.752845
0.0229483 0.208685 0.752217
0.0243969 0.209232 0.751879
0.0258515 0.209804 0.751664
0.0273219 0.210446 0.751759
0.0287991 0.211111 0.751966
0.0302937 0.21184 0.75246
0.0318069 0.212633 0.753242
0.0333302 0.213455 0.754148
0.0348468 0.214241 0.754889
0.036369 0.21504 0.755679
0.0378921 0.215832 0.756437
0.0393756 0.216483 0.756553
0.0408972 0.217258 0.757225
0.0425837 0.218561 0.760241
0.0443849 0.220204 0.764743
0.0462935 0.222144 0.770532
0.0481893 0.223996 0.775895
0.0500446 0.225679 0.780486
0.0517272 0.226813 0.782643
0.0577839 0.216029 0.714457
0.0590541 0.216256 0.712871
0.0604911 0.216915 0.713132
0.0619533 0.217636 0.713651
0.0634287 0.218383 0.714281
0.064926 0.21918 0.715115
0.0664179 0.219957 0.715861
0.0679096 0.220728 0.71658
0.0694291 0.221558 0.717538
0.0709393 0.222362 0.718381
0.0724469 0.223154 0.719171
0.0740004 0.224046 0.720367
0.0755668 0.224957 0.721637
0.0771533 0.225903 0.723046
0.0788081 0.226991 0.725027
0.0804775 0.228099 0.727074
0.0821122 0.22912 0.728762
0.0837314 0.2301 0.730271
0.085297 0.23096 0.731279
-0.0260548 0.201049 0.809773
-0.0245069 0.201502 0.808758
-0.0229629 0.202054 0.808236
-0.0214194 0.20266 0.808004
-0.0198765 0.203309 0.807979
-0.0183341 0.203873 0.807538
-0.0167936 0.204433 0.807065
-0.0152574 0.204881 0.806048
-0.0137244 0.205325 0.805013
-0.0116332 0.203016 0.797983
-0.0122268 0.205109 0.800711
-0.00659557 0.201339 0.769572
-0.00518424 0.201103 0.765353
-0.00373502 0.201401 0.763758
-0.00227873 0.20181 0.762712
-0.000834728 0.202135 0.761262
0.000604912 0.202457 0.759807
0.00203588 0.202736 0.75816
0.00347184 0.203096 0.7569
0.0049139 0.203518 0.755954
0.00636897 0.204051 0.755533
0.00783083 0.204633 0.755346
0.00929851 0.205254 0.755346
0.0107629 0.205852 0.755238
0.0122221 0.206422 0.754996
0.0136815 0.206993 0.754762
0.0151374 0.207548 0.754453
0.0165934 0.208106 0.75416
0.0180485 0.208661 0.753853
0.0194938 0.209172 0.753347
0.020937 0.209679 0.752822
0.0223737 0.210164 0.752195
0.0238234 0.210709 0.751852
0.0252786 0.211282 0.751637
0.0267501 0.211925 0.751738
0.0282339 0.212616 0.752055
0.0297507 0.213431 0.752934
0.0312941 0.214339 0.754227
0.0328447 0.215261 0.755567
0.0343885 0.216141 0.756716
0.0359376 0.217028 0.757887
0.037478 0.21787 0.758854
0.0390123 0.218682 0.759679
0.040592 0.21964 0.761138
0.0423455 0.221157 0.765063
0.0442021 0.222972 0.770274
0.046067 0.224767 0.775367
0.0478844 0.226371 0.779588
0.0496362 0.227735 0.782743
0.0512024 0.228515 0.783336
0.0530534 0.226891 0.780172
0.0526568 0.228957 0.782461
0.0540169 0.225947 0.773268
0.0538992 0.22879 0.778956
0.0577239 0.218709 0.719738
0.058776 0.218343 0.715636
0.0600408 0.21855 0.713977
0.0615307 0.219337 0.714768
0.0630283 0.220137 0.71561
0.0645305 0.220942 0.716468
0.066034 0.221744 0.717309
0.0675265 0.222516 0.718016
0.0690307 0.223308 0.718802
0.0705237 0.224068 0.719454
0.0720403 0.22488 0.72031
0.073597 0.225776 0.721514
0.0751788 0.22672 0.722908
0.07679 0.227722 0.724527
0.07846 0.228843 0.726625
0.0801432 0.229981 0.728775
0.0818 0.231049 0.730637
0.0834262 0.232041 0.732174
0.0849845 0.232883 0.733098
-0.0282805 0.203303 0.816631
-0.0266882 0.202475 0.809104
-0.0251397 0.202905 0.807972
-0.0235951 0.203428 0.807319
-0.0220525 0.204037 0.8071
-0.02051 0.204666 0.80698
-0.0189686 0.20521 0.806437
-0.01743 0.205704 0.805643
-0.0158964 0.2061 0.804378
-0.0143663 0.206491 0.803091
-0.0128552 0.206553 0.800194
-0.0107753 0.204312 0.793571
-0.0113838 0.206029 0.794444
-0.0093603 0.203282 0.785329
-0.00995204 0.20514 0.786948
-0.00715308 0.203404 0.772303
-0.0057549 0.202915 0.766882
-0.00431841 0.203025 0.764387
-0.00286057 0.203425 0.763301
-0.00142047 0.203688 0.761556
1.64803e-05 0.20396 0.759877
0.00144628 0.204214 0.758117
0.00288354 0.20457 0.756845
0.00432446 0.204975 0.755821
0.00578362 0.205531 0.755509
0.00724991 0.206136 0.755435
0.00871901 0.206761 0.755449
0.010184 0.207358 0.755331
0.0116444 0.207925 0.755081
0.0131043 0.208495 0.754837
0.0145575 0.209031 0.754438
0.0160178 0.209607 0.754228
0.0174739 0.210161 0.753918
0.0189202 0.210672 0.753409
0.0203646 0.211179 0.752887
0.0218075 0.211685 0.75236
0.0232595 0.212235 0.752038
0.0247208 0.21283 0.75192
0.0261983 0.213494 0.752114
0.0277166 0.214325 0.753056
0.0292688 0.215279 0.754546
0.0308469 0.216317 0.756402
0.0324274 0.217344 0.758196
0.0340046 0.218336 0.759827
0.0355598 0.219233 0.76102
0.0371071 0.220086 0.762015
0.0386812 0.221023 0.763372
0.0403117 0.22214 0.765512
0.0421114 0.223805 0.770039
0.0439184 0.225451 0.774458
0.0457144 0.227022 0.778521
0.0474361 0.228319 0.781375
0.0490946 0.229396 0.783251
0.0505657 0.229883 0.78257
0.0520121 0.230301 0.781595
0.0534467 0.23069 0.780504
0.0551213 0.228593 0.775337
0.0548858 0.231101 0.779508
0.0576132 0.221288 0.724519
0.0584446 0.22031 0.717852
0.0595253 0.220025 0.714129
0.0610418 0.220881 0.7152
0.0625661 0.221748 0.716314
0.0640817 0.222586 0.717296
0.0656058 0.223438 0.718333
0.0671275 0.224275 0.719301
0.0686518 0.225113 0.72027
0.0701485 0.225879 0.720932
0.0716853 0.226735 0.721962
0.0732636 0.227677 0.723339
0.0748603 0.228654 0.724848
0.0764797 0.229671 0.726514
0.0781552 0.230805 0.728638
0.0798294 0.231921 0.730685
0.0814786 0.232971 0.732449
0.0830966 0.233945 0.733896
0.08465 0.234772 0.734748
-0.0304855 0.204355 0.817349
-0.0288736 0.203483 0.809626
-0.0273219 0.20392 0.808528
-0.0257721 0.204309 0.807201
-0.0242275 0.204831 0.806548
-0.0226851 0.20544 0.806326
-0.021143 0.206048 0.806103
-0.0196021 0.20657 0.805457
-0.0180641 0.207038 0.804547
-0.0165324 0.207368 0.802961
-0.0150049 0.207706 0.801429
-0.0134849 0.207969 0.799536
-0.0119974 0.207686 0.795008
-0.0105488 0.206971 0.788407
-0.00854331 0.20425 0.779496
-0.00911892 0.206273 0.781926
-0.00771137 0.205532 0.775286
-0.00631608 0.204883 0.769132
-0.00488907 0.204813 0.765784
-0.00343398 0.205149 0.76439
-0.00198685 0.205439 0.762786
-0.000554497 0.205636 0.760754
0.000873421 0.205846 0.758791
0.00231045 0.206174 0.757399
0.00375025 0.206552 0.75625
0.00519581 0.206996 0.755413
0.00666777 0.20764 0.755516
0.00813808 0.208267 0.755537
0.00960731 0.208885 0.755514
0.0110728 0.209476 0.755374
0.012538 0.210067 0.755229
0.0139896 0.210586 0.754748
0.0154511 0.21116 0.754529
0.0169075 0.21171 0.754196
0.0183546 0.212216 0.753669
0.0198003 0.212724 0.753146
0.0212501 0.213252 0.752725
0.0227172 0.213866 0.75269
0.0241908 0.214511 0.752787
0.0256758 0.215199 0.753084
0.0272273 0.216164 0.754616
0.0288159 0.217263 0.756732
0.0304189 0.218394 0.75898
0.0320252 0.219512 0.761154
0.0336297 0.220598 0.763174
0.0351897 0.221495 0.764351
0.0367487 0.222376 0.765448
0.038344 0.223375 0.767054
0.0399963 0.224556 0.769443
0.0417525 0.226067 0.773257
0.0434889 0.227476 0.776603
0.0452042 0.228785 0.779497
0.0468465 0.22983 0.781237
0.0484327 0.230683 0.782138
0.0499051 0.231175 0.781485
0.0513519 0.231594 0.78052
0.052779 0.23196 0.779338
0.0542157 0.232362 0.778314
0.0558871 0.23027 0.773216
0.0554254 0.232116 0.774547
0.0596473 0.223182 0.721285
0.0609968 0.223581 0.720431
0.0623696 0.224046 0.71985
0.0637468 0.224525 0.71933
0.0652853 0.225406 0.720474
0.066814 0.226256 0.721483
0.0683472 0.227109 0.722495
0.0698497 0.227883 0.723179
0.0713913 0.228745 0.724218
0.0729573 0.229654 0.725441
0.0745592 0.230641 0.726972
0.0761721 0.231642 0.728549
0.0778491 0.232777 0.730663
0.0795139 0.233872 0.7326
0.0811544 0.2349 0.734262
-0.0326228 0.204061 0.811269
-0.031063 0.204473 0.810042
-0.0295057 0.20487 0.808753
-0.0279538 0.205305 0.807656
-0.0264037 0.205691 0.806323
-0.0248593 0.206209 0.805656
-0.0233173 0.206794 0.805316
-0.0217756 0.207379 0.804985
-0.0202355 0.2079 0.804338
-0.0186977 0.208366 0.803429
-0.017166 0.208693 0.801841
-0.0156388 0.209008 0.80021
-0.0141215 0.209203 0.798003
-0.0126243 0.209096 0.794356
-0.0111614 0.208553 0.788637
-0.00971527 0.208022 0.783009
-0.00829016 0.207434 0.777138
-0.00687234 0.206975 0.771927
-0.00544291 0.206846 0.76831
-0.00398414 0.207155 0.766791
-0.00252937 0.207466 0.76529
-0.00109135 0.207663 0.763256
0.00034226 0.207869 0.76128
0.0017774 0.20813 0.759581
0.00321283 0.208439 0.758102
0.00464985 0.208785 0.756812
0.00611603 0.209367 0.756619
0.00757688 0.209914 0.756267
0.00904543 0.210516 0.756166
0.0105098 0.21109 0.755939
0.011974 0.211665 0.755721
0.0134245 0.212164 0.755151
0.0148832 0.212718 0.754833
0.0163407 0.213264 0.754487
0.017797 0.213811 0.754142
0.0192532 0.21436 0.75381
0.0207186 0.214957 0.753689
0.0222064 0.21566 0.754045
0.0236988 0.216374 0.754455
0.0251935 0.217095 0.754883
0.0267707 0.218164 0.756855
0.0283872 0.219371 0.75943
0.0300061 0.220559 0.7619
0.0316223 0.221706 0.764175
0.0332404 0.222833 0.766352
0.0348036 0.223729 0.767501
0.0363689 0.224619 0.768617
0.0379829 0.225672 0.770438
0.0396491 0.226892 0.772969
0.0413474 0.228197 0.775853
0.0430117 0.22936 0.778103
0.044651 0.230415 0.779881
0.0462247 0.231239 0.780658
0.0477496 0.231899 0.78073
0.0492292 0.232417 0.780188
0.0506841 0.232858 0.779332
0.0521176 0.233244 0.778241
0.0535471 0.233624 0.777131
0.0549501 0.233935 0.775735
0.0564271 0.231306 0.768414
0.0561612 0.233701 0.772062
0.0598348 0.226563 0.729268
0.0610291 0.226522 0.726575
0.0622429 0.226551 0.724182
0.0634756 0.226641 0.722058
0.0650404 0.227582 0.723431
0.0665673 0.228422 0.724376
0.0680995 0.229264 0.725328
0.0696096 0.230048 0.726037
0.0711484 0.230895 0.727003
0.0726992 0.231763 0.728043
0.0742942 0.232728 0.729466
0.0758799 0.233663 0.730759
0.077539 0.234755 0.732678
0.0791842 0.235803 0.73441
0.0808143 0.236811 0.735969
-0.0343529 0.206321 0.826004
-0.03658 0.207275 0.826163
-0.034905 0.206364 0.818258
-0.0332559 0.205467 0.810475
-0.0316952 0.205872 0.809231
-0.0301379 0.206268 0.807941
-0.0285853 0.206684 0.806757
-0.0270348 0.207067 0.805423
-0.0254905 0.20758 0.804736
-0.0239487 0.208138 0.804265
-0.0224076 0.208701 0.803831
-0.0208678 0.209218 0.803175
-0.0193308 0.209687 0.802277
-0.0177984 0.210015 0.800716
-0.0162721 0.210311 0.799003
-0.0147558 0.210456 0.796577
-0.0132507 0.210512 0.793738
-0.0117745 0.210153 0.788943
-0.0103116 0.209819 0.78429
-0.00886683 0.209426 0.779381
-0.00742556 0.209175 0.775185
-0.00598939 0.209025 0.771482
-0.00452441 0.209331 0.769946
-0.00306252 0.209647 0.768468
-0.0016185 0.209828 0.766365
-0.00017949 0.21002 0.764328
0.00125441 0.210215 0.762318
0.00268193 0.210407 0.7603
0.00411097 0.210652 0.758545
0.00557335 0.211183 0.758106
0.00703064 0.211679 0.757522
0.00849899 0.212262 0.757328
0.00996885 0.212857 0.757192
0.0114363 0.213436 0.756984
0.0128891 0.213931 0.756394
0.0143468 0.214462 0.755969
0.0158027 0.214986 0.75552
0.0172591 0.215518 0.755107
0.0187197 0.21608 0.754823
0.020193 0.216701 0.754816
0.021689 0.217433 0.755293
0.0231936 0.218198 0.755912
0.0247035 0.218976 0.756586
0.02631 0.220167 0.759075
0.0279468 0.221458 0.761987
0.0295803 0.222697 0.764658
0.0312041 0.223867 0.767004
0.0328292 0.225012 0.769234
0.0343909 0.225887 0.770275
0.0359565 0.226766 0.771324
0.0375794 0.227843 0.773225
0.039206 0.228913 0.775082
0.0408471 0.230014 0.777062
0.0424457 0.230949 0.778318
0.0440248 0.231806 0.779231
0.0455441 0.232453 0.779249
0.0470669 0.233112 0.779314
0.0485528 0.233649 0.778866
0.0500147 0.234115 0.778117
0.0514499 0.234505 0.777052
0.05288 0.234886 0.775956
0.0542829 0.235195 0.774562
0.055675 0.235481 0.773084
0.0569833 0.232392 0.763904
0.0567216 0.234785 0.767525
0.0623108 0.229595 0.730663
0.0633849 0.229245 0.726735
0.0648156 0.229833 0.726641
0.0663298 0.23063 0.7274
0.0678485 0.231431 0.728169
0.069361 0.232212 0.728855
0.0709016 0.233056 0.729788
0.0724374 0.233881 0.730637
0.0740054 0.234778 0.731772
0.0755799 0.23568 0.732918
0.0772203 0.236727 0.734637
0.0788397 0.237717 0.736118
0.0804647 0.238711 0.737604
-0.0370171 0.206009 0.811921
-0.0354524 0.206456 0.810877
-0.0338868 0.206841 0.809531
-0.0323261 0.207243 0.808279
-0.0307688 0.207639 0.806998
-0.0292151 0.208037 0.805739
-0.0276647 0.208419 0.804407
-0.0261207 0.208926 0.803696
-0.0245788 0.20946 0.803122
-0.0230388 0.210021 0.802673
-0.0214999 0.21054 0.802028
-0.0199628 0.211007 0.80114
-0.0184304 0.211355 0.799683
-0.0169039 0.211633 0.797899
-0.0153884 0.21173 0.795263
-0.013883 0.211772 0.792382
-0.0123974 0.211576 0.788391
-0.0109231 0.211387 0.78446
-0.00946213 0.211178 0.780455
-0.00800027 0.211152 0.777333
-0.00654429 0.211168 0.774429
-0.00507202 0.211482 0.772932
-0.00359981 0.211846 0.771672
-0.00214438 0.212066 0.769757
-0.00069713 0.212266 0.767756
0.000739749 0.212422 0.765565
0.00216792 0.212558 0.763296
0.00359361 0.212722 0.761171
0.00505122 0.213177 0.760381
0.00650024 0.213585 0.759386
0.00796844 0.21414 0.759063
0.0094387 0.214713 0.75882
0.0109024 0.215247 0.758405
0.0123613 0.21576 0.757891
0.0138288 0.216329 0.757635
0.015289 0.216858 0.7572
0.0167496 0.217395 0.756804
0.0182185 0.21798 0.756622
0.0196918 0.218587 0.756539
0.0211914 0.219324 0.757028
0.0227137 0.220159 0.757945
0.0242468 0.221031 0.759016
0.0258773 0.222321 0.761916
0.0275235 0.223644 0.764935
0.029148 0.224837 0.767374
0.0307577 0.225936 0.769394
0.0323619 0.226992 0.771207
0.0339111 0.227811 0.771988
0.0354762 0.228679 0.772979
0.0370728 0.229654 0.77442
0.0386718 0.230622 0.775822
0.0402762 0.231594 0.777231
0.0418317 0.232377 0.777836
0.0433745 0.233112 0.778225
0.0448913 0.233754 0.778221
0.0463995 0.234367 0.778093
0.047878 0.234883 0.77756
0.0493391 0.235348 0.776811
0.0507743 0.235737 0.775752
0.0522041 0.236116 0.774658
0.0536158 0.23645 0.77338
0.0550153 0.236757 0.771996
0.0562538 0.236604 0.76872
0.057749 0.234076 0.761942
0.0574841 0.236454 0.765469
0.0587626 0.233369 0.7564
0.0587182 0.236337 0.762377
0.0612615 0.23004 0.734996
0.0623941 0.232728 0.737404
0.0633393 0.232002 0.73196
0.0646247 0.232194 0.730253
0.0660982 0.232873 0.730519
0.067599 0.233622 0.731064
0.0691046 0.234376 0.731624
0.0706211 0.235155 0.732278
0.0721398 0.235933 0.732926
0.0736902 0.23678 0.733851
0.075256 0.23766 0.734895
0.0768807 0.238668 0.736437
0.0784941 0.239642 0.73784
0.0801129 0.240619 0.739244
-0.0418524 0.205885 0.821222
-0.0439254 0.205494 0.814661
-0.042351 0.205957 0.813682
-0.0401513 0.205067 0.813794
-0.0407831 0.206457 0.81289
-0.0385854 0.205564 0.812982
-0.0392141 0.206923 0.811943
-0.037645 0.207348 0.810786
-0.036079 0.207772 0.809636
-0.0345133 0.208153 0.808285
-0.032954 0.208573 0.807129
-0.0313973 0.20897 0.805866
-0.0298436 0.209368 0.804623
-0.028294 0.209769 0.803394
-0.0267503 0.210274 0.802676
-0.0252087 0.210787 0.802006
-0.0236694 0.211349 0.801567
-0.0221308 0.211867 0.800926
-0.0205942 0.212332 0.800032
-0.0190617 0.212678 0.798578
-0.0175356 0.21293 0.796684
-0.0160209 0.212981 0.793851
-0.0145151 0.213015 0.790955
-0.0130208 0.212981 0.787758
-0.011536 0.212953 0.784606
-0.0100593 0.212936 0.781529
-0.00857849 0.213131 0.779455
-0.00710372 0.21332 0.777365
-0.0056246 0.21364 0.775898
-0.00414239 0.214045 0.774825
-0.0026787 0.214286 0.773002
-0.00122497 0.214478 0.770967
0.000217283 0.21461 0.768679
0.00164992 0.214723 0.766306
0.00307807 0.214852 0.764024
0.00453264 0.215236 0.762912
0.00598041 0.215596 0.761692
0.00744905 0.216125 0.761243
0.00891742 0.216656 0.760808
0.0103781 0.217146 0.760188
0.0118474 0.217699 0.759852
0.0133231 0.218292 0.759698
0.0147958 0.218872 0.75948
0.0162728 0.219476 0.759372
0.01775 0.220079 0.759262
0.0192221 0.220657 0.75904
0.0207245 0.221388 0.75949
0.0222511 0.222228 0.760413
0.0237949 0.223133 0.761617
0.0254208 0.224397 0.764366
0.027059 0.225678 0.767177
0.0286635 0.226778 0.769187
0.0302456 0.227759 0.770672
0.0318188 0.228684 0.771909
0.0333698 0.229504 0.772687
0.0349357 0.230373 0.773671
0.0365214 0.231307 0.774921
0.0381074 0.232226 0.776102
0.0396902 0.233122 0.777178
0.0412174 0.233805 0.77735
0.0427328 0.234445 0.777339
0.0442417 0.235062 0.777229
0.0457356 0.235629 0.776909
0.0472129 0.236142 0.776369
0.04868 0.236626 0.775708
0.0501142 0.237012 0.774643
0.0515445 0.237393 0.773561
0.052963 0.237745 0.77237
0.0543706 0.238074 0.771087
0.055776 0.238406 0.769821
0.0571862 0.238761 0.768657
0.0586031 0.239144 0.767613
0.0605797 0.234506 0.749714
0.0607933 0.238143 0.758367
0.0616334 0.236993 0.751157
0.0632872 0.234778 0.737186
0.0644704 0.234677 0.734299
0.0658778 0.235172 0.733812
0.0673303 0.235786 0.733804
0.0688194 0.236491 0.734155
0.0703116 0.237202 0.734526
0.0718086 0.237919 0.734924
0.0733439 0.238725 0.735669
0.0749038 0.239587 0.736627
0.0765113 0.240552 0.737989
0.0781204 0.241514 0.739327
0.0797306 0.24247 0.740631
-0.0456561 0.206316 0.822117
-0.0478925 0.207336 0.822622
-0.0461372 0.206455 0.814903
-0.0445635 0.206949 0.814082
-0.0429862 0.207387 0.812985
-0.0414173 0.207881 0.812174
-0.0398465 0.208325 0.811114
-0.038275 0.208725 0.80985
-0.0367058 0.209104 0.808491
-0.0351408 0.209486 0.807148
-0.0335818 0.209905 0.806001
-0.0320248 0.210302 0.804754
-0.0304719 0.210702 0.80352
-0.0289237 0.21114 0.802484
-0.0273802 0.211646 0.80178
-0.0258385 0.212141 0.801021
-0.0242993 0.212703 0.800591
-0.0227612 0.213219 0.799943
-0.0212247 0.213659 0.798941
-0.0196923 0.214 0.797476
-0.0181667 0.214202 0.795363
-0.0166515 0.214247 0.792523
-0.0151453 0.214275 0.789623
-0.0136455 0.214346 0.786944
-0.0121544 0.214411 0.78425
-0.0106671 0.214553 0.781924
-0.00917494 0.214881 0.780476
-0.00768623 0.215217 0.779076
-0.00619888 0.215585 0.777831
-0.00471406 0.215971 0.776669
-0.00324044 0.216262 0.775085
-0.00177728 0.216493 0.773234
-0.000328278 0.216636 0.770995
0.00111176 0.216757 0.768672
0.00255557 0.216969 0.766766
0.00401107 0.217316 0.765486
0.00546204 0.217655 0.764173
0.0069294 0.218141 0.763523
0.0083988 0.218648 0.762976
0.00986036 0.219116 0.76225
0.0113377 0.219694 0.762021
0.0128193 0.2203 0.761913
0.0143027 0.220915 0.761847
0.0157884 0.221545 0.761844
0.0172722 0.22216 0.761779
0.0187514 0.22275 0.761603
0.0202535 0.223458 0.761941
0.0217879 0.224321 0.762947
0.0233369 0.225236 0.764173
0.0249435 0.226401 0.766471
0.0265534 0.227553 0.768692
0.0281342 0.228545 0.770218
0.0296888 0.229403 0.771165
0.0312345 0.230214 0.771901
0.0327899 0.231054 0.772756
0.0343447 0.231879 0.773545
0.0359234 0.232788 0.774679
0.0375015 0.233681 0.775743
0.0390712 0.234532 0.776618
0.0405798 0.235147 0.776508
0.0420936 0.235786 0.776486
0.0436015 0.236401 0.776369
0.0450882 0.236943 0.775952
0.0465644 0.237454 0.775402
0.0480226 0.237909 0.774628
0.0494563 0.238291 0.773553
0.0508721 0.238624 0.772288
0.0522899 0.238975 0.771095
0.0536977 0.239304 0.769821
0.0551017 0.239631 0.768546
0.0565116 0.239984 0.767383
0.0579263 0.240358 0.766315
0.0598623 0.239088 0.764788
0.0592894 0.240594 0.76469
0.0603369 0.239953 0.759536
0.0612982 0.239111 0.753601
0.0631413 0.237339 0.741478
0.0642445 0.237 0.737644
0.0656099 0.237369 0.736654
0.0670301 0.23789 0.73626
0.0684961 0.238527 0.736337
0.0699748 0.239194 0.736524
0.0714733 0.23991 0.736908
0.0729953 0.240678 0.737488
0.0745601 0.241547 0.738465
0.0761522 0.242474 0.739659
0.0777423 0.243388 0.740792
0.0793313 0.244292 0.741885
-0.0497614 0.208858 0.83361
-0.0518393 0.208624 0.827786
-0.0501545 0.20851 0.823886
-0.0483551 0.207438 0.815253
-0.0467765 0.207914 0.814333
-0.0452 0.208387 0.813414
-0.0436191 0.208798 0.8122
-0.0420501 0.209288 0.811369
-0.0404769 0.209709 0.810205
-0.0389053 0.210106 0.808934
-0.0373356 0.210483 0.807581
-0.0357716 0.210882 0.806334
-0.0342126 0.211301 0.805187
-0.0326557 0.2117 0.803958
-0.0311022 0.212098 0.802728
-0.0295544 0.212556 0.801796
-0.0280108 0.213063 0.801099
-0.0264683 0.213536 0.800247
-0.0249292 0.214075 0.799708
-0.023391 0.214564 0.798936
-0.0218549 0.214957 0.797722
-0.0203229 0.215252 0.796052
-0.0187978 0.215427 0.79383
-0.0172818 0.215483 0.791067
-0.0157744 0.215531 0.788281
-0.0142725 0.215648 0.785834
-0.0127774 0.215779 0.783469
-0.0112832 0.21603 0.781663
-0.00978565 0.216428 0.780546
-0.00829181 0.216812 0.779372
-0.0067995 0.217219 0.778308
-0.00531068 0.217624 0.777238
-0.00383601 0.217894 0.775566
-0.00236957 0.218126 0.773733
-0.000911473 0.218333 0.77179
0.000539887 0.218523 0.769789
0.00199593 0.218806 0.768212
0.00346366 0.219224 0.767246
0.00492757 0.219625 0.766219
0.00639907 0.220112 0.765566
0.00787242 0.220619 0.765009
0.00933846 0.221087 0.764283
0.0108234 0.221686 0.764144
0.0123137 0.222322 0.76416
0.0138064 0.222969 0.764223
0.0152981 0.223607 0.76425
0.0167869 0.22423 0.764204
0.0182673 0.224801 0.763942
0.0197643 0.225466 0.764076
0.0212899 0.226267 0.764803
0.0228355 0.227157 0.765904
0.0244195 0.22821 0.767698
0.0260035 0.229241 0.769381
0.0275661 0.23015 0.770541
0.0291074 0.230951 0.771234
0.0306315 0.231668 0.771566
0.0321811 0.232485 0.772319
0.033728 0.233284 0.772986
0.035293 0.234145 0.773911
0.0368637 0.235015 0.774871
0.0384332 0.235868 0.775756
0.0399477 0.236511 0.775754
0.0414689 0.237174 0.77584
0.0429829 0.237813 0.775818
0.0444628 0.23833 0.775299
0.0459318 0.238814 0.774645
0.0473817 0.239241 0.773757
0.0488078 0.239596 0.772581
0.0502233 0.239926 0.77131
0.0516417 0.240276 0.770126
0.0530572 0.240627 0.768947
0.0544615 0.240952 0.767674
0.0558705 0.2413 0.766499
0.0572747 0.241644 0.765312
0.0586339 0.241864 0.763637
0.0597724 0.241468 0.759498
0.0608323 0.240881 0.75462
0.0622112 0.23818 0.747343
0.0618581 0.240235 0.749535
0.0628809 0.23962 0.744596
0.063968 0.23921 0.740499
0.0653 0.239479 0.739103
0.0667049 0.239946 0.738495
0.0681564 0.240537 0.738378
0.0696296 0.241182 0.738473
0.071133 0.241903 0.738865
0.0726479 0.24265 0.739355
0.0742142 0.243517 0.740308
0.0757891 0.244398 0.741309
0.0773575 0.245258 0.742225
-0.0521864 0.208115 0.81735
-0.0505894 0.208513 0.816046
-0.0489981 0.208923 0.814801
-0.0474154 0.209372 0.813764
-0.0458358 0.209822 0.812737
-0.0442549 0.210233 0.811522
-0.0426833 0.210701 0.810594
-0.0411075 0.211097 0.809323
-0.0395354 0.211493 0.80806
-0.0379657 0.211867 0.806696
-0.0364011 0.212263 0.805445
-0.0348431 0.2127 0.804396
-0.033286 0.213099 0.803176
-0.0317323 0.213496 0.801951
-0.0301854 0.213975 0.801123
-0.0286414 0.214481 0.80043
-0.0270983 0.214933 0.799476
-0.0255587 0.215443 0.798807
-0.0240203 0.215899 0.797889
-0.0224838 0.216222 0.796358
-0.0209526 0.21645 0.794388
-0.0194281 0.216599 0.792063
-0.0179119 0.216671 0.789397
-0.0164039 0.216738 0.786727
-0.0149005 0.216901 0.784512
-0.0134023 0.217102 0.78248
-0.0119051 0.217396 0.780892
-0.0104057 0.217818 0.779892
-0.00891141 0.218205 0.778732
-0.00741705 0.218631 0.777768
-0.00592596 0.219057 0.776799
-0.00444655 0.219368 0.77532
-0.00297426 0.219646 0.773703
-0.0015074 0.219915 0.772057
-4.46648e-05 0.220193 0.770453
0.00142191 0.220544 0.769187
0.00289917 0.221013 0.768453
0.00437186 0.221464 0.767641
0.00584769 0.221953 0.767001
0.00732139 0.222438 0.766348
0.00879028 0.222905 0.765611
0.0102816 0.223529 0.765572
0.0117785 0.224188 0.765683
0.0132809 0.224878 0.765927
0.0147839 0.225564 0.76615
0.0162817 0.226215 0.766224
0.0177677 0.226799 0.766005
0.0192662 0.227452 0.766083
0.0207856 0.228207 0.766598
0.0223226 0.229042 0.76745
0.0238779 0.229951 0.76861
0.0254307 0.230831 0.769641
0.0269656 0.231614 0.770256
0.0284849 0.23232 0.77054
0.0299884 0.232952 0.770511
0.0315314 0.23375 0.771176
0.0330707 0.234521 0.771729
0.0346268 0.235354 0.772532
0.0361938 0.23622 0.773468
0.0377683 0.237102 0.774467
0.0392962 0.237798 0.774688
0.0408308 0.238515 0.774993
0.0423581 0.239201 0.775172
0.0438381 0.239718 0.774655
0.0453066 0.2402 0.773992
0.0467561 0.240622 0.773092
0.0481824 0.240974 0.771913
0.0495975 0.241302 0.770635
0.0510175 0.241652 0.769462
0.0524325 0.241998 0.768273
0.053831 0.242301 0.766919
0.0552325 0.242624 0.76565
0.0566293 0.242943 0.764371
0.0579891 0.243163 0.762702
0.0592016 0.242967 0.759391
0.0603408 0.242588 0.75537
0.0614492 0.242155 0.751149
0.0625528 0.241737 0.747016
0.0637069 0.241485 0.743558
0.0650178 0.241679 0.741869
0.0664156 0.242116 0.741136
0.0678535 0.24266 0.74083
0.0693121 0.243258 0.740733
0.0708091 0.243955 0.74102
0.0723178 0.244679 0.74141
0.0738675 0.2455 0.742168
0.0754131 0.246306 0.742868
0.076952 0.247091 0.743483
-0.0537699 0.207607 0.818112
-0.054428 0.209174 0.818043
-0.0528378 0.209646 0.817114
-0.0512364 0.21002 0.815692
-0.0496411 0.21041 0.81437
-0.0480518 0.210811 0.813096
-0.0464683 0.211234 0.811952
-0.044887 0.211642 0.810728
-0.0433152 0.212106 0.809788
-0.0417396 0.212505 0.80854
-0.0401692 0.212922 0.807389
-0.0386004 0.213316 0.80613
-0.0370355 0.213711 0.804879
-0.0354768 0.214146 0.803832
-0.03392 0.214564 0.80271
-0.0323657 0.214962 0.801494
-0.030818 0.21544 0.800669
-0.0292736 0.215945 0.799974
-0.0277289 0.216371 0.798907
-0.0261875 0.21681 0.797914
-0.0246487 0.217235 0.796855
-0.023112 0.217524 0.795179
-0.0215805 0.217703 0.792999
-0.0200561 0.217848 0.790675
-0.0185393 0.21794 0.788122
-0.0170298 0.218032 0.785584
-0.015526 0.2182 0.783405
-0.0140253 0.218443 0.78159
-0.0125272 0.218757 0.780095
-0.0110273 0.21918 0.779109
-0.00953503 0.219522 0.777762
-0.00804242 0.219926 0.776699
-0.00655453 0.220306 0.775533
-0.00507535 0.220615 0.774059
-0.00360089 0.220916 0.772559
-0.00212587 0.221275 0.771317
-0.000652601 0.221643 0.770133
0.000825011 0.222088 0.769287
0.00231154 0.222629 0.768868
0.00379444 0.223149 0.768358
0.00527304 0.22364 0.767731
0.00674909 0.224124 0.76707
0.0082233 0.22461 0.766422
0.00971287 0.22521 0.766274
0.0112079 0.225848 0.766286
0.0127185 0.22658 0.766705
0.0142306 0.22731 0.767114
0.0157361 0.227994 0.767322
0.0172338 0.228629 0.767318
0.0187356 0.229285 0.767402
0.0202429 0.229968 0.767598
0.0217617 0.230703 0.768017
0.0232912 0.231483 0.768619
0.0248182 0.232242 0.76913
0.0263362 0.232948 0.769419
0.027845 0.233609 0.769515
0.0293429 0.234221 0.769402
0.0308745 0.234975 0.769883
0.0324 0.235697 0.770227
0.0339399 0.236474 0.770793
0.0354982 0.237315 0.771624
0.0370707 0.2382 0.772632
0.0386177 0.238978 0.773188
0.0401721 0.239776 0.773826
0.0417199 0.240541 0.774325
0.0432133 0.241107 0.774009
0.0446887 0.24161 0.773441
0.0461386 0.242031 0.772542
0.0475657 0.242382 0.771364
0.048982 0.242708 0.770089
0.0504027 0.243058 0.768919
0.0518191 0.243405 0.767741
0.0532104 0.24368 0.766285
0.054612 0.244001 0.765014
0.0560104 0.244319 0.763743
0.0573674 0.244525 0.762029
0.0586409 0.2445 0.759411
0.0598706 0.244367 0.756384
0.0610583 0.244138 0.752989
0.062241 0.24392 0.749661
0.0634698 0.243851 0.746933
0.0647845 0.244037 0.745211
0.0661628 0.244402 0.744194
0.0675848 0.244893 0.74367
0.0690296 0.245446 0.743387
0.0705126 0.246095 0.74348
0.0719867 0.246722 0.743483
0.0734993 0.247443 0.743851
0.0750049 0.248146 0.744146
0.0765047 0.248831 0.744369
-0.0566855 0.210298 0.81906
-0.0550849 0.210731 0.817924
-0.0534897 0.211178 0.816867
-0.0518824 0.21152 0.815308
-0.0502842 0.211893 0.813907
-0.0486876 0.212247 0.812418
-0.0471043 0.212668 0.811264
-0.0455212 0.213068 0.810022
-0.0439489 0.213531 0.809083
-0.0423753 0.213952 0.807946
-0.0408064 0.214391 0.806906
-0.0392391 0.21481 0.805776
-0.0376732 0.215206 0.804537
-0.0361135 0.21564 0.803492
-0.0345557 0.216057 0.802372
-0.0330002 0.216452 0.801156
-0.0314508 0.216909 0.800231
-0.0299051 0.217391 0.799431
-0.0283591 0.21779 0.798248
-0.0268161 0.21818 0.797031
-0.0252766 0.218577 0.795857
-0.0237397 0.21884 0.794068
-0.0222076 0.219011 0.791873
-0.0206826 0.219129 0.789444
-0.0191653 0.219218 0.786899
-0.0176549 0.219333 0.784485
-0.0161505 0.219503 0.78233
-0.0146486 0.219769 0.78063
-0.0131493 0.220099 0.779224
-0.0116518 0.220476 0.778033
-0.0101625 0.220764 0.776453
-0.00867211 0.221137 0.775264
-0.00718813 0.221467 0.773889
-0.0057096 0.221776 0.772428
-0.00423066 0.222142 0.771223
-0.00274891 0.222576 0.770326
-0.00126857 0.223021 0.769486
0.000215372 0.22352 0.768881
0.00170721 0.224105 0.768659
0.00319379 0.224646 0.768248
0.00467327 0.22514 0.767626
0.00615329 0.225646 0.767068
0.00763436 0.226171 0.766591
0.00912219 0.226751 0.766354
0.0106147 0.227367 0.766269
0.0121224 0.228078 0.766594
0.0136278 0.228765 0.766816
0.0151332 0.229449 0.76702
0.0166387 0.230128 0.7672
0.0181454 0.230808 0.767382
0.019653 0.231488 0.767565
0.0211662 0.232192 0.76785
0.0226756 0.232874 0.768032
0.0241816 0.233534 0.768123
0.025688 0.234191 0.768206
0.0271902 0.234827 0.768195
0.0286877 0.235439 0.76809
0.0302114 0.236169 0.768466
0.0317283 0.236861 0.768687
0.0332529 0.237582 0.769022
0.0347958 0.238371 0.769638
0.0363594 0.239236 0.770555
0.037918 0.240068 0.771338
0.039486 0.240928 0.772223
0.0410477 0.241752 0.772964
0.0425609 0.242394 0.772956
0.04405 0.242947 0.772592
0.0455083 0.243394 0.771807
0.04695 0.243795 0.77083
0.0483764 0.244148 0.769677
0.0497972 0.244496 0.768502
0.0512144 0.244839 0.767317
0.052605 0.245107 0.765842
0.0540072 0.245425 0.764567
0.0554142 0.245768 0.763395
0.0568056 0.246069 0.762072
0.0581339 0.246196 0.760064
0.0594232 0.246223 0.757676
0.0606808 0.246176 0.755014
0.0619253 0.246111 0.752294
0.0631886 0.246118 0.74987
0.0645106 0.246307 0.748157
0.0658914 0.246665 0.747113
0.0672912 0.247081 0.746295
0.06872 0.247577 0.745788
0.0701772 0.248151 0.74558
0.071624 0.2487 0.745282
0.073108 0.249343 0.74534
-0.0589043 0.211177 0.818854
-0.0573177 0.211705 0.818191
-0.0557225 0.21217 0.817223
-0.0541246 0.212601 0.816099
-0.0525162 0.212937 0.814521
-0.0509205 0.21333 0.813229
-0.0493229 0.213679 0.811731
-0.0477357 0.214074 0.810459
-0.0461525 0.21447 0.809198
-0.0445805 0.214935 0.808273
-0.043009 0.215379 0.807262
-0.0414428 0.215847 0.80636
-0.0398785 0.216309 0.80544
-0.0383114 0.216704 0.804212
-0.0367508 0.217139 0.803176
-0.035192 0.217552 0.802042
-0.0336364 0.217967 0.800925
-0.0320853 0.218404 0.799915
-0.0305376 0.21886 0.798996
-0.0289902 0.21925 0.797784
-0.0274455 0.219593 0.796356
-0.0259046 0.219946 0.794988
-0.0243667 0.220186 0.793109
-0.0228339 0.220334 0.790824
-0.0213082 0.220447 0.788391
-0.0197903 0.220532 0.785843
-0.0182793 0.220642 0.783424
-0.016774 0.220808 0.781274
-0.0152717 0.221093 0.779666
-0.0137736 0.221378 0.778072
-0.0122784 0.221703 0.776664
-0.0107913 0.221957 0.77494
-0.00930483 0.222274 0.773517
-0.00782561 0.222548 0.771901
-0.00634715 0.222873 0.770527
-0.00486558 0.223287 0.769547
-0.00337786 0.223801 0.76901
-0.00188864 0.224346 0.768611
-0.000397906 0.224918 0.768331
0.00109662 0.225525 0.768205
0.00258529 0.226084 0.767869
0.00406522 0.226575 0.767241
0.00554341 0.227062 0.766603
0.00702242 0.227568 0.766048
0.00850731 0.228126 0.765716
0.00999602 0.228716 0.765522
0.0114995 0.229403 0.765741
0.0130036 0.23009 0.765959
0.0145083 0.230773 0.766158
0.0160129 0.231451 0.766334
0.0175189 0.232129 0.76651
0.0190176 0.232767 0.766514
0.0205254 0.233449 0.766701
0.0220338 0.234131 0.766884
0.0235386 0.234788 0.766967
0.0250437 0.235445 0.767047
0.026549 0.236101 0.76712
0.0280453 0.236712 0.767011
0.0295571 0.237392 0.767182
0.0310652 0.238054 0.767278
0.0325748 0.238718 0.767383
0.034102 0.239454 0.767776
0.0356562 0.240291 0.76858
0.037224 0.241173 0.769557
0.0387978 0.242064 0.770571
0.040373 0.242948 0.771548
0.0419062 0.243669 0.77186
0.0434158 0.244298 0.771804
0.0448902 0.2448 0.771245
0.0463492 0.245255 0.770496
0.0477913 0.245661 0.76955
0.049221 0.24603 0.768469
0.0506317 0.246347 0.767184
0.0520221 0.24661 0.765691
0.0534178 0.246899 0.764313
0.0548256 0.247238 0.763137
0.0562334 0.247586 0.761999
0.0575985 0.247814 0.760398
0.0589371 0.247974 0.758546
0.0602566 0.248095 0.756543
0.0615463 0.248142 0.754269
0.0628425 0.248226 0.752148
0.0641784 0.248437 0.750524
0.0655621 0.24879 0.749459
0.0669651 0.249202 0.748622
0.0683873 0.249668 0.747996
0.0698273 0.250188 0.747574
-0.0595434 0.212624 0.818183
-0.0579558 0.213146 0.817491
-0.0563633 0.213629 0.816622
-0.0547596 0.214024 0.81533
-0.0531498 0.214353 0.813724
-0.0515541 0.214746 0.812442
-0.0499559 0.215093 0.810945
-0.0483682 0.215486 0.809674
-0.0467865 0.215897 0.808502
-0.0452145 0.216363 0.807589
-0.0436455 0.216834 0.806702
-0.0420827 0.217345 0.806017
-0.0405204 0.217836 0.805236
-0.0389538 0.218251 0.804105
-0.0373936 0.218705 0.803161
-0.0358342 0.219136 0.802118
-0.0342774 0.219553 0.801016
-0.0327233 0.219968 0.799909
-0.0311731 0.220396 0.798871
-0.0296235 0.220757 0.797527
-0.0280764 0.221069 0.79597
-0.0265341 0.221402 0.794521
-0.024995 0.221646 0.79267
-0.0234608 0.221771 0.790292
-0.0219334 0.221855 0.787747
-0.0204141 0.221887 0.784983
-0.018903 0.221944 0.782343
-0.0173977 0.222083 0.780089
-0.015896 0.222343 0.778381
-0.014399 0.222604 0.77669
-0.0129064 0.22288 0.775077
-0.0114198 0.223122 0.773323
-0.00993617 0.223405 0.771757
-0.00845927 0.223656 0.770058
-0.0069805 0.224002 0.768781
-0.00549629 0.224461 0.768011
-0.00400777 0.225002 0.767597
-0.00251678 0.22558 0.767345
-0.00102245 0.226198 0.767267
0.000470975 0.226804 0.767137
0.00196115 0.227378 0.766873
0.00344304 0.22789 0.766338
0.00492143 0.22838 0.765717
0.00640082 0.228891 0.765185
0.00788477 0.229445 0.764839
0.0093662 0.229985 0.764435
0.0108575 0.230596 0.764337
0.0123522 0.231233 0.764341
0.0138507 0.231889 0.764427
0.0153537 0.232569 0.764613
0.0168621 0.233275 0.764907
0.018369 0.233965 0.76513
0.0198802 0.234674 0.765431
0.0213921 0.235381 0.765719
0.0228917 0.236018 0.765719
0.024396 0.236677 0.765807
0.0259006 0.237335 0.76589
0.0274008 0.237969 0.765876
0.0289061 0.238626 0.765952
0.0304125 0.239283 0.766029
0.0319139 0.239918 0.766017
0.0334269 0.240601 0.766194
0.034971 0.241408 0.766873
0.0365408 0.242306 0.767916
0.0381182 0.243223 0.769026
0.0397043 0.24416 0.770209
0.0412637 0.244982 0.77093
0.042795 0.245694 0.771204
0.0442927 0.24628 0.770977
0.045769 0.246793 0.77046
0.0472207 0.247226 0.769625
0.0486528 0.247597 0.768556
0.0500564 0.247883 0.767155
0.0514414 0.248117 0.765564
0.052837 0.248402 0.764172
0.0542389 0.248717 0.762906
0.0556474 0.249062 0.761765
0.0570457 0.249384 0.760539
0.0584219 0.249651 0.759102
0.0597834 0.249883 0.757542
0.0611219 0.250061 0.755779
0.0624658 0.250266 0.754132
0.0638148 0.250498 0.752591
0.065195 0.25083 0.751441
-0.061752 0.213446 0.817702
-0.060168 0.213993 0.817138
-0.0585812 0.214516 0.816456
-0.0569922 0.215017 0.815676
-0.0553879 0.215407 0.814375
-0.0537819 0.215762 0.812908
-0.0521897 0.216179 0.811745
-0.0505942 0.216549 0.810366
-0.0490056 0.216939 0.809096
-0.0474268 0.217376 0.808042
-0.0458561 0.217861 0.807233
-0.044289 0.218357 0.806469
-0.0427283 0.218896 0.805912
-0.0411685 0.219428 0.805328
-0.0396008 0.219845 0.804208
-0.0380387 0.220298 0.803268
-0.0364794 0.22075 0.802324
-0.0349206 0.221168 0.801229
-0.0333624 0.221539 0.799929
-0.0318097 0.221942 0.798779
-0.0302572 0.22227 0.797294
-0.0287072 0.222532 0.795522
-0.027163 0.222819 0.793868
-0.0256229 0.223056 0.792004
-0.024087 0.223176 0.789621
-0.0225581 0.223233 0.786974
-0.0210379 0.223234 0.784087
-0.0195256 0.223262 0.781342
-0.0180209 0.223346 0.778856
-0.0165202 0.223554 0.776938
-0.0150242 0.223791 0.775154
-0.0135333 0.224041 0.773436
-0.0120473 0.224284 0.771701
-0.0105642 0.22457 0.77016
-0.00908746 0.224825 0.768491
-0.00760807 0.225189 0.767309
-0.00612318 0.225673 0.766652
-0.00463388 0.226233 0.766328
-0.0031423 0.226831 0.766161
-0.0016465 0.227469 0.766177
-0.000154104 0.228076 0.766051
0.00133297 0.228629 0.765698
0.00281432 0.22914 0.765164
0.00429186 0.22963 0.764545
0.00576803 0.230118 0.763924
0.00724488 0.230624 0.76338
0.0087202 0.231129 0.762832
0.0102014 0.231684 0.762498
0.0116867 0.232268 0.762289
0.0131791 0.232902 0.762285
0.0146832 0.233606 0.762573
0.0161974 0.234361 0.763069
0.0177112 0.235103 0.76351
0.0192301 0.235865 0.764029
0.0207498 0.236621 0.764521
0.0222531 0.237285 0.764628
0.0237571 0.237946 0.764729
0.0252662 0.23863 0.764918
0.0267714 0.239293 0.765018
0.0282772 0.239955 0.765115
0.0297831 0.240613 0.765197
0.0312834 0.241246 0.765174
0.0327842 0.241879 0.765151
0.0343148 0.242636 0.765624
0.0358752 0.243506 0.766548
0.0374492 0.244419 0.767638
0.0390337 0.245358 0.768826
0.0406115 0.24626 0.769855
0.0421644 0.247055 0.770459
0.0436847 0.247724 0.770562
0.0451843 0.248319 0.770367
0.0466515 0.248798 0.769725
0.0480853 0.249169 0.768658
0.0494897 0.249451 0.767246
0.0508764 0.249684 0.765655
0.052266 0.24994 0.76416
0.053662 0.25023 0.762803
0.0550707 0.250569 0.761645
0.0564855 0.250937 0.760602
0.0578891 0.25128 0.759464
0.05928 0.251591 0.758213
0.0606489 0.251848 0.75676
0.0620119 0.252098 0.755289
0.0633627 0.252325 0.753735
0.0647385 0.252632 0.752494
0.0674217 0.253487 0.759151
-0.0623507 0.214687 0.816038
-0.0607793 0.215293 0.815769
-0.0591954 0.215827 0.815147
-0.0576129 0.216358 0.814514
-0.0560128 0.216773 0.813342
-0.0544143 0.217173 0.812101
-0.0528249 0.217611 0.811047
-0.0512354 0.218026 0.809896
-0.0496497 0.218442 0.808743
-0.04807 0.21888 0.80771
-0.0465019 0.219391 0.807017
-0.0449383 0.219928 0.806452
-0.0433767 0.22047 0.80591
-0.0418162 0.221006 0.805344
-0.040247 0.221424 0.804237
-0.0386832 0.221873 0.803282
-0.037121 0.222306 0.802255
-0.0355608 0.222722 0.801161
-0.0339999 0.22307 0.79976
-0.0324457 0.223466 0.798585
-0.0308914 0.223786 0.797075
-0.0293389 0.224023 0.795199
-0.027792 0.224258 0.793324
-0.0262503 0.224467 0.791344
-0.0247127 0.22455 0.788815
-0.0231826 0.224558 0.785963
-0.0216609 0.224531 0.782981
-0.0201484 0.22451 0.780036
-0.0186437 0.224563 0.777435
-0.0171437 0.224737 0.775383
-0.0156493 0.224945 0.773486
-0.0141593 0.225174 0.771695
-0.0126722 0.225467 0.770189
-0.0111881 0.225782 0.768787
-0.00970874 0.226086 0.767345
-0.0082276 0.226479 0.766297
-0.00674195 0.226981 0.76572
-0.0052533 0.227536 0.765378
-0.00376293 0.228126 0.765181
-0.00227248 0.228719 0.764996
-0.000782926 0.229302 0.764774
0.000700916 0.229835 0.764339
0.00217897 0.230322 0.763713
0.00365287 0.230788 0.762997
0.00512714 0.23127 0.762358
0.00659635 0.231725 0.761604
0.0080632 0.232179 0.760851
0.00953829 0.232702 0.76039
0.0110167 0.233256 0.760057
0.0125025 0.233865 0.759955
0.0140114 0.234614 0.760434
0.0155312 0.235424 0.761155
0.0170514 0.236218 0.761811
0.0185775 0.237032 0.762544
0.020104 0.237837 0.763233
0.0216104 0.238523 0.763431
0.0231174 0.239206 0.76362
0.0246258 0.239893 0.763819
0.0261311 0.240562 0.763945
0.0276374 0.241228 0.764061
0.0291428 0.241891 0.764158
0.0306427 0.242525 0.764141
0.0321372 0.243135 0.764026
0.0336607 0.243867 0.764398
0.0352068 0.244686 0.765117
0.036766 0.245548 0.766
0.0383468 0.246487 0.767176
0.0399422 0.247465 0.768506
0.041516 0.248348 0.769452
0.0430653 0.249127 0.769986
0.0445992 0.249845 0.770274
0.0460821 0.250378 0.76984
0.0475239 0.250769 0.768858
0.0489315 0.251051 0.767457
0.0503187 0.251279 0.765849
0.0517025 0.251508 0.764256
0.0530991 0.251792 0.762884
0.0545022 0.252108 0.761639
0.0559176 0.252472 0.760585
0.0573229 0.252813 0.759448
0.0587243 0.25315 0.7583
0.060104 0.253431 0.756948
0.0622202 0.25589 0.763853
-0.0629655 0.216014 0.814807
-0.0613987 0.216639 0.814627
-0.059815 0.21717 0.813995
-0.058236 0.217717 0.813452
-0.0566417 0.218163 0.812427
-0.0550502 0.218608 0.811413
-0.0534686 0.219099 0.810605
-0.0518848 0.219559 0.809669
-0.0503011 0.219998 0.808636
-0.0487234 0.220461 0.80772
-0.0471535 0.220969 0.807021
-0.0455893 0.221509 0.806469
-0.0440286 0.222071 0.806018
-0.0424689 0.222631 0.805563
-0.0408996 0.223071 0.804568
-0.039336 0.223545 0.803725
-0.0377715 0.223973 0.802683
-0.0362075 0.224364 0.801474
-0.0346415 0.22466 0.79985
-0.033083 0.225008 0.798463
-0.031524 0.225257 0.796647
-0.0299687 0.225444 0.794556
-0.028419 0.225626 0.792463
-0.0268761 0.225802 0.790345
-0.0253371 0.225854 0.787702
-0.0238061 0.225876 0.784936
-0.0222834 0.225831 0.781891
-0.0207701 0.225762 0.778758
-0.0192654 0.225761 0.775943
-0.0177671 0.22588 0.773662
-0.0162743 0.226035 0.771556
-0.0147848 0.226289 0.769884
-0.0132967 0.226629 0.768594
-0.0118107 0.226995 0.767428
-0.0103279 0.227366 0.766286
-0.00884442 0.227806 0.765445
-0.00735863 0.22831 0.764883
-0.00587209 0.228844 0.764449
-0.00438282 0.229427 0.764223
-0.00289523 0.229991 0.763924
-0.00141067 0.230529 0.76351
7.00945e-05 0.231036 0.762975
0.00154436 0.231495 0.762237
0.0030114 0.231907 0.761302
0.00447825 0.23234 0.760461
0.00594273 0.232769 0.75961
0.00740463 0.233197 0.758757
0.00887724 0.233719 0.758296
0.0103537 0.234273 0.757972
0.0118408 0.234904 0.757964
0.0133507 0.235679 0.758547
0.0148718 0.236514 0.759368
0.0163944 0.237336 0.760138
0.0179227 0.238179 0.760983
0.0194516 0.239009 0.761772
0.0209606 0.239719 0.762069
0.0224707 0.240425 0.762353
0.0239821 0.241134 0.762641
0.0254908 0.241824 0.762849
0.0269913 0.24247 0.762882
0.0284907 0.243108 0.762884
0.0299891 0.24374 0.76286
0.0314825 0.244349 0.762744
0.0329994 0.24506 0.763033
0.0345375 0.245854 0.763647
0.0360867 0.246685 0.764405
0.0376632 0.247617 0.76555
0.0392699 0.248652 0.767097
0.0408638 0.249621 0.768372
0.0424488 0.250541 0.76945
0.0440118 0.251367 0.77016
0.0455174 0.251977 0.770025
0.0469757 0.25242 0.769247
0.048393 0.252728 0.767949
0.0497829 0.252953 0.76634
0.0511691 0.253181 0.764747
0.0525585 0.253432 0.763254
0.0539473 0.253692 0.761804
0.0553559 0.254028 0.760647
0.0567546 0.254343 0.759414
0.0581573 0.254678 0.758265
0.0602751 0.257186 0.765328
-0.0651245 0.216613 0.813276
-0.0635734 0.21731 0.81344
-0.0620104 0.217947 0.813319
-0.0604328 0.218505 0.812825
-0.0588603 0.219084 0.812429
-0.0572743 0.219579 0.81164
-0.055691 0.220074 0.810862
-0.0541159 0.220611 0.81028
-0.0525348 0.221095 0.809463
-0.0509531 0.221558 0.808548
-0.0493775 0.222045 0.807741
-0.0478063 0.222552 0.807042
-0.0462403 0.223088 0.80647
-0.0446813 0.223674 0.806134
-0.0431228 0.22426 0.805798
-0.0415558 0.224746 0.805008
-0.0399942 0.225267 0.804381
-0.0384288 0.225714 0.803425
-0.0368586 0.226057 0.802011
-0.0352866 0.226298 0.800143
-0.0337218 0.226567 0.798412
-0.0321567 0.226719 0.79617
-0.0305966 0.22683 0.793766
-0.0290448 0.226964 0.791468
-0.0275003 0.227106 0.789224
-0.0259603 0.227134 0.786488
-0.0244287 0.227134 0.783644
-0.0229051 0.227064 0.780516
-0.0213909 0.226966 0.777284
-0.0198866 0.226912 0.774255
-0.018389 0.226997 0.771851
-0.0168968 0.227172 0.769843
-0.015407 0.227449 0.76829
-0.0139179 0.227835 0.767209
-0.0124298 0.228268 0.766335
-0.010945 0.228681 0.765381
-0.00945977 0.229146 0.764655
-0.00797383 0.229658 0.764126
-0.00648886 0.230169 0.763602
-0.00500491 0.230683 0.763091
-0.0035226 0.231195 0.762571
-0.00204363 0.23168 0.761945
-0.000569393 0.232136 0.761196
0.00090052 0.232566 0.760342
0.00236523 0.23297 0.759385
0.0038302 0.233395 0.758523
0.00529296 0.233826 0.757684
0.00675714 0.23428 0.75695
0.00822845 0.234805 0.756508
0.00970325 0.23536 0.756193
0.0111918 0.236016 0.756288
0.0127033 0.236819 0.756982
0.0142271 0.23768 0.757913
0.0157552 0.238551 0.758875
0.0172849 0.239415 0.7598
0.0188085 0.240225 0.760505
0.0203166 0.240936 0.760804
0.0218254 0.241646 0.761097
0.023336 0.242355 0.761391
0.0248428 0.243044 0.761593
0.0263404 0.243679 0.761588
0.0278318 0.244285 0.761464
0.0293225 0.24489 0.761332
0.0308143 0.245498 0.761216
0.03233 0.246211 0.761511
0.0338599 0.24698 0.762025
0.0353993 0.24778 0.762658
0.0369767 0.248727 0.763858
0.0385869 0.249791 0.765506
0.0401957 0.250829 0.767045
0.0418155 0.251891 0.768668
0.0434147 0.252856 0.76991
0.0449505 0.253575 0.770197
0.0464336 0.254103 0.769742
0.0478834 0.254515 0.76885
0.049279 0.254746 0.76727
0.0506594 0.254941 0.76556
0.0520347 0.255134 0.763848
0.0533998 0.255307 0.762072
0.0547858 0.255562 0.760615
0.0568644 0.258024 0.76749
-0.0666591 0.215847 0.812789
-0.068211 0.215165 0.812693
-0.0688437 0.216594 0.811966
-0.067286 0.217245 0.811913
-0.06574 0.217955 0.812136
-0.0641877 0.218639 0.81223
-0.0626246 0.219271 0.81209
-0.0610518 0.219849 0.811694
-0.059484 0.220452 0.811417
-0.0579105 0.221015 0.810952
-0.0563349 0.22156 0.810409
-0.0547668 0.222145 0.810053
-0.0531894 0.222659 0.809374
-0.0516097 0.223145 0.808567
-0.0500317 0.223625 0.80774
-0.0484595 0.224133 0.807041
-0.0468923 0.224668 0.80647
-0.0453344 0.225276 0.806232
-0.0437779 0.225892 0.806023
-0.0422119 0.226407 0.805374
-0.0406512 0.226959 0.804881
-0.0390852 0.22743 0.804039
-0.0375106 0.227744 0.802499
-0.0359349 0.227972 0.800584
-0.0343617 0.228138 0.79841
-0.0327902 0.228204 0.795801
-0.0312241 0.228208 0.792938
-0.0296685 0.22826 0.790302
-0.0281213 0.228315 0.78769
-0.0265816 0.228363 0.785062
-0.0250491 0.22834 0.782145
-0.0235251 0.228265 0.779017
-0.0220109 0.22816 0.775773
-0.020506 0.228093 0.772718
-0.0190086 0.228154 0.770228
-0.0175167 0.228327 0.768229
-0.0160271 0.228627 0.766786
-0.0145383 0.22904 0.765829
-0.0130499 0.229494 0.765051
-0.0115636 0.229955 0.764307
-0.010076 0.230465 0.763781
-0.00859018 0.230981 0.763272
-0.00710682 0.231469 0.762655
-0.00562705 0.231931 0.761929
-0.00415185 0.232364 0.76108
-0.00268029 0.232774 0.760149
-0.0012121 0.23318 0.759198
0.000253356 0.23358 0.758235
0.00171847 0.234003 0.757366
0.00318421 0.234451 0.756606
0.00464885 0.234907 0.755883
0.00611743 0.235412 0.755359
0.00759407 0.235988 0.75513
