ply
format ascii 1.0
element vertex 1683
property float x
property float y
property float z
end_header
0.00707173 0.108713 0.75425
0.00860647 0.109241 0.75425
0.0101488 0.109836 0.754667
0.0116907 0.110414 0.754979
0.0132331 0.110989 0.755273
0.014776 0.111562 0.755542
0.0163201 0.112135 0.755814
0.0178651 0.112708 0.756087
0.0194137 0.113298 0.756463
0.0209607 0.113873 0.756735
0.0225058 0.114432 0.756914
0.0240515 0.114989 0.757085
0.0255947 0.115531 0.757161
0.0271349 0.116057 0.75714
0.0286927 0.116666 0.757609
0.0302464 0.117248 0.757921
0.0318059 0.11785 0.758349
0.0333788 0.118502 0.759063
0.0349671 0.119207 0.760085
0.0365529 0.119889 0.76097
0.0381462 0.120592 0.76196
0.039736 0.121269 0.762802
0.0412905 0.121816 0.762882
0.042827 0.122299 0.762596
0.0443401 0.122707 0.761883
0.04584 0.123082 0.760974
0.0473275 0.123422 0.759884
0.0488097 0.123759 0.758772
0.0502883 0.124092 0.75765
0.0517453 0.124372 0.756232
0.0532103 0.124686 0.755016
0.0546783 0.125018 0.753907
0.0561331 0.12532 0.752643
0.0575365 0.125497 0.750679
0.058907 0.125602 0.748327
0.0602505 0.125654 0.745695
0.0615816 0.125692 0.743003
0.0629261 0.125781 0.740613
0.0643173 0.126 0.738949
0.0657558 0.126342 0.737968
0.0672095 0.126724 0.737217
0.0686869 0.127164 0.736784
0.0701877 0.12766 0.736657
0.0716797 0.128138 0.736437
0.0732027 0.128684 0.736581
-0.0637074 0.0939175 0.803804
-0.0620649 0.0943903 0.803221
-0.0604077 0.0948196 0.80233
-0.0587448 0.0952244 0.801279
-0.0570623 0.0955649 0.799768
-0.0553983 0.0959437 0.798548
-0.0537285 0.0962921 0.797117
-0.0520736 0.0966719 0.795916
-0.050423 0.0970522 0.794726
-0.0487905 0.0974798 0.793876
-0.0471568 0.0978931 0.792939
-0.0455306 0.0983224 0.792113
-0.0439061 0.0987474 0.791268
-0.0422728 0.0991259 0.790111
-0.0406498 0.0995317 0.789148
-0.0390268 0.0999223 0.788085
-0.0374074 0.100314 0.78704
-0.0357946 0.100721 0.786102
-0.0341872 0.10114 0.785257
-0.0325744 0.101514 0.784115
-0.0309601 0.101855 0.782753
-0.0293511 0.102202 0.781452
-0.0277352 0.102471 0.779631
-0.0261167 0.102675 0.777398
-0.0245026 0.102854 0.775013
-0.0228943 0.103013 0.772512
-0.0212956 0.103189 0.770141
-0.019708 0.103403 0.768043
-0.0181338 0.103701 0.766495
-0.0165643 0.103998 0.764962
-0.0150013 0.104323 0.763617
-0.0134405 0.104598 0.761951
-0.0118863 0.104917 0.76059
-0.0103357 0.105205 0.759033
-0.0087906 0.105529 0.757722
-0.00724988 0.105915 0.756812
-0.00571141 0.106371 0.756352
-0.00417404 0.106849 0.756032
-0.00263736 0.107347 0.755833
-0.00109984 0.107868 0.755791
0.000435772 0.108356 0.755536
0.00196802 0.108795 0.754983
0.00349865 0.109232 0.75442
0.00502853 0.109682 0.753941
0.00656016 0.110169 0.753689
0.00809307 0.110679 0.753577
0.00963314 0.111256 0.753886
0.0111739 0.111834 0.754194
0.0127156 0.112409 0.754483
0.0142577 0.112981 0.754748
0.0158012 0.113553 0.755014
0.0173406 0.114097 0.755104
0.0188857 0.114671 0.755381
0.0204316 0.115246 0.755653
0.0219756 0.115803 0.755824
0.0235201 0.11636 0.755992
0.0250649 0.116916 0.756153
0.0266039 0.117441 0.756128
0.0281535 0.118014 0.756389
0.0297007 0.118575 0.756573
0.0312493 0.119138 0.756766
0.0328104 0.119752 0.757254
0.0343913 0.120437 0.75816
0.0359829 0.121155 0.759243
0.0375799 0.121881 0.760364
0.039179 0.1226 0.761447
0.0407479 0.123204 0.761852
0.0422995 0.123742 0.761882
0.0438248 0.124189 0.761399
0.0453378 0.124602 0.760722
0.0468374 0.12498 0.759844
0.0483267 0.125331 0.758827
0.0498005 0.125645 0.757603
0.0512575 0.12592 0.756166
0.0527177 0.126213 0.754846
0.0541864 0.126542 0.753732
0.0556544 0.126877 0.752657
0.0570874 0.127126 0.751109
0.0584981 0.127326 0.749304
0.0598921 0.127496 0.747345
0.0612607 0.127614 0.745108
0.062633 0.127758 0.743028
0.0640366 0.127993 0.741454
0.0654783 0.12833 0.740452
0.0669356 0.12871 0.739682
0.0684084 0.129128 0.739128
0.0698957 0.129585 0.738782
-0.0642378 0.0954489 0.803212
-0.0625937 0.0959173 0.8026
-0.0609414 0.0963581 0.801809
-0.0592693 0.0967387 0.800589
-0.0575849 0.0970727 0.799049
-0.0559214 0.0974514 0.797839
-0.054251 0.0977969 0.796409
-0.0525958 0.0981748 0.795209
-0.0509487 0.0985651 0.794109
-0.0493164 0.0989932 0.793272
-0.0476878 0.0994238 0.792461
-0.0460694 0.0998827 0.791853
-0.0444497 0.100328 0.79115
-0.0428188 0.100719 0.790091
-0.0411981 0.101138 0.789221
-0.0395764 0.10154 0.788251
-0.0379561 0.101934 0.787221
-0.0363386 0.102324 0.786185
-0.0347263 0.102724 0.785219
-0.0331089 0.103077 0.783943
-0.0314899 0.103395 0.78245
-0.029878 0.103729 0.781066
-0.0282615 0.103998 0.779274
-0.02664 0.104185 0.776945
-0.0250223 0.104343 0.774447
-0.0234088 0.104464 0.771725
-0.021806 0.104601 0.76913
-0.0202165 0.104796 0.766925
-0.0186413 0.105075 0.765276
-0.0170713 0.105354 0.763644
-0.0155071 0.105645 0.762091
-0.0139465 0.10591 0.760394
-0.0123926 0.106204 0.758888
-0.0108429 0.106476 0.757246
-0.0092995 0.106813 0.756034
-0.00776024 0.10723 0.755336
-0.00622331 0.107705 0.755002
-0.00468698 0.108206 0.754831
-0.0031505 0.108736 0.754838
-0.00161402 0.109256 0.754792
-7.83413e-05 0.109754 0.754609
0.00145412 0.110209 0.754151
0.00298459 0.110648 0.753605
0.00451438 0.111101 0.753149
0.0060453 0.111585 0.752883
0.00757471 0.112058 0.752558
0.00910838 0.112583 0.752544
0.0106436 0.113125 0.752634
0.0121812 0.113681 0.752807
0.0137215 0.114254 0.753083
0.0152653 0.114846 0.753468
0.0168088 0.115426 0.753782
0.0183553 0.11602 0.754174
0.0199028 0.116613 0.754555
0.0214431 0.117156 0.754641
0.0229866 0.117714 0.754816
0.0245305 0.118273 0.754988
0.0260717 0.118814 0.755059
0.0276165 0.119371 0.755224
0.0291623 0.119928 0.755389
0.0307047 0.12047 0.755462
0.0322555 0.121045 0.755729
0.0338286 0.121711 0.756508
0.0354209 0.12244 0.757658
0.0370199 0.123184 0.758877
0.0386264 0.123942 0.760171
0.0402144 0.124619 0.760993
0.0417821 0.125217 0.761359
0.0433248 0.125724 0.761215
0.0448512 0.126178 0.760775
0.0463584 0.126575 0.76001
0.0478499 0.126927 0.759006
0.0493185 0.127218 0.757663
0.0507715 0.127472 0.756125
0.0522318 0.127761 0.754791
0.0536961 0.128072 0.753585
0.0551647 0.128405 0.752507
0.0566245 0.128721 0.751341
0.0580657 0.128997 0.74996
0.059494 0.129247 0.748454
0.0609027 0.129458 0.746738
0.0623147 0.129689 0.745143
0.0637299 0.129938 0.743655
0.0651697 0.13026 0.742565
-0.0663841 0.0964405 0.802724
-0.0647462 0.0969261 0.802242
-0.0631032 0.0973951 0.80164
-0.0614562 0.0978472 0.800939
-0.0597835 0.098224 0.799709
-0.0581058 0.098575 0.79831
-0.0564482 0.09897 0.79722
-0.0547831 0.0993309 0.795911
-0.0531271 0.099706 0.794711
-0.0514853 0.100114 0.793731
-0.0498565 0.100554 0.792999
-0.0482323 0.101002 0.792312
-0.0466185 0.10148 0.791837
-0.0450052 0.101953 0.791332
-0.0433735 0.102346 0.790285
-0.0417511 0.102764 0.789419
-0.0401313 0.103181 0.788549
-0.0385093 0.103573 0.787526
-0.0368841 0.103933 0.786295
-0.0352672 0.104315 0.785216
-0.0336442 0.104644 0.783796
-0.0320183 0.104927 0.782084
-0.0304006 0.105227 0.780491
-0.028783 0.105492 0.778686
-0.02716 0.105673 0.776352
-0.0255392 0.105811 0.773749
-0.0239226 0.105909 0.770903
-0.0223169 0.106024 0.7682
-0.0207239 0.106179 0.76576
-0.0191459 0.106421 0.763897
-0.0175752 0.106683 0.76217
-0.016011 0.106953 0.76051
-0.0144516 0.107219 0.758832
-0.0128988 0.107514 0.757351
-0.0113501 0.107787 0.75574
-0.00980798 0.108137 0.754623
-0.00827022 0.108571 0.754041
-0.00673429 0.10906 0.753798
-0.00519894 0.109574 0.753713
-0.00366285 0.110118 0.753816
-0.00212745 0.110639 0.753774
-0.000593257 0.111122 0.753501
0.000938567 0.111575 0.753043
0.00246807 0.112014 0.752499
0.00399619 0.112451 0.751953
0.00552354 0.1129 0.751485
0.00704943 0.113349 0.751013
0.00857725 0.113833 0.750759
0.0101069 0.114338 0.750632
0.01164 0.114878 0.750714
0.0131795 0.115469 0.751092
0.0147253 0.116095 0.751684
0.0162719 0.116713 0.752219
0.0178222 0.117345 0.752835
0.0193738 0.117973 0.753421
0.020916 0.118535 0.753617
0.0224589 0.119095 0.753806
0.0240054 0.119671 0.754085
0.0255496 0.120233 0.754273
0.0270946 0.120794 0.754458
0.0286398 0.121352 0.754629
0.0301813 0.121892 0.754692
0.0317233 0.122432 0.754755
0.0332866 0.123061 0.755323
0.0348717 0.123772 0.756352
0.0364678 0.124514 0.75755
0.0380727 0.125274 0.758849
0.0396738 0.126008 0.759986
0.0412574 0.126665 0.760689
0.042817 0.127232 0.760881
0.0443611 0.127746 0.760769
0.0458804 0.128176 0.760201
0.0473735 0.128528 0.759199
0.048843 0.128815 0.757845
0.0502977 0.129067 0.756308
0.0517536 0.129335 0.754869
0.0532134 0.129628 0.753569
0.0546824 0.129956 0.752473
0.0561556 0.130304 0.751495
0.057619 0.130634 0.750419
0.0590715 0.130941 0.749227
0.0605054 0.131209 0.74783
0.0619335 0.131472 0.746413
0.0633506 0.131717 0.744911
0.0647875 0.132021 0.743729
0.0673091 0.132264 0.750528
-0.0668541 0.0978293 0.801126
-0.0652349 0.0983552 0.800944
-0.0635961 0.0988309 0.800402
-0.0619585 0.0993041 0.79985
-0.0602929 0.0996968 0.798751
-0.0586273 0.100079 0.797582
-0.0569748 0.100488 0.796602
-0.0553203 0.100879 0.795522
-0.0536696 0.101272 0.794443
-0.0520274 0.10168 0.793483
-0.0504035 0.102138 0.792869
-0.0487867 0.102615 0.792385
-0.0471723 0.103094 0.791923
-0.0455587 0.103571 0.791438
-0.0439258 0.103964 0.790404
-0.0423014 0.104378 0.789522
-0.0406773 0.104781 0.788569
-0.039054 0.105172 0.787547
-0.0374241 0.105515 0.786212
-0.0358053 0.105892 0.785107
-0.0341802 0.106214 0.783662
-0.0325499 0.106479 0.781844
-0.0309255 0.106741 0.780027
-0.0293043 0.106985 0.778103
-0.027677 0.10714 0.775622
-0.0260513 0.107241 0.77281
-0.0244317 0.107318 0.769867
-0.0228223 0.107398 0.76696
-0.0212274 0.10753 0.764403
-0.0196478 0.107746 0.762404
-0.0180768 0.107986 0.760561
-0.0165124 0.108241 0.758826
-0.0149563 0.108541 0.757381
-0.0134053 0.108856 0.756041
-0.0118584 0.109163 0.754661
-0.0103171 0.109533 0.753681
-0.00878016 0.10998 0.75318
-0.00724458 0.110464 0.752918
-0.00570994 0.110974 0.752803
-0.00417545 0.111485 0.752702
-0.00264121 0.111989 0.752562
-0.00110876 0.112458 0.752205
0.000421344 0.112894 0.751653
0.00194888 0.113314 0.751011
0.00347534 0.113747 0.750445
0.00499875 0.114159 0.749764
0.00651979 0.114572 0.749083
0.00804369 0.115033 0.7487
0.0095686 0.115515 0.748446
0.0110968 0.116038 0.748427
0.0126376 0.116661 0.749001
0.0141851 0.117327 0.749821
0.0157342 0.117982 0.750576
0.0172879 0.118651 0.751408
0.0188429 0.119315 0.752197
0.0203864 0.119892 0.752485
0.0219308 0.120468 0.752764
0.0234765 0.121047 0.753053
0.0250204 0.121613 0.753268
0.0265654 0.122177 0.753472
0.02811 0.122738 0.753657
0.029651 0.12328 0.753727
0.0311883 0.123803 0.753695
0.0327461 0.124415 0.754161
0.0343206 0.125089 0.754981
0.0359055 0.125794 0.755969
0.037507 0.126555 0.757255
0.0391206 0.127344 0.758698
0.0407193 0.128066 0.75975
0.0423006 0.128712 0.760383
0.0438707 0.129314 0.760764
0.0454022 0.129783 0.760408
0.0469018 0.130149 0.759493
0.0483742 0.130436 0.75815
0.0498296 0.130683 0.756595
0.0512812 0.130931 0.755056
0.0527417 0.13122 0.753741
0.0542066 0.13153 0.752556
0.0556804 0.131875 0.751567
0.0571455 0.132204 0.750492
0.0586067 0.132529 0.749406
0.0600495 0.132814 0.748111
0.0620924 0.134679 0.755251
-0.0673491 0.0992766 0.799968
-0.0657364 0.0998154 0.799875
-0.0640976 0.100288 0.799323
-0.0624655 0.100773 0.798862
-0.0608085 0.101187 0.797912
-0.0591547 0.1016 0.796973
-0.0575148 0.102044 0.796242
-0.0558703 0.102467 0.795382
-0.054224 0.102875 0.794423
-0.0525862 0.1033 0.793583
-0.0509605 0.103756 0.792963
-0.0493433 0.104235 0.792491
-0.0477317 0.104728 0.792123
-0.046121 0.105221 0.79175
-0.0444903 0.105629 0.790828
-0.0428683 0.10606 0.790061
-0.0412416 0.10646 0.789092
-0.0396123 0.106833 0.787953
-0.0379731 0.107139 0.786393
-0.0363461 0.107481 0.785073
-0.0347106 0.107753 0.783315
-0.0330735 0.107981 0.781279
-0.0314424 0.108206 0.779241
-0.0298175 0.108425 0.777177
-0.0281869 0.108557 0.774578
-0.0265623 0.108667 0.771855
-0.0249408 0.108729 0.768847
-0.0233274 0.108773 0.765749
-0.0217287 0.108865 0.762973
-0.0201467 0.109042 0.760741
-0.0185737 0.109244 0.758686
-0.0170122 0.109515 0.757072
-0.0154593 0.109847 0.755846
-0.013911 0.110198 0.754747
-0.0123663 0.110551 0.753671
-0.0108266 0.110955 0.752902
-0.00928985 0.111403 0.752415
-0.00775471 0.111872 0.752059
-0.00622065 0.112376 0.751916
-0.00468696 0.112867 0.751697
-0.00315425 0.113339 0.751362
-0.00162316 0.113789 0.750903
-9.49023e-05 0.114205 0.750238
0.00142963 0.114586 0.749372
0.00295225 0.114983 0.748602
0.00447256 0.115377 0.747821
0.00599033 0.11577 0.747037
0.00751167 0.11623 0.746654
0.00903437 0.116713 0.746409
0.010562 0.117251 0.746486
0.012102 0.117892 0.747166
0.0136491 0.118576 0.748088
0.0151986 0.119252 0.748959
0.0167525 0.119942 0.749906
0.0183081 0.120624 0.750796
0.0198527 0.121219 0.751185
0.0213984 0.121812 0.75156
0.0229455 0.122407 0.75194
0.0244913 0.122987 0.752239
0.0260321 0.123537 0.752359
0.0275722 0.12408 0.752447
0.0291118 0.12462 0.752509
0.030648 0.125143 0.752477
0.0322007 0.12574 0.752858
0.0337691 0.126396 0.753571
0.0353461 0.12708 0.75443
0.036944 0.127836 0.755685
0.0385653 0.128667 0.75735
0.0401785 0.129451 0.758738
0.0417864 0.130199 0.759926
0.0433785 0.130881 0.760737
0.0449275 0.131404 0.760686
0.0464402 0.131808 0.759979
0.0479205 0.132113 0.758741
0.0493784 0.132358 0.757186
0.0508324 0.132604 0.755646
0.0522878 0.132868 0.754208
0.0537416 0.133138 0.752814
0.0552102 0.133462 0.751719
0.0566703 0.133771 0.750546
0.0581327 0.134095 0.749458
0.0601751 0.135999 0.75676
-0.0694249 0.100113 0.798414
-0.0678348 0.100701 0.798671
-0.066227 0.101248 0.798637
-0.0645972 0.10174 0.798226
-0.0629744 0.102247 0.797914
-0.0613305 0.102694 0.797203
-0.0596895 0.103142 0.796503
-0.0580607 0.103618 0.796002
-0.0564214 0.104057 0.795262
-0.0547796 0.104482 0.794423
-0.0531459 0.104923 0.793693
-0.0515189 0.105379 0.793073
-0.0498996 0.105854 0.792582
-0.0482918 0.106364 0.79233
-0.0466847 0.106875 0.792078
-0.0450603 0.107315 0.791365
-0.0434445 0.107779 0.790817
-0.0418185 0.108192 0.789935
-0.0401792 0.108531 0.788588
-0.0385295 0.108797 0.786779
-0.0368897 0.109083 0.785109
-0.03524 0.109286 0.78292
-0.0335925 0.109459 0.780566
-0.0319555 0.109648 0.778319
-0.030327 0.109843 0.776126
-0.0286939 0.109956 0.773433
-0.0270673 0.110049 0.770629
-0.0254438 0.110092 0.767537
-0.0238279 0.110114 0.764338
-0.022226 0.110167 0.761345
-0.0206427 0.110318 0.758987
-0.0190723 0.110533 0.757031
-0.0175129 0.11082 0.755538
-0.0159631 0.111184 0.754525
-0.0144181 0.111582 0.753721
-0.0128751 0.111965 0.752837
-0.0113359 0.112385 0.752184
-0.00979957 0.112838 0.751733
-0.0082644 0.113291 0.751285
-0.00673053 0.113746 0.750851
-0.00519813 0.1142 0.750407
-0.00366723 0.114634 0.749856
-0.00213884 0.115047 0.74918
-0.000612974 0.115441 0.748396
0.000909515 0.115817 0.747508
0.00243044 0.116207 0.746715
0.00394876 0.116602 0.745946
0.00546646 0.117013 0.745284
0.00698609 0.117475 0.74492
0.00850691 0.117958 0.744684
0.0100342 0.118514 0.744867
0.0115739 0.119176 0.745659
0.0131217 0.11988 0.746693
0.0146734 0.120591 0.74776
0.0162274 0.121297 0.748788
0.0177793 0.121964 0.749593
0.0193227 0.12256 0.749984
0.0208672 0.123156 0.750368
0.0224133 0.123751 0.750754
0.0239574 0.124331 0.751047
0.0254958 0.124873 0.751128
0.0270301 0.125393 0.751087
0.0285639 0.125913 0.751038
0.0300984 0.126436 0.751007
0.0316498 0.127033 0.751394
0.0332117 0.127672 0.752005
0.0347812 0.128333 0.752736
0.036379 0.129101 0.754047
0.0380022 0.129954 0.755816
0.0396261 0.130788 0.757473
0.0412595 0.131641 0.759217
0.0428789 0.132422 0.760571
0.0444512 0.133026 0.760952
0.0459832 0.133491 0.760575
0.0474891 0.133871 0.759751
0.0489522 0.13412 0.758225
0.0504022 0.134342 0.756566
0.0518469 0.134562 0.754905
0.0532824 0.134768 0.753178
0.0547333 0.135033 0.751775
0.0567399 0.136907 0.758885
-0.0709923 0.0994748 0.797831
-0.0725845 0.0988973 0.797644
-0.0731078 0.100413 0.796996
-0.0715067 0.10097 0.797032
-0.0699227 0.101568 0.797347
-0.0683299 0.102148 0.797533
-0.0667217 0.102691 0.79748
-0.0650988 0.103197 0.797168
-0.0634831 0.10372 0.796976
-0.0618581 0.104215 0.796594
-0.0602295 0.104697 0.796133
-0.0586122 0.105207 0.795861
-0.0569792 0.105668 0.795261
-0.0553415 0.106108 0.794532
-0.0537052 0.106544 0.793782
-0.0520772 0.107 0.793162
-0.0504568 0.107474 0.792671
-0.048852 0.108 0.792519
-0.0472492 0.108532 0.792396
-0.0456286 0.108992 0.791826
-0.0440162 0.109478 0.791415
-0.0423919 0.109907 0.790649
-0.0407458 0.110225 0.789173
-0.0390916 0.110481 0.787317
-0.0374352 0.110694 0.785197
-0.0357723 0.110834 0.782634
-0.0341104 0.110931 0.779813
-0.0324635 0.111061 0.777223
-0.0308255 0.111192 0.774656
-0.0291951 0.111318 0.772072
-0.0275666 0.111393 0.769194
-0.0259429 0.111431 0.766101
-0.0243272 0.111446 0.76289
-0.0227246 0.111489 0.759869
-0.0211401 0.111621 0.757424
-0.0195704 0.111833 0.755477
-0.0180134 0.112136 0.754096
-0.0164662 0.11252 0.753208
-0.0149229 0.112931 0.752503
-0.0133823 0.113348 0.751832
-0.0118445 0.113801 0.751382
-0.0103087 0.114257 0.75095
-0.0087735 0.114693 0.750408
-0.00723998 0.11511 0.749755
-0.00570879 0.115506 0.748977
-0.00417992 0.115886 0.748115
-0.00265405 0.116263 0.747233
-0.00113081 0.116636 0.746338
0.000390337 0.117024 0.745538
0.00191008 0.117431 0.74485
0.00342803 0.117843 0.744199
0.00494636 0.11829 0.743751
0.00646746 0.118788 0.743603
0.00798885 0.11929 0.743479
0.00951479 0.119847 0.743667
0.0110531 0.12051 0.74446
0.012597 0.1212 0.745408
0.0141468 0.121911 0.74647
0.0156967 0.122601 0.7474
0.0172485 0.123283 0.748276
0.0187956 0.123912 0.748858
0.0203422 0.12453 0.749368
0.021885 0.125114 0.749682
0.0234276 0.125691 0.74996
0.0249574 0.126192 0.749815
0.0264789 0.126654 0.749449
0.0280028 0.127132 0.749174
0.0295347 0.127652 0.749135
0.0310807 0.128236 0.749447
0.0326364 0.128858 0.749967
0.0342012 0.129513 0.750663
0.0357989 0.130295 0.752045
0.0374279 0.131187 0.754011
0.0390649 0.132087 0.756012
0.0407232 0.133043 0.758306
0.0423689 0.133928 0.760206
0.0439697 0.134634 0.761131
0.0455268 0.135181 0.761196
0.0470602 0.135645 0.760824
0.0485339 0.135918 0.759431
0.0499755 0.136099 0.757566
0.0519102 0.137839 0.763951
-0.0751679 0.101235 0.795375
-0.0735966 0.101853 0.795829
-0.0720044 0.102428 0.795985
-0.0704216 0.103026 0.7963
-0.0688303 0.103606 0.796496
-0.0672302 0.104167 0.796562
-0.0656119 0.104684 0.79632
-0.0640042 0.105225 0.796257
-0.0623859 0.105737 0.795995
-0.0607691 0.106252 0.795753
-0.0591585 0.106782 0.795611
-0.0575252 0.107243 0.795021
-0.0558923 0.107699 0.794401
-0.0542598 0.108151 0.793751
-0.0526345 0.108618 0.793221
-0.0510139 0.109095 0.79275
-0.0494141 0.109643 0.792727
-0.0478091 0.110171 0.792595
-0.046193 0.110653 0.792154
-0.0445834 0.111157 0.791873
-0.0429671 0.111629 0.791372
-0.0413294 0.111995 0.790215
-0.0396856 0.112315 0.788775
-0.0380077 0.112439 0.786115
-0.0363236 0.112482 0.782958
-0.0346381 0.112458 0.779415
-0.0329684 0.112457 0.776037
-0.0313118 0.112467 0.77274
-0.0296848 0.112605 0.77027
-0.0280575 0.11268 0.767418
-0.0264363 0.112727 0.764416
-0.0248224 0.112752 0.761299
-0.0232201 0.112789 0.758286
-0.0216364 0.11292 0.755853
-0.0200691 0.113148 0.754028
-0.0185146 0.113468 0.752763
-0.0169694 0.113869 0.751994
-0.0154279 0.114298 0.751406
-0.0138888 0.114734 0.750852
-0.0123524 0.115203 0.750507
-0.0108169 0.115659 0.75008
-0.00928187 0.116075 0.749428
-0.00774887 0.116467 0.748625
-0.00621812 0.116837 0.74771
-0.00469073 0.117176 0.746615
-0.00316614 0.117535 0.745647
-0.0016443 0.117911 0.744776
-0.000124283 0.1183 0.743995
0.00139486 0.118727 0.743429
0.00291355 0.119175 0.742992
0.00443266 0.119644 0.742676
0.00595438 0.12016 0.742637
0.0074763 0.120678 0.742603
0.00900131 0.121232 0.742776
0.010535 0.121861 0.743375
0.0120735 0.122517 0.744121
0.013619 0.123209 0.74507
0.0151622 0.123865 0.745797
0.0167067 0.124511 0.746474
0.0182538 0.125157 0.747146
0.0198036 0.12581 0.747854
0.0213403 0.126367 0.748022
0.0228808 0.126944 0.748297
0.0244071 0.127438 0.748113
0.0259193 0.127856 0.747518
0.0274338 0.128298 0.747049
0.0289702 0.12885 0.747192
0.0305097 0.129416 0.747406
0.0320624 0.13004 0.747933
0.0336246 0.130694 0.748625
0.035223 0.131496 0.750104
0.0368584 0.132429 0.752281
0.0385119 0.133409 0.754698
0.0401881 0.134448 0.757416
0.041859 0.135436 0.759848
0.0434875 0.136245 0.761313
0.0450705 0.136879 0.761839
0.0466253 0.137411 0.761823
0.0481146 0.137724 0.76065
0.0500326 0.139445 0.766885
-0.0756574 0.102679 0.794249
-0.0740767 0.103273 0.794544
-0.072491 0.10386 0.794779
-0.0709106 0.10446 0.795114
-0.0693273 0.105057 0.79542
-0.0677364 0.105638 0.795615
-0.0661308 0.106184 0.795582
-0.0645314 0.106746 0.795648
-0.062919 0.107274 0.795496
-0.0613085 0.107806 0.795363
-0.0597033 0.108352 0.79533
-0.0580703 0.108816 0.79476
-0.0564419 0.109287 0.79424
-0.0548179 0.109767 0.79379
-0.0531938 0.110242 0.793299
-0.0515727 0.110722 0.792849
-0.0499811 0.111302 0.793034
-0.0483742 0.111829 0.792892
-0.0467602 0.112325 0.792551
-0.045154 0.11285 0.792389
-0.0435406 0.113341 0.792018
-0.041905 0.113727 0.790981
-0.0402667 0.114084 0.789791
-0.038576 0.11416 0.786851
-0.0368585 0.114043 0.782735
-0.0351376 0.113829 0.778047
-0.0334365 0.113637 0.77353
-0.031775 0.113601 0.769993
-0.0301532 0.113752 0.767628
-0.0285343 0.113869 0.765075
-0.0269193 0.113948 0.762308
-0.0253108 0.114004 0.759411
-0.0237115 0.11406 0.75654
-0.0221305 0.114206 0.754226
-0.0205672 0.114465 0.7526
-0.0190147 0.114798 0.751434
-0.0174729 0.115232 0.750875
-0.0159346 0.1157 0.750517
-0.0143972 0.116168 0.750172
-0.0128621 0.116656 0.749933
-0.0113262 0.117109 0.749498
-0.00979079 0.117506 0.748735
-0.00825708 0.117857 0.747712
-0.00672663 0.118204 0.746668
-0.00519986 0.118523 0.745468
-0.00367605 0.118883 0.744511
-0.00215442 0.119261 0.743669
-0.000634555 0.119671 0.743013
0.000884537 0.120099 0.742463
0.00240447 0.120581 0.742226
0.00392544 0.121086 0.74212
0.00544732 0.121607 0.742105
0.00696918 0.122123 0.742067
0.00849348 0.122672 0.742207
0.0100209 0.123244 0.742481
0.0115538 0.12386 0.742996
0.013095 0.124534 0.743827
0.0146325 0.125151 0.744349
0.0161704 0.125763 0.74483
0.0177142 0.126406 0.745481
0.0192572 0.12703 0.746018
0.0207888 0.127569 0.746092
0.0223268 0.128144 0.746364
0.0238506 0.128634 0.746166
0.0253576 0.129035 0.745485
0.0268694 0.129474 0.745007
0.0284069 0.130045 0.745253
0.029944 0.13061 0.745468
0.031498 0.131251 0.746088
0.0330655 0.131944 0.746979
0.0346666 0.132769 0.748576
0.0363052 0.133729 0.750885
0.0379703 0.134771 0.75361
0.0396593 0.135873 0.756642
0.0413441 0.136926 0.759392
0.0429992 0.137838 0.761389
0.0446061 0.138557 0.762354
0.0461863 0.139173 0.762774
0.0477015 0.139563 0.762012
-0.077716 0.103508 0.79271
-0.0761301 0.104086 0.792895
-0.0745549 0.104689 0.79325
-0.0729773 0.10529 0.793585
-0.0713915 0.105875 0.79381
-0.0698039 0.106458 0.794026
-0.0682156 0.107042 0.794241
-0.0666188 0.107606 0.794327
-0.065027 0.108184 0.794503
-0.0634285 0.108747 0.794579
-0.0618306 0.109312 0.794665
-0.0602316 0.109875 0.794741
-0.0586091 0.110369 0.794371
-0.056986 0.110858 0.79397
-0.0553679 0.111358 0.793649
-0.0537541 0.111869 0.793397
-0.0521378 0.112369 0.793076
-0.0505454 0.112952 0.793271
-0.0489365 0.113475 0.793099
-0.0473202 0.113967 0.792728
-0.0457104 0.114482 0.792507
-0.0441006 0.114993 0.792265
-0.0424695 0.115407 0.791418
-0.04084 0.115813 0.79053
-0.0391095 0.115706 0.786488
-0.0373597 0.115426 0.781414
-0.0356107 0.115055 0.775809
-0.0338963 0.114776 0.77081
-0.0322389 0.114747 0.767366
-0.0306239 0.114925 0.765197
-0.0290082 0.115047 0.762699
-0.0274002 0.115163 0.760183
-0.0257996 0.11527 0.757634
-0.0242057 0.115362 0.755006
-0.0226288 0.115541 0.752914
-0.0210686 0.115829 0.751482
-0.0195192 0.116194 0.750516
-0.0179781 0.116631 0.74998
-0.0164405 0.117101 0.749642
-0.0149041 0.117571 0.749302
-0.0133692 0.118057 0.749062
-0.0118334 0.118491 0.748524
-0.0102986 0.118904 0.747864
-0.00876493 0.119241 0.746762
-0.00723489 0.119587 0.745723
-0.00570806 0.119905 0.744535
-0.00418433 0.120264 0.743585
-0.00266313 0.120642 0.742751
-0.00114246 0.121083 0.742276
0.000376778 0.121527 0.741821
0.00189785 0.122026 0.741687
0.00341975 0.122549 0.74168
0.00494181 0.123073 0.74168
0.00646341 0.123588 0.741633
0.0079861 0.124117 0.741664
0.0095095 0.124649 0.741713
0.0110371 0.125224 0.741992
0.0125744 0.125872 0.742684
0.0141057 0.126455 0.743004
0.0156372 0.127031 0.743289
0.0171764 0.127654 0.743827
0.0187135 0.128252 0.744225
0.020237 0.128753 0.744095
0.0217694 0.12931 0.744267
0.0232936 0.129815 0.744158
0.0248024 0.130237 0.743601
0.0263138 0.130681 0.743163
0.0278526 0.131272 0.743517
0.0293874 0.131837 0.743728
0.0309426 0.132495 0.744439
0.0325164 0.133227 0.745534
0.0341245 0.134098 0.747359
0.0357664 0.135085 0.749795
0.0374466 0.136203 0.752898
0.0391438 0.137351 0.756147
0.0408433 0.13847 0.759222
0.04252 0.13947 0.761656
0.0441551 0.140292 0.763148
0.0457594 0.140987 0.763976
0.0477317 0.142948 0.771357
-0.0781818 0.104903 0.791298
-0.0766 0.105486 0.791513
-0.0750272 0.106091 0.791877
-0.0734558 0.106702 0.792281
-0.0718776 0.107302 0.792606
-0.0702979 0.107901 0.792921
-0.0687113 0.108486 0.793146
-0.0671162 0.109051 0.793242
-0.065526 0.109631 0.793428
-0.06393 0.110198 0.793523
-0.0623333 0.110764 0.79362
-0.060741 0.111343 0.793805
-0.0591258 0.111856 0.793564
-0.0575147 0.112381 0.793392
-0.0559092 0.112921 0.793319
-0.0543058 0.113468 0.793296
-0.0526944 0.113987 0.793094
-0.0511051 0.114584 0.793378
-0.0494955 0.115108 0.793216
-0.0478755 0.115591 0.792786
-0.0462627 0.116097 0.792515
-0.0446535 0.116614 0.792303
-0.0414111 0.117531 0.791175
-0.0396621 0.117346 0.786691
-0.0343551 0.115915 0.768147
-0.0327064 0.115923 0.764962
-0.0311014 0.116151 0.763114
-0.0294904 0.116291 0.760756
-0.0278887 0.116442 0.758475
-0.0262935 0.116585 0.75617
-0.0247041 0.116712 0.753777
-0.0231295 0.116907 0.751806
-0.0215716 0.117213 0.750492
-0.0200229 0.117579 0.74954
-0.0184821 0.118015 0.749004
-0.0169453 0.118484 0.748663
-0.0154092 0.118951 0.748313
-0.013875 0.119435 0.748066
-0.0123404 0.119887 0.747631
-0.0108064 0.120317 0.747084
-0.00927318 0.120674 0.74611
-0.0077429 0.121042 0.745204
-0.0062155 0.121375 0.744111
-0.00469113 0.121748 0.74325
-0.00316951 0.122125 0.74241
-0.00164829 0.122565 0.741937
-0.000128534 0.123004 0.741462
0.00139247 0.123502 0.741318
0.0029139 0.124007 0.741218
0.00443576 0.124532 0.741222
0.0059574 0.12505 0.741185
0.00747864 0.12556 0.741114
0.00899828 0.126056 0.74096
0.0105217 0.126592 0.741027
0.0120535 0.127203 0.741506
0.0135792 0.12775 0.741631
0.0151067 0.128305 0.7418
0.0166407 0.128907 0.74222
0.0181723 0.129479 0.742481
0.0196902 0.129954 0.742215
0.0212193 0.130505 0.74236
0.0227423 0.131017 0.742289
0.024253 0.13146 0.74185
0.0257666 0.131925 0.741534
0.0273038 0.132517 0.741896
0.0288329 0.133063 0.742009
0.0303856 0.133722 0.742717
0.0319613 0.134476 0.743928
0.0335681 0.135355 0.74578
0.0352195 0.136401 0.748507
0.0369148 0.137599 0.752005
0.038624 0.138811 0.755556
0.0403387 0.140001 0.75898
0.042036 0.141087 0.761838
0.0436885 0.141975 0.763659
0.0453062 0.142717 0.764716
-0.0802704 0.105803 0.790257
-0.0786664 0.106336 0.790154
-0.077072 0.10689 0.790181
-0.0754885 0.107468 0.790366
-0.0739135 0.108068 0.790691
-0.0723362 0.108663 0.790996
-0.0707649 0.109278 0.791409
-0.0691853 0.109876 0.791714
-0.0675983 0.110459 0.791919
-0.0660161 0.111055 0.792214
-0.0644267 0.111635 0.792409
-0.0628326 0.112205 0.792525
-0.0612424 0.112788 0.79273
-0.0596343 0.113319 0.792608
-0.0580312 0.113866 0.792575
-0.0564381 0.114444 0.79274
-0.0548454 0.115026 0.792936
-0.0532438 0.11558 0.792952
-0.0516546 0.116179 0.793247
-0.0500494 0.116722 0.793194
-0.0484276 0.117201 0.792754
-0.046815 0.117711 0.792502
-0.0452025 0.118219 0.792231
-0.0365054 0.117243 0.769864
-0.0348003 0.116984 0.765102
-0.0331802 0.117145 0.762863
-0.0315808 0.117394 0.761164
-0.0299758 0.117564 0.759012
-0.0283794 0.117745 0.756938
-0.0267913 0.117937 0.754938
-0.0252043 0.11808 0.752667
-0.0236353 0.118327 0.751017
-0.0220789 0.118649 0.74981
-0.0205314 0.11903 0.74896
-0.0189896 0.119449 0.748329
-0.0174523 0.119912 0.747962
-0.0159153 0.120357 0.747489
-0.0143801 0.120806 0.74704
-0.0128461 0.121257 0.746608
-0.0113133 0.121708 0.746179
-0.00978085 0.122103 0.745434
-0.00825105 0.122508 0.744747
-0.00672315 0.122892 0.743947
-0.00519758 0.123281 0.743184
-0.00367476 0.123653 0.742328
-0.00215334 0.124076 0.741759
-0.000633377 0.124498 0.741192
0.000887205 0.124976 0.74094
0.00240756 0.125463 0.740735
0.0039294 0.125984 0.740723
0.00545116 0.126502 0.740689
0.00697258 0.127015 0.740634
0.00849092 0.127497 0.740401
0.0100123 0.128014 0.740369
0.0115378 0.128571 0.74055
0.0130581 0.129078 0.740457
0.0145799 0.129598 0.740435
0.0161076 0.130162 0.740652
0.0176318 0.130697 0.74071
0.0191495 0.131183 0.74051
0.0206767 0.131734 0.740656
0.0222007 0.132266 0.740693
0.0237168 0.132747 0.740466
0.0252358 0.133249 0.740349
0.0267715 0.13384 0.740704
0.0282986 0.134383 0.740803
0.0298494 0.135039 0.741495
0.0314265 0.135812 0.742791
0.0330286 0.136679 0.744576
0.0346776 0.137732 0.74731
0.0363828 0.138989 0.751094
0.0380953 0.140231 0.754771
0.0398155 0.141459 0.758357
0.0415225 0.142595 0.761448
0.0431902 0.143548 0.76358
0.04482 0.144335 0.76486
-0.0824198 0.10683 0.79005
-0.0807835 0.107297 0.789521
-0.079159 0.107786 0.789131
-0.0775468 0.1083 0.788895
-0.0759551 0.108856 0.788947
-0.0743751 0.10944 0.789171
-0.0727931 0.110021 0.789376
-0.0712229 0.110633 0.78978
-0.0696452 0.111231 0.790084
-0.0680667 0.111829 0.790389
-0.0664933 0.112444 0.790802
-0.0649122 0.113042 0.791107
-0.0633242 0.113625 0.791312
-0.0617412 0.114225 0.791616
-0.0601406 0.114776 0.791613
-0.0585441 0.11534 0.791699
-0.0569576 0.115937 0.791984
-0.0553724 0.116542 0.792318
-0.0537816 0.117132 0.792552
-0.052198 0.117751 0.792966
-0.0505974 0.118313 0.793032
-0.048981 0.118816 0.792731
-0.0473704 0.119338 0.792549
-0.035265 0.11817 0.762795
-0.0336795 0.118527 0.761742
-0.0320789 0.118764 0.759992
-0.0304736 0.118928 0.757828
-0.0288769 0.119103 0.755737
-0.027289 0.119292 0.753744
-0.025704 0.11945 0.751582
-0.024139 0.11973 0.75014
-0.0225863 0.120086 0.749144
-0.0210404 0.120485 0.748399
-0.0194979 0.1209 0.747754
-0.0179593 0.121342 0.747268
-0.0164222 0.121783 0.746781
-0.0148853 0.122195 0.74613
-0.0133518 0.122645 0.745693
-0.0118209 0.123129 0.745452
-0.0102888 0.123544 0.744828
-0.0087589 0.123952 0.74417
-0.00723081 0.124371 0.743574
-0.00570468 0.124777 0.742906
-0.00418123 0.125153 0.742076
-0.00265839 0.125592 0.74161
-0.00113809 0.126014 0.741037
0.000382526 0.126471 0.740673
0.00190197 0.126936 0.740345
0.0034229 0.127437 0.740225
0.00494244 0.127921 0.740009
0.00646214 0.128419 0.739869
0.00798027 0.1289 0.739637
0.00949944 0.1294 0.739507
0.0110206 0.129918 0.739484
0.0125392 0.13042 0.739364
0.0140619 0.130952 0.739413
0.0155867 0.131502 0.739557
0.0171082 0.132023 0.739541
0.0186296 0.132545 0.739529
0.0201561 0.133098 0.739686
0.0216772 0.133614 0.739647
0.0231955 0.134115 0.739523
0.0247168 0.134633 0.739492
0.0262445 0.135187 0.739652
0.0277701 0.135726 0.739731
0.0293181 0.136378 0.740393
0.0308974 0.13717 0.741782
0.0325014 0.138057 0.743658
0.0341485 0.139115 0.746397
0.0358552 0.140398 0.750277
0.0375706 0.141667 0.754066
0.0392894 0.142905 0.757672
0.0409956 0.144051 0.760788
0.0426771 0.145065 0.763216
0.0443228 0.145915 0.764805
-0.084595 0.107906 0.790161
-0.0829362 0.108332 0.789364
-0.0812835 0.108765 0.788617
-0.0796334 0.109198 0.787868
-0.0779944 0.109649 0.787246
-0.0763903 0.110173 0.787092
-0.0748104 0.110752 0.787289
-0.0732251 0.111319 0.787406
-0.0716585 0.111934 0.787823
-0.0700898 0.112547 0.788228
-0.0685147 0.113147 0.788552
-0.066951 0.113782 0.789084
-0.0653861 0.114419 0.789626
-0.0638121 0.115036 0.79004
-0.0622357 0.11565 0.790443
-0.0606466 0.116232 0.790628
-0.0590504 0.116793 0.790705
-0.0574718 0.117413 0.791118
-0.0558926 0.118035 0.791561
-0.0543084 0.118647 0.791924
-0.0527255 0.119268 0.792348
-0.0511359 0.119869 0.792652
-0.0495249 0.120394 0.79248
-0.0479169 0.120928 0.792377
-0.0373979 0.119445 0.764188
-0.035803 0.119778 0.762999
-0.0342091 0.120092 0.761703
-0.0325978 0.120268 0.759616
-0.0309857 0.120393 0.757239
-0.0293853 0.120542 0.75502
-0.0277966 0.120728 0.753024
-0.0262112 0.120886 0.750887
-0.0246483 0.121186 0.749575
-0.023097 0.121558 0.748678
-0.0215503 0.121954 0.747931
-0.0200052 0.122336 0.747099
-0.0184656 0.122761 0.746519
-0.0169275 0.123182 0.745923
-0.0153891 0.123558 0.745072
-0.0138567 0.12402 0.744713
-0.0123265 0.124501 0.744462
-0.0107955 0.124935 0.743946
-0.00926602 0.12536 0.74339
-0.00773841 0.125817 0.74301
-0.00621227 0.126225 0.742362
-0.00468782 0.126636 0.741734
-0.00316485 0.127079 0.741286
-0.00164346 0.127499 0.740717
-0.000123636 0.127938 0.740248
0.0013951 0.128379 0.7398
0.00291471 0.12886 0.739567
0.00443272 0.129324 0.739245
0.00595117 0.129803 0.739006
0.00746844 0.13028 0.738758
0.00898516 0.130759 0.738519
0.0105029 0.131256 0.738379
0.0120226 0.131772 0.738338
0.013546 0.132321 0.738481
0.0150706 0.132878 0.738654
0.0165967 0.133438 0.738852
0.0181208 0.133981 0.738953
0.0196447 0.134519 0.739031
0.0211655 0.135036 0.738993
0.0226863 0.135554 0.738958
0.0242077 0.136072 0.73893
0.0257321 0.136609 0.738997
0.0272567 0.137146 0.739065
0.0288001 0.137775 0.739614
0.0303776 0.13857 0.740998
0.0319767 0.139444 0.742789
0.0336219 0.140508 0.745536
0.0353291 0.14181 0.749485
0.0370452 0.143098 0.753341
0.0387571 0.144322 0.756849
0.0404648 0.145487 0.760035
0.0421491 0.146522 0.76255
0.0438037 0.147416 0.764343
-0.0862474 0.107461 0.790849
-0.0867703 0.108977 0.790242
-0.0851193 0.109424 0.789574
-0.0834488 0.109825 0.788629
-0.0817716 0.110207 0.787558
-0.0800954 0.110582 0.786455
-0.0784331 0.110978 0.785492
-0.0768134 0.111463 0.785092
-0.0752212 0.112007 0.785072
-0.0736391 0.112574 0.785198
-0.0720761 0.11319 0.785622
-0.0705174 0.11382 0.786139
-0.0689522 0.114439 0.786575
-0.0673994 0.115095 0.787238
-0.0658454 0.115755 0.787919
-0.0642807 0.116392 0.788462
-0.0627066 0.117007 0.788865
-0.0611252 0.117606 0.789159
-0.0595363 0.118184 0.789334
-0.0579645 0.11882 0.789856
-0.0563927 0.119463 0.790408
-0.0548154 0.120094 0.79089
-0.0532358 0.120723 0.791363
-0.0516513 0.12134 0.791756
-0.0500494 0.121897 0.791782
-0.0395248 0.120654 0.765177
-0.0379241 0.12098 0.763951
-0.0363267 0.121302 0.7627
-0.0347303 0.121606 0.761358
-0.0331145 0.121758 0.75915
-0.0315007 0.121876 0.756757
-0.0298983 0.122019 0.754525
-0.0283083 0.122199 0.752517
-0.0267226 0.122358 0.750399
-0.0251591 0.122657 0.749094
-0.0236075 0.123031 0.748215
-0.0220608 0.123426 0.747467
-0.0205148 0.123805 0.746632
-0.0189749 0.124229 0.746052
-0.0174365 0.124649 0.745456
-0.0158967 0.125006 0.744507
-0.0143643 0.125465 0.744136
-0.0128334 0.125928 0.743782
-0.0113024 0.12636 0.743265
-0.0097732 0.126788 0.742723
-0.00824629 0.127278 0.742531
-0.00671965 0.127705 0.741992
-0.00519434 0.128153 0.741574
-0.00367032 0.128616 0.741234
-0.00214809 0.129038 0.74068
-0.00062778 0.129457 0.740109
0.000890748 0.129876 0.739543
0.00240993 0.130336 0.739198
0.0039269 0.13078 0.738771
0.00544505 0.131255 0.738516
0.00696205 0.131727 0.738239
0.00847847 0.132202 0.737983
0.00999483 0.132681 0.737752
0.0115143 0.133199 0.73772
0.0130377 0.133754 0.737889
0.0145627 0.134314 0.738082
0.0160887 0.134878 0.738296
0.0176149 0.13544 0.738489
0.0191363 0.135958 0.738468
0.0206564 0.136473 0.738419
0.022177 0.136989 0.738379
0.0236981 0.137509 0.738356
0.0252198 0.138029 0.738343
0.0267506 0.138602 0.738593
0.0282936 0.139234 0.739147
0.0298711 0.140033 0.740543
0.0314696 0.140912 0.742344
0.0331129 0.141978 0.745079
0.0348091 0.143247 0.748823
0.0365164 0.144514 0.75254
0.0382149 0.145695 0.755807
0.0399146 0.146843 0.758883
0.0415958 0.147879 0.761383
0.043254 0.148797 0.763284
-0.0872738 0.110456 0.789397
-0.0856143 0.110883 0.78862
-0.0839335 0.111263 0.787543
-0.082238 0.111603 0.786223
-0.0805459 0.111941 0.784898
-0.0788613 0.112284 0.783618
-0.0772348 0.112747 0.783096
-0.0756367 0.113271 0.782951
-0.0740498 0.113821 0.782972
-0.0724831 0.114419 0.783294
-0.0709344 0.115066 0.783909
-0.0693722 0.115685 0.784344
-0.0678302 0.116361 0.785131
-0.0662859 0.117039 0.785929
-0.064733 0.117701 0.786619
-0.0631687 0.118338 0.787151
-0.0616013 0.118972 0.78766
-0.0600202 0.119569 0.787955
-0.0584569 0.120227 0.788595
-0.0568919 0.120887 0.789255
-0.0553222 0.12154 0.789867
-0.0537461 0.122178 0.790378
-0.0521654 0.122806 0.790841
-0.0400655 0.122257 0.765312
-0.0384666 0.1226 0.764188
-0.0368687 0.122928 0.762987
-0.0352658 0.123203 0.76149
-0.0336399 0.123304 0.759006
-0.0320215 0.123398 0.756501
-0.0304151 0.12352 0.754167
-0.028824 0.123697 0.752154
-0.0272388 0.12387 0.750136
-0.0256763 0.124185 0.74894
-0.0241236 0.124557 0.748057
-0.0225773 0.124967 0.747391
-0.0210288 0.125326 0.746454
-0.0194869 0.12573 0.745766
-0.0179468 0.126134 0.745083
-0.0164053 0.126472 0.744038
-0.0148713 0.126896 0.743478
-0.0133396 0.127339 0.743018
-0.0118091 0.127769 0.742491
-0.0102797 0.128178 0.741856
-0.0087529 0.128669 0.741677
-0.00722683 0.129096 0.741138
-0.00570191 0.129561 0.740816
-0.0041779 0.130025 0.74049
-0.00265573 0.130467 0.740043
-0.00113471 0.130901 0.739562
0.000384848 0.131337 0.739091
0.00190384 0.131795 0.738738
0.00342134 0.132237 0.738308
0.00493949 0.132713 0.738052
0.00645648 0.133184 0.737775
0.00797321 0.133659 0.737519
0.00948971 0.13414 0.737298
0.0110094 0.13466 0.737284
0.0125333 0.13522 0.737471
0.0140599 0.135798 0.737756
0.0155861 0.13636 0.737958
0.0171119 0.136919 0.738137
0.0186328 0.137434 0.738093
0.0201529 0.137946 0.738031
0.0216704 0.138441 0.737886
0.0231949 0.138981 0.737969
0.0247201 0.139523 0.73806
0.026255 0.14012 0.73843
0.0278022 0.140775 0.739093
0.029387 0.141614 0.740681
0.0309861 0.142498 0.742495
0.0326251 0.14355 0.745134
0.0343104 0.144781 0.748653
0.0360067 0.14601 0.752151
0.0376843 0.147115 0.755006
0.0393716 0.148224 0.757867
0.041045 0.149241 0.760254
0.0427073 0.150185 0.762269
0.0453118 0.151203 0.772573
0.0443565 0.151057 0.763917
-0.0893592 0.111355 0.788377
-0.0877257 0.111834 0.787928
-0.0860713 0.112269 0.787201
-0.0843751 0.112612 0.785914
-0.0826789 0.112946 0.784576
-0.0809811 0.113266 0.783156
-0.0792892 0.113588 0.78176
-0.0776574 0.114034 0.781134
-0.0760606 0.114554 0.780976
-0.0744684 0.115085 0.780887
-0.072897 0.115665 0.781097
-0.0713503 0.116309 0.781695
-0.0697898 0.116924 0.78211
-0.0682511 0.1176 0.782895
-0.066717 0.118298 0.783802
-0.0651795 0.118995 0.784706
-0.0636306 0.119669 0.785458
-0.0620837 0.120357 0.786295
-0.060518 0.120997 0.786843
-0.0589637 0.12168 0.787632
-0.0574054 0.12236 0.788401
-0.055836 0.123011 0.788992
-0.0542547 0.123628 0.789385
-0.0526689 0.124234 0.789708
-0.0390127 0.124237 0.764519
-0.0374122 0.12456 0.7633
-0.0358001 0.124792 0.761561
-0.0341687 0.124868 0.758961
-0.0325458 0.124944 0.75637
-0.0309381 0.125063 0.754042
-0.0293427 0.12522 0.751942
-0.027758 0.125405 0.750006
-0.0261946 0.12572 0.748808
-0.0246409 0.12609 0.747924
-0.023092 0.126481 0.747163
-0.0215422 0.126835 0.746204
-0.0199981 0.12722 0.745414
-0.018456 0.127603 0.744622
-0.0169138 0.127938 0.743575
-0.0153788 0.128343 0.742912
-0.0138469 0.128782 0.742435
-0.0123155 0.129191 0.741806
-0.0107855 0.12958 0.741068
-0.00925926 0.130054 0.740789
-0.00773333 0.130477 0.740242
-0.00620896 0.13094 0.739916
-0.00468556 0.131423 0.739686
-0.003163 0.131884 0.739351
-0.00164185 0.132341 0.738989
-0.00012164 0.132794 0.738615
0.00139785 0.133253 0.73827
0.00291539 0.133698 0.737854
0.00443385 0.134176 0.737615
0.00595174 0.134651 0.737367
0.00746878 0.135129 0.737128
0.00898719 0.135629 0.737005
0.0105089 0.136167 0.737083
0.012033 0.136724 0.737259
0.0135616 0.13732 0.737626
0.0150875 0.13788 0.737812
0.0166114 0.138418 0.737888
0.0181298 0.138913 0.737739
0.0196498 0.139423 0.737666
0.0211648 0.139899 0.737423
0.0226921 0.140458 0.737604
0.0242209 0.141022 0.737806
0.0257604 0.141643 0.738293
0.0273116 0.142323 0.739072
0.0289007 0.143187 0.740773
0.0304994 0.144075 0.742583
0.0321374 0.145129 0.74521
0.0338138 0.146326 0.748535
0.035503 0.147535 0.751904
0.0371736 0.148619 0.754629
0.0388545 0.149711 0.757381
0.0405216 0.150712 0.759672
0.0421878 0.15168 0.761788
0.043837 0.152558 0.763449
-0.0897518 0.112625 0.786229
-0.0881353 0.11313 0.785959
-0.0864929 0.113582 0.785357
-0.0847975 0.113921 0.784058
-0.0830968 0.11424 0.78264
-0.0814085 0.114574 0.781329
-0.0797263 0.114911 0.780048
-0.0780886 0.115338 0.779318
-0.076486 0.11584 0.779049
-0.0748956 0.116368 0.778948
-0.073319 0.116929 0.779045
-0.0717678 0.117555 0.779532
-0.0702027 0.11815 0.779835
-0.0686649 0.118821 0.780585
-0.0671337 0.119517 0.781481
-0.0656058 0.120232 0.782481
-0.0640671 0.120926 0.783357
-0.0625425 0.121672 0.784529
-0.0609936 0.122357 0.785336
-0.0594526 0.123076 0.786343
-0.0579036 0.123782 0.78725
-0.0563371 0.124439 0.78788
-0.0547531 0.125042 0.788183
-0.0411694 0.125571 0.766161
-0.0395674 0.125917 0.765072
-0.037965 0.126241 0.763864
-0.0363485 0.12646 0.762071
-0.0347134 0.126529 0.759446
-0.033087 0.126596 0.75683
-0.0314736 0.126695 0.754408
-0.0298739 0.126832 0.752211
-0.0282866 0.127013 0.75027
-0.0267193 0.127308 0.748973
-0.0251603 0.127644 0.747908
-0.0236086 0.128016 0.747046
-0.0220575 0.128365 0.746062
-0.0205108 0.128729 0.745165
-0.0189667 0.129091 0.744269
-0.017424 0.129425 0.743216
-0.015887 0.129807 0.742436
-0.014353 0.130207 0.74176
-0.0128211 0.130594 0.74101
-0.0112909 0.130963 0.740172
-0.00976467 0.131416 0.739789
-0.00823959 0.131835 0.739226
-0.00671605 0.132296 0.738888
-0.00519301 0.132777 0.738662
-0.00367112 0.133258 0.738433
-0.00214981 0.133737 0.73819
-0.000629042 0.134214 0.737944
0.000890876 0.134693 0.737711
0.0024106 0.135174 0.737489
0.00393045 0.135673 0.737359
0.00545006 0.136171 0.737226
0.00696949 0.13667 0.737097
0.00849006 0.137187 0.737065
0.0100123 0.137724 0.737132
0.0115368 0.13828 0.737294
0.0130662 0.138875 0.737661
0.0145907 0.139418 0.737756
0.0161131 0.13994 0.737745
0.0176294 0.140415 0.737493
0.0191471 0.140904 0.737321
0.0206624 0.141381 0.737079
0.0221927 0.14196 0.737357
0.0237255 0.142547 0.737671
0.0252723 0.14321 0.738367
0.0268347 0.14395 0.739441
0.0284282 0.144839 0.741252
0.0300312 0.145753 0.743165
0.031674 0.146832 0.745897
0.0333415 0.147994 0.749014
0.0350174 0.149149 0.752084
0.0366776 0.15019 0.75458
0.0383522 0.151263 0.757215
0.04001 0.15223 0.759323
0.0416752 0.153203 0.761441
0.0433183 0.154063 0.763001
-0.0917881 0.113441 0.784716
-0.0901642 0.113929 0.784341
-0.0885461 0.114426 0.784023
-0.0868993 0.114863 0.783342
-0.0851988 0.115186 0.781961
-0.0835113 0.115525 0.78069
-0.0818428 0.115896 0.779615
-0.080179 0.116268 0.778561
-0.0785499 0.116709 0.77793
-0.0769488 0.117211 0.777668
-0.0753583 0.117735 0.777547
-0.0737764 0.118279 0.777543
-0.0722124 0.118868 0.777811
-0.0706422 0.119444 0.777996
-0.0690934 0.120079 0.778532
-0.0675576 0.120755 0.779304
-0.0660265 0.121453 0.780201
-0.0644981 0.122167 0.78119
-0.0629899 0.122954 0.782593
-0.0614624 0.123696 0.783734
-0.0599375 0.12446 0.784988
-0.0584009 0.125201 0.786099
-0.0568369 0.125862 0.786749
-0.0552529 0.126461 0.787033
-0.0417267 0.127251 0.766692
-0.0401234 0.127601 0.765635
-0.0385163 0.127911 0.764351
-0.0368957 0.128118 0.762508
-0.0352571 0.128179 0.759856
-0.033627 0.128239 0.757222
-0.0320086 0.128317 0.754704
-0.0304038 0.128432 0.7524
-0.028814 0.128607 0.750446
-0.0272424 0.12888 0.74903
-0.0256783 0.129179 0.747773
-0.0241252 0.129547 0.7469
-0.0225746 0.129911 0.746006
-0.0210254 0.130256 0.745013
-0.0194791 0.130599 0.744019
-0.017935 0.130928 0.742953
-0.0163951 0.131272 0.741971
-0.0148602 0.131651 0.741184
-0.0133272 0.132016 0.740326
-0.011796 0.132363 0.739382
-0.0102698 0.132794 0.738885
-0.00874508 0.133212 0.738322
-0.00722208 0.133654 0.737887
-0.00569992 0.134153 0.737757
-0.0041783 0.134654 0.737634
-0.00265671 0.135152 0.737504
-0.00113568 0.135651 0.737371
0.000384998 0.13615 0.737239
0.00190572 0.136649 0.737116
0.00342694 0.137167 0.737085
0.00494816 0.137685 0.737054
0.00646939 0.138203 0.737022
0.00799061 0.138721 0.736991
0.00951183 0.139239 0.73696
0.0110346 0.139776 0.737028
0.0125624 0.140355 0.737307
0.0140853 0.140881 0.737316
0.0156075 0.141404 0.737306
0.0171287 0.141914 0.737237
0.0186493 0.142424 0.737164
0.0201683 0.142922 0.73703
0.0217052 0.143541 0.737505
0.0232447 0.144168 0.738011
0.0247959 0.144854 0.738814
0.0263671 0.14564 0.740104
0.0279655 0.146557 0.742031
0.0295739 0.147496 0.744055
0.0312177 0.148584 0.746799
0.032878 0.149711 0.749722
0.0345408 0.150808 0.75248
0.036195 0.151827 0.754842
0.03786 0.152862 0.757273
0.0395133 0.153815 0.759292
0.0411732 0.154771 0.761311
0.0428151 0.155628 0.762845
-0.093729 0.11409 0.782173
-0.0921498 0.114655 0.782283
-0.0905439 0.11517 0.782085
-0.0889282 0.115665 0.781767
-0.0872862 0.116104 0.781112
-0.0856065 0.116463 0.779962
-0.0839393 0.116838 0.778928
-0.0822835 0.11723 0.778001
-0.0806302 0.11762 0.777068
-0.0790038 0.118063 0.77646
-0.0774043 0.118564 0.776196
-0.0758083 0.119071 0.775972
-0.0742268 0.119611 0.775953
-0.0726581 0.120184 0.776121
-0.0710826 0.12074 0.776195
-0.0695276 0.121353 0.776598
-0.067987 0.122009 0.77725
-0.0664589 0.122706 0.77814
-0.0649458 0.123457 0.77934
-0.0634487 0.124269 0.780879
-0.0619357 0.125049 0.78223
-0.06043 0.125868 0.783798
-0.0589068 0.126648 0.78513
-0.0573465 0.12732 0.785826
-0.0557753 0.127961 0.786347
-0.0422889 0.128954 0.767332
-0.0406902 0.129338 0.766462
-0.0390839 0.129666 0.765294
-0.0374569 0.129854 0.763354
-0.0358113 0.12989 0.760588
-0.0341718 0.129907 0.757737
-0.0325446 0.129943 0.755005
-0.0309294 0.129999 0.752401
-0.0293371 0.130165 0.750412
-0.0277635 0.130431 0.748972
-0.026196 0.130709 0.74761
-0.0246401 0.131058 0.746636
-0.0230904 0.131438 0.745835
-0.0215384 0.131765 0.744756
-0.0199902 0.132092 0.743685
-0.0184466 0.132435 0.742696
-0.0169057 0.132775 0.741707
-0.0153692 0.133134 0.740821
-0.0138347 0.133479 0.739862
-0.0123023 0.133803 0.738808
-0.0107753 0.134196 0.738114
-0.00925044 0.134595 0.737455
-0.00772766 0.135019 0.736932
-0.00620619 0.135519 0.736809
-0.00468496 0.136036 0.736778
-0.00316374 0.136554 0.736746
-0.00164261 0.137072 0.736715
-0.000121387 0.13759 0.736684
0.00139983 0.138108 0.736652
0.00292106 0.138625 0.736621
0.00444228 0.139143 0.73659
0.0059635 0.139661 0.736558
0.00748472 0.140179 0.736527
0.00900595 0.140697 0.736496
0.0105287 0.141235 0.736567
0.0120562 0.141814 0.736841
0.0135792 0.142341 0.736857
0.0151034 0.142879 0.736926
0.0166294 0.14343 0.737054
0.0181539 0.143964 0.737101
0.0196798 0.144505 0.737186
0.0212231 0.145167 0.737861
0.0227701 0.145836 0.738573
0.0243232 0.146528 0.739393
0.0258957 0.147321 0.740702
0.0274921 0.148225 0.742549
0.0290982 0.149151 0.744492
0.0307377 0.150223 0.747133
0.0323943 0.151338 0.749969
0.0340514 0.152414 0.7526
0.0357037 0.153429 0.754928
0.0373674 0.154464 0.757333
0.039016 0.155401 0.759258
0.0406714 0.156342 0.761191
0.0423164 0.157216 0.762796
0.0448918 0.158185 0.772531
0.0439818 0.158154 0.764689
-0.0940951 0.115316 0.77985
-0.0925133 0.11587 0.779897
-0.0909205 0.116403 0.779818
-0.0893043 0.11689 0.779461
-0.0876669 0.117332 0.778829
-0.0860156 0.117741 0.778008
-0.0843676 0.11815 0.777193
-0.0827227 0.11856 0.776386
-0.081088 0.118987 0.775676
-0.0794637 0.11943 0.775084
-0.0778583 0.119913 0.77472
-0.0762631 0.120418 0.774489
-0.074676 0.12094 0.774361
-0.0731016 0.121493 0.774418
-0.0715207 0.12203 0.774382
-0.0699608 0.122623 0.77467
-0.0684215 0.123275 0.775302
-0.0669014 0.123988 0.776276
-0.0653929 0.124745 0.777503
-0.0639106 0.125593 0.779244
-0.0624071 0.126397 0.780719
-0.0609106 0.127239 0.782403
-0.0593964 0.128043 0.783864
-0.0578451 0.128739 0.784696
-0.0562768 0.129387 0.785257
-0.0428322 0.130562 0.76743
-0.0412324 0.130947 0.766571
-0.0396283 0.131293 0.765508
-0.0379997 0.131481 0.763579
-0.0363511 0.131512 0.760811
-0.0347082 0.131521 0.75794
-0.0330777 0.131547 0.755181
-0.0314548 0.131561 0.752365
-0.0298579 0.131703 0.75026
-0.0282805 0.131945 0.748706
