ply
format ascii 1.0
element vertex 1632
property float x
property float y
property float z
end_header
-0.00559429 0.0353055 0.830001
-0.00398109 0.0354142 0.828352
-0.00237321 0.035507 0.826408
-0.000771957 0.0355754 0.82401
0.000820994 0.0356411 0.821578
0.00240951 0.035767 0.820317
0.0039967 0.0359251 0.819679
0.00558265 0.0360912 0.819198
0.00717102 0.0362841 0.819225
0.00875901 0.036475 0.819217
0.0103448 0.036657 0.819044
0.0119318 0.0368472 0.819025
0.0135306 0.0370802 0.819803
0.0151308 0.03731 0.820516
0.0167372 0.0375524 0.821457
0.0183508 0.0378062 0.822601
0.0199708 0.0380676 0.823875
0.0215903 0.0383187 0.824955
0.0232075 0.0385579 0.825808
0.0248388 0.0388212 0.827094
0.0264728 0.039082 0.828326
0.0281151 0.0393513 0.829704
0.0297731 0.0396412 0.831437
0.0314525 0.039958 0.833644
0.0331453 0.0402858 0.836029
0.0348551 0.0406286 0.838665
0.0365763 0.0409765 0.841372
0.0382926 0.0413062 0.84374
0.0400267 0.0416503 0.846344
0.04175 0.0419706 0.848513
0.0434728 0.0422815 0.850506
0.0451969 0.042588 0.852402
-0.101005 0.0254442 0.82986
-0.0993296 0.0256171 0.829321
-0.0976432 0.0257842 0.828652
-0.095933 0.0259402 0.827718
-0.0941934 0.0260815 0.826449
-0.0924203 0.0262056 0.824782
-0.0906695 0.0263366 0.823291
-0.0889161 0.0264633 0.821716
-0.0871699 0.02659 0.820159
-0.0854504 0.0267265 0.818841
-0.0837869 0.0268875 0.818109
-0.082132 0.0270513 0.817446
-0.0804974 0.027224 0.816996
-0.078889 0.0274094 0.816842
-0.0772803 0.0275941 0.816675
-0.0756419 0.0277619 0.816125
-0.0740103 0.0279323 0.815636
-0.0723802 0.0281019 0.815141
-0.0707383 0.0282632 0.81446
-0.0690997 0.0284246 0.813792
-0.0674759 0.0285939 0.8133
-0.0658618 0.0287677 0.812918
-0.0642584 0.0289478 0.812676
-0.062669 0.0291368 0.812633
-0.0610962 0.0293374 0.812841
-0.0598805 0.029803 0.818795
-0.0574947 0.0308243 0.832485
-0.0561499 0.0312431 0.837275
-0.054614 0.0315155 0.838906
-0.0529338 0.031667 0.837958
-0.0512731 0.0318327 0.837318
-0.0496173 0.0320005 0.836729
-0.0479749 0.0321789 0.836369
-0.0463521 0.0323757 0.836394
-0.0447634 0.0326085 0.837169
-0.0431544 0.0328219 0.837533
-0.0415657 0.0330599 0.838405
-0.0399633 0.033285 0.839003
-0.0383651 0.0335179 0.839759
-0.0367476 0.0337286 0.840055
-0.0351336 0.0339453 0.840472
-0.0335006 0.034136 0.840362
-0.031869 0.0343277 0.840274
-0.0302181 0.0344872 0.83954
-0.028573 0.0346515 0.83891
-0.026926 0.0348077 0.838124
-0.0252736 0.0349471 0.837014
-0.0236239 0.0350836 0.835853
-0.0219706 0.0352013 0.834336
-0.0203145 0.0352984 0.832428
-0.0186802 0.0354364 0.831331
-0.0170615 0.0356093 0.830921
-0.015455 0.0358187 0.831218
-0.0138584 0.0360694 0.832308
-0.0122603 0.036328 0.833542
-0.0106504 0.0365473 0.834016
-0.00903821 0.0367616 0.834392
-0.00742194 0.036952 0.834314
-0.00580091 0.0370894 0.833236
-0.00418178 0.0371979 0.831622
-0.00256732 0.0372786 0.829502
-0.000960062 0.0373177 0.826622
0.000637094 0.0373477 0.823593
0.00222852 0.0374537 0.821997
0.00382036 0.0376255 0.821626
0.00541021 0.0377934 0.821186
0.00700179 0.0379829 0.821147
0.00859576 0.0381881 0.821392
0.0101855 0.0383702 0.821221
0.0117755 0.0385564 0.821121
0.0133796 0.0387971 0.822008
0.0149867 0.0390387 0.822905
0.0166011 0.0392945 0.824051
0.0182213 0.0395573 0.825312
0.0198486 0.0398283 0.826712
0.0214703 0.0400751 0.827674
0.0231016 0.0403374 0.828904
0.0247426 0.0406129 0.830355
0.0263877 0.0408875 0.831782
0.0280452 0.0411778 0.833474
0.029719 0.0414884 0.835507
0.0313962 0.0417945 0.837449
0.033088 0.0421148 0.839624
0.0347968 0.0424518 0.842071
0.0365144 0.0427913 0.844544
0.0382295 0.043115 0.846738
0.0399439 0.04343 0.84876
0.0416555 0.0437333 0.850567
0.0433757 0.0440405 0.852434
0.0450939 0.044338 0.854125
-0.101211 0.0270595 0.829824
-0.099516 0.0272232 0.829096
-0.0978244 0.027387 0.828378
-0.0961142 0.0275411 0.827443
-0.0943913 0.0276878 0.826346
-0.0926329 0.027816 0.824839
-0.0908922 0.0279494 0.823464
-0.0891464 0.0280775 0.821981
-0.0874169 0.0282104 0.820619
-0.0857043 0.0283487 0.819393
-0.0840408 0.0285093 0.818678
-0.0823908 0.0286752 0.818088
-0.0807621 0.0288513 0.817726
-0.0791515 0.0290362 0.817566
-0.0775348 0.0292172 0.817321
-0.0758941 0.0293836 0.81676
-0.0742535 0.0295486 0.816173
-0.0726204 0.0297166 0.815657
-0.0709712 0.029873 0.814896
-0.0693315 0.0300335 0.81423
-0.067707 0.0302022 0.813744
-0.06609 0.0303744 0.813339
-0.0644761 0.0305474 0.812957
-0.0628725 0.0307267 0.812708
-0.0600665 0.0313894 0.818584
-0.0578419 0.0325628 0.834954
-0.0564685 0.0329688 0.839305
-0.0548756 0.0331976 0.839977
-0.0531904 0.0333453 0.83898
-0.0515097 0.0334934 0.838
-0.0498346 0.0336431 0.837061
-0.0481748 0.0338044 0.836366
-0.0465364 0.0339851 0.836069
-0.0449336 0.0342033 0.836526
-0.0433156 0.034406 0.83667
-0.041719 0.0346342 0.837321
-0.0401267 0.0348706 0.83813
-0.0385402 0.0351181 0.839153
-0.036942 0.0353544 0.839948
-0.0353501 0.0356035 0.840989
-0.0337313 0.0358174 0.841332
-0.0321033 0.0360183 0.841422
-0.0304548 0.0361844 0.84084
-0.0288212 0.0363736 0.840705
-0.0271773 0.0365415 0.840162
-0.0255379 0.0367141 0.839718
-0.0238985 0.0368828 0.839201
-0.0222525 0.0370312 0.838302
-0.0205912 0.037131 0.83649
-0.0189535 0.0372793 0.835609
-0.0173257 0.0374482 0.835119
-0.0157084 0.0376466 0.835187
-0.0141012 0.0378844 0.835991
-0.0124926 0.0381274 0.836882
-0.0108763 0.038345 0.8373
-0.00925798 0.0385583 0.837635
-0.00763592 0.038749 0.837554
-0.00600896 0.0388858 0.836486
-0.0043846 0.0390052 0.835112
-0.00276321 0.0390736 0.832821
-0.00114923 0.0390674 0.829197
0.00045182 0.0390364 0.825152
0.00204543 0.0391185 0.82317
0.0036394 0.039288 0.822766
0.00523245 0.0394628 0.822459
0.00682921 0.0396721 0.82277
0.00842895 0.0398933 0.823289
0.0100259 0.040094 0.823441
0.0116254 0.0403037 0.823753
0.0132389 0.0405656 0.824977
0.0148582 0.0408341 0.826307
0.0164864 0.041118 0.827898
0.0181198 0.0414028 0.829493
0.0197537 0.0416758 0.830872
0.021384 0.0419291 0.831903
0.0230221 0.0421933 0.833116
0.0246688 0.0424686 0.834511
0.0263197 0.042744 0.835897
0.0279852 0.04304 0.837624
0.0296627 0.0433489 0.839559
0.0313433 0.0436528 0.841396
0.0330306 0.0439589 0.843258
0.0347336 0.0442822 0.845393
0.0364421 0.0446026 0.847472
0.0381437 0.0449042 0.849221
0.0398355 0.0451842 0.850599
0.0415414 0.0454766 0.852182
0.0432649 0.0457878 0.854058
0.0449887 0.0460927 0.855817
0.0471822 0.0450856 0.863375
0.0467336 0.0464172 0.857888
-0.097997 0.0289856 0.828018
-0.0963005 0.0291441 0.82722
-0.0945962 0.0292976 0.826316
-0.0928592 0.0294336 0.825037
-0.0911292 0.0295703 0.823784
-0.0893924 0.0297008 0.822411
-0.0876638 0.0298326 0.821074
-0.0859492 0.0299686 0.819842
-0.0842851 0.0301283 0.819132
-0.0826334 0.0302931 0.818539
-0.081005 0.0304692 0.818193
-0.079393 0.0306539 0.81803
-0.0777829 0.030839 0.81788
-0.0761407 0.0310046 0.81732
-0.0744978 0.0311681 0.816721
-0.0728628 0.0313349 0.816197
-0.0712189 0.0314944 0.815527
-0.0695717 0.0316498 0.814779
-0.0679461 0.0318178 0.814296
-0.0663275 0.0319894 0.813888
-0.0647071 0.032158 0.813429
-0.0630916 0.0323289 0.813018
-0.0567788 0.0346939 0.841176
-0.0551058 0.0348554 0.840477
-0.0534134 0.0349958 0.839372
-0.0517307 0.0351416 0.838377
-0.0500386 0.0352738 0.837127
-0.0483668 0.0354221 0.8362
-0.0467223 0.0355958 0.835779
-0.045114 0.0358083 0.836111
-0.0434956 0.03601 0.836234
-0.0419038 0.0362446 0.83699
-0.0403211 0.0364939 0.838024
-0.0387446 0.0367563 0.839301
-0.0371593 0.0370126 0.840452
-0.0355787 0.0372817 0.841834
-0.0339694 0.0375133 0.842508
-0.0323415 0.0377187 0.842668
-0.0306964 0.0378945 0.842282
-0.0290726 0.0381067 0.842577
-0.0274343 0.0382921 0.842377
-0.0258065 0.0384974 0.842546
-0.0241775 0.0387008 0.842676
-0.0225355 0.0388733 0.842232
-0.020871 0.0389818 0.840624
-0.0192318 0.0391463 0.840053
-0.0175977 0.0393203 0.839656
-0.0159735 0.0395236 0.839797
-0.0143565 0.0397562 0.840462
-0.0127369 0.039986 0.841078
-0.0111103 0.0401896 0.841215
-0.00948304 0.0403904 0.841304
-0.00785221 0.0405646 0.84092
-0.0062188 0.0406979 0.83981
-0.00458972 0.0408356 0.83879
-0.00296144 0.0409045 0.836564
0.00186266 0.0408081 0.824698
0.00505358 0.0411312 0.823633
0.00666479 0.0414325 0.825516
0.00828079 0.0417254 0.827245
0.00989344 0.0419727 0.828179
0.0115104 0.0422268 0.829225
0.0131413 0.0425241 0.830999
0.0147649 0.0427746 0.831967
0.0163943 0.0430349 0.833094
0.0180319 0.0433096 0.834456
0.0196674 0.0435668 0.835517
0.0212978 0.0438021 0.836204
0.0229372 0.044055 0.83718
0.0245881 0.0443271 0.83847
0.0262467 0.0446077 0.839891
0.0279168 0.0449031 0.841549
0.0295962 0.045207 0.843336
0.0312747 0.0454997 0.844925
0.0329535 0.0457841 0.846371
0.0346493 0.0460892 0.848148
0.0363413 0.046381 0.849691
0.0380293 0.046658 0.850991
0.0397109 0.0469206 0.852048
0.0414159 0.0472119 0.853562
0.0431444 0.04753 0.855496
0.0448827 0.0478538 0.857509
0.0466303 0.0481829 0.859589
-0.0964873 0.0307474 0.827003
-0.0948015 0.0309082 0.826288
-0.0930863 0.0310528 0.82524
-0.0913567 0.031188 0.824003
-0.0896292 0.0313216 0.82274
-0.0879086 0.0314557 0.821503
-0.0861941 0.0315905 0.820288
-0.0845296 0.0317495 0.819588
-0.0828778 0.031914 0.819007
-0.0812474 0.0320892 0.818653
-0.0796281 0.0322699 0.818415
-0.0780246 0.0324594 0.818359
-0.0763894 0.032629 0.8179
-0.0747448 0.0327914 0.817299
-0.0731089 0.0329577 0.816782
-0.0714688 0.0331198 0.816184
-0.0698207 0.0332745 0.815444
-0.0681937 0.0334419 0.814964
-0.066575 0.0336138 0.814576
-0.0649614 0.0337881 0.814242
-0.0633411 0.0339561 0.813785
-0.0569798 0.0363276 0.841144
-0.0553057 0.036487 0.840432
-0.0536182 0.0366309 0.839426
-0.0519391 0.036779 0.838511
-0.0502471 0.0369101 0.837279
-0.0485687 0.0370506 0.836237
-0.0469185 0.0372178 0.835705
-0.0453001 0.0374192 0.835822
-0.0436858 0.0376256 0.836033
-0.0421075 0.0378781 0.8371
-0.0405388 0.0381479 0.838483
-0.0389749 0.038431 0.840101
-0.0374024 0.0387098 0.841633
-0.0358297 0.0389966 0.843289
-0.034222 0.0392364 0.844089
-0.0325922 0.0394439 0.844287
-0.0309529 0.0396354 0.844184
-0.0293364 0.0398685 0.844848
-0.0277011 0.0400685 0.844911
-0.0260788 0.0402961 0.845459
-0.0244556 0.0405256 0.846046
-0.0228158 0.0407187 0.845981
-0.0211521 0.0408461 0.844741
-0.0195122 0.0410295 0.844501
-0.0178733 0.0412136 0.844281
-0.0162381 0.0414075 0.844236
-0.0146092 0.0416255 0.844619
-0.0129768 0.0418309 0.844769
-0.0113389 0.0420102 0.844471
-0.00970175 0.0421875 0.844144
-0.00806451 0.04235 0.843554
-0.00642589 0.0424829 0.842468
-0.004794 0.0426478 0.841931
0.00651998 0.0433646 0.830976
0.00815232 0.0437089 0.833496
0.00978044 0.0439853 0.834871
0.0114141 0.0442679 0.836338
0.013047 0.0445279 0.837423
0.0146759 0.0447604 0.838046
0.0163065 0.0449923 0.838658
0.0179476 0.0452517 0.839714
0.0195829 0.0454849 0.840338
0.0212137 0.0457011 0.840681
0.0228531 0.0459368 0.841338
0.0245026 0.0461919 0.842305
0.0261572 0.046452 0.843348
0.0278246 0.0467339 0.84473
0.0294985 0.0470187 0.846156
0.0311641 0.0472796 0.847192
0.0328353 0.0475469 0.848316
0.0345221 0.0478329 0.849742
0.0362041 0.0481067 0.850954
0.0378889 0.0483782 0.852127
0.0395692 0.0486371 0.853096
0.0412813 0.0489392 0.854737
0.0430165 0.0492676 0.856778
0.0447616 0.0496027 0.858907
0.0465119 0.0499345 0.860978
0.0486935 0.0489044 0.867891
0.0482312 0.0502187 0.862298
-0.0966488 0.0323383 0.826534
-0.0949772 0.0325045 0.825959
-0.0932834 0.0326581 0.825133
-0.0915671 0.0327983 0.824039
-0.089849 0.0329349 0.822885
-0.088137 0.0330721 0.821751
-0.0864406 0.0332152 0.820746
-0.0847825 0.0333775 0.820135
-0.0831385 0.0335464 0.819661
-0.0815149 0.0337258 0.819402
-0.079902 0.0339111 0.819262
-0.0782895 0.0340963 0.819118
-0.0766533 0.0342657 0.818668
-0.075008 0.0344279 0.81808
-0.0733701 0.0345932 0.81756
-0.0717293 0.034755 0.816975
-0.0700857 0.0349131 0.816324
-0.0684574 0.0350803 0.815852
-0.0668363 0.0352512 0.815457
-0.0652209 0.0354251 0.815124
-0.0636053 0.0355977 0.814767
-0.0555144 0.0381276 0.840542
-0.0538288 0.0382722 0.839583
-0.0521464 0.0384162 0.838622
-0.0504544 0.0385461 0.837406
-0.0487695 0.0386785 0.836246
-0.0471133 0.0388384 0.835601
-0.045491 0.0390355 0.835637
-0.0438866 0.0392546 0.83607
-0.0423266 0.0395324 0.837566
-0.0407761 0.0398302 0.839412
-0.0392165 0.0401246 0.84118
-0.0376498 0.0404174 0.842912
-0.0360836 0.0407201 0.84481
-0.0344804 0.0409739 0.845815
-0.0328558 0.0411961 0.846265
-0.0312307 0.0414204 0.846745
-0.0296191 0.0416733 0.847731
-0.0279831 0.0418829 0.847939
-0.0263548 0.0421108 0.848477
-0.0247308 0.0423524 0.849239
-0.0230884 0.0425535 0.849301
-0.0214256 0.0426991 0.848411
-0.0197771 0.0428773 0.848085
-0.0181321 0.0430625 0.847875
-0.0164888 0.0432503 0.847713
-0.0148493 0.0434508 0.847775
-0.0132056 0.0436315 0.847497
-0.0115614 0.0438034 0.847073
-0.00991799 0.0439686 0.846532
-0.0082742 0.0441163 0.84571
-0.00663393 0.0442711 0.845013
-0.0049993 0.0444632 0.844939
0.00966973 0.04605 0.84203
0.0113128 0.0463216 0.843262
0.0129454 0.0465335 0.843518
0.0145745 0.0467285 0.843502
0.0162061 0.0469316 0.843623
0.017848 0.0471677 0.844268
0.0194814 0.0473752 0.844447
0.021114 0.0475759 0.844528
0.0227569 0.0478053 0.845058
0.0244016 0.0480364 0.845607
0.0260525 0.0482765 0.846302
0.0277152 0.0485381 0.847328
0.0293793 0.048798 0.848315
0.0310317 0.0490279 0.848835
0.0326979 0.0492822 0.849725
0.0343782 0.0495561 0.850917
0.0360583 0.0498242 0.852012
0.0377418 0.0500912 0.853088
0.0394283 0.0503588 0.854163
0.0411457 0.0506705 0.855902
0.0428832 0.0510022 0.857942
0.0446295 0.0513406 0.860061
0.0463759 0.0516683 0.862015
0.0480867 0.0519415 0.86313
-0.0968791 0.0339628 0.82675
-0.0952045 0.0341268 0.826155
-0.0935238 0.0342862 0.825471
-0.0918172 0.0344303 0.824492
-0.0901067 0.0345699 0.823433
-0.0883844 0.0347004 0.822204
-0.0866963 0.0348474 0.821306
-0.0850381 0.0350093 0.820708
-0.0834003 0.0351819 0.820321
-0.0817751 0.0353612 0.820064
-0.0801688 0.0355513 0.820019
-0.0785552 0.0357365 0.819881
-0.0769326 0.0359153 0.819624
-0.0752865 0.0360775 0.819051
-0.0736477 0.0362431 0.818548
-0.0720046 0.0364038 0.81796
-0.0703652 0.0365655 0.817394
-0.0687285 0.0367274 0.816837
-0.0671055 0.036898 0.816445
-0.0654895 0.0370727 0.816133
-0.0638723 0.0372452 0.815783
-0.0540214 0.0398965 0.839412
-0.0523365 0.0400365 0.838408
-0.0506496 0.0401699 0.837295
-0.0489682 0.0403046 0.836214
-0.0473266 0.0404811 0.835881
-0.0457109 0.0406871 0.836074
-0.0441202 0.0409255 0.836835
-0.0425784 0.0412318 0.838786
-0.0410374 0.0415488 0.840911
-0.0394743 0.0418449 0.842652
-0.0379093 0.0421469 0.844492
-0.0363366 0.0424474 0.846283
-0.034727 0.0426965 0.84718
-0.0331075 0.0429334 0.847864
-0.0314906 0.0431791 0.848694
-0.0298759 0.0434348 0.849689
-0.0282409 0.0436549 0.850072
-0.0266099 0.0438864 0.850639
-0.0249834 0.0441329 0.851469
-0.0233416 0.0443468 0.851736
-0.0216881 0.0445299 0.851488
-0.0200367 0.0447164 0.851297
-0.0183864 0.0449033 0.851117
-0.0167359 0.0450863 0.850868
-0.0150879 0.0452758 0.850736
-0.0134351 0.0454388 0.850167
-0.0117857 0.0456093 0.849723
-0.0101369 0.045772 0.849154
-0.00848691 0.0459086 0.848166
-0.00684369 0.0460762 0.847684
-0.00520414 0.0462703 0.847639
0.00792352 0.0479925 0.849985
0.00955918 0.0481574 0.849473
0.0112006 0.0483615 0.849584
0.0128359 0.048535 0.849218
0.0144676 0.0486997 0.848716
0.0161008 0.0488788 0.848437
0.0177416 0.0490843 0.848577
0.0193746 0.0492676 0.848367
0.0210066 0.0494477 0.848118
0.0226438 0.0496464 0.84815
0.0242859 0.049858 0.848378
0.0259354 0.0500845 0.848839
0.0275903 0.0503225 0.849466
0.0292464 0.0505569 0.850045
0.0308979 0.0507805 0.850448
0.0325624 0.0510266 0.851192
0.0342377 0.0512893 0.852179
0.0359168 0.0515527 0.853177
0.0376019 0.0518228 0.854262
0.0392909 0.0520929 0.855347
0.0410023 0.0523945 0.85689
0.0427355 0.0527214 0.858804
0.0444872 0.0530676 0.860991
0.0462308 0.0533927 0.862856
0.0479494 0.0536765 0.864098
-0.0954551 0.0357626 0.826583
-0.0937776 0.0359233 0.825945
-0.092074 0.0360681 0.825011
-0.0903754 0.0362135 0.824094
-0.0886515 0.0363421 0.822867
-0.0869709 0.0364928 0.82207
-0.0853121 0.0366546 0.821485
-0.0836822 0.0368326 0.821209
-0.0820475 0.0370066 0.820862
-0.0804311 0.0371914 0.820717
-0.0788148 0.0373758 0.820565
-0.0771907 0.0375542 0.820308
-0.0755429 0.0377154 0.819736
-0.0739033 0.0378807 0.819241
-0.0722658 0.0380459 0.818749
-0.0706247 0.0382069 0.818186
-0.0689859 0.0383676 0.817623
-0.0673559 0.0385334 0.817155
-0.0657418 0.0387106 0.816895
-0.0641187 0.0388792 0.816484
-0.0541922 0.0414983 0.838844
-0.0525222 0.0416519 0.838111
-0.050848 0.0417975 0.837246
-0.0491821 0.0419488 0.836483
-0.0475725 0.0421641 0.836829
-0.0459744 0.0423949 0.83744
-0.0444 0.0426591 0.838619
-0.0428701 0.0429893 0.840913
-0.0413315 0.0433184 0.843179
-0.039762 0.043614 0.844853
-0.0381939 0.0439207 0.846711
-0.036614 0.0442188 0.848405
-0.0349973 0.0444637 0.849205
-0.0333752 0.0447042 0.849918
-0.0317549 0.0449521 0.850758
-0.0301276 0.0451917 0.851452
-0.0284901 0.0454141 0.851854
-0.0268485 0.0456298 0.85215
-0.0252136 0.0458641 0.852747
-0.0235639 0.0460646 0.85279
-0.0219127 0.04626 0.852746
-0.0202595 0.046448 0.852575
-0.0186126 0.0466551 0.852725
-0.0169641 0.0468579 0.852807
-0.0153176 0.0470689 0.853015
-0.0136647 0.0472508 0.852757
-0.012013 0.047434 0.852518
-0.0103601 0.047603 0.852056
-0.00870448 0.0477373 0.851049
-0.00705504 0.0478964 0.85044
-0.00540976 0.0480815 0.85025
-0.00376398 0.0482389 0.849622
0.00779823 0.0501356 0.857587
0.00944077 0.050259 0.856434
0.0110792 0.0503814 0.855271
0.0127149 0.0505109 0.854224
0.0143446 0.0506296 0.853022
0.0159732 0.0507616 0.852024
0.0176058 0.0509172 0.851395
0.0192349 0.0510701 0.850728
0.0208594 0.0512172 0.849973
0.0224946 0.0514013 0.849782
0.0241396 0.0516127 0.85
0.0257943 0.0518463 0.850549
0.0274529 0.052086 0.851185
0.0291088 0.0523162 0.851676
0.0307629 0.0525384 0.85205
0.0324224 0.052771 0.85257
0.0340968 0.0530271 0.853441
0.0357739 0.053287 0.85435
0.0374627 0.0535599 0.855455
0.039158 0.0538395 0.856647
0.0408668 0.0541358 0.858073
0.0425973 0.0544595 0.859889
0.0443512 0.0548093 0.862076
0.0461018 0.055146 0.864058
0.0478287 0.0554408 0.865426
-0.095674 0.0373832 0.826689
-0.0939928 0.037541 0.82602
-0.0923019 0.0376918 0.825225
-0.0906218 0.0378467 0.824514
-0.0889218 0.0379881 0.82356
-0.0872491 0.0381435 0.82287
-0.0855968 0.0383095 0.822378
-0.0839657 0.0384875 0.822108
-0.0823289 0.0386611 0.821761
-0.0807103 0.0388455 0.821613
-0.0790913 0.0390291 0.82145
-0.0774648 0.0392069 0.821186
-0.0758154 0.0393675 0.820618
-0.0741738 0.039532 0.820123
-0.072526 0.0396902 0.819522
-0.0708824 0.0398497 0.818946
-0.0692414 0.0400094 0.818379
-0.0676104 0.040175 0.817921
-0.0659915 0.0403492 0.817615
-0.0643724 0.0405219 0.817288
-0.0494778 0.0436913 0.838376
-0.0478953 0.043945 0.839351
-0.0463063 0.0441944 0.840253
-0.0447393 0.0444777 0.841702
-0.0431947 0.0447987 0.843773
-0.0416339 0.0451069 0.845622
-0.0400543 0.0453966 0.84715
-0.0384773 0.0456986 0.848872
-0.0368862 0.0459876 0.850361
-0.0352585 0.0462212 0.850948
-0.0336362 0.0464683 0.851749
-0.0320093 0.0467115 0.852481
-0.0303696 0.0469334 0.852864
-0.0287224 0.0471411 0.853024
-0.0270723 0.0473432 0.853086
-0.0254298 0.0475642 0.85345
-0.023777 0.0477602 0.853416
-0.0221291 0.0479693 0.853585
-0.0204784 0.0481708 0.853638
-0.018835 0.0483983 0.854109
-0.017188 0.0486166 0.854424
-0.015542 0.0488427 0.854856
-0.0138887 0.0490396 0.854831
-0.012237 0.0492448 0.854942
-0.0105839 0.0494425 0.854937
-0.00892573 0.0495949 0.854222
-0.00727095 0.0497591 0.853702
0.005959 0.0516834 0.858841
0.00761153 0.0518455 0.858291
0.00926051 0.0519989 0.857615
0.0109055 0.0521407 0.856773
0.012548 0.0522872 0.855999
0.0141852 0.0524228 0.85507
0.0158229 0.0525738 0.854373
0.0174597 0.0527273 0.853726
0.0190905 0.0528718 0.852942
0.0207187 0.0530158 0.852158
0.0223554 0.053192 0.85185
0.0240007 0.0533948 0.851932
0.0256535 0.0536154 0.852277
0.0273121 0.05385 0.852816
0.0289651 0.054067 0.853102
0.0306184 0.0542827 0.853369
0.0322799 0.054514 0.85386
0.0339522 0.0547646 0.854624
0.0356284 0.0550191 0.855436
0.0373184 0.0552944 0.85654
0.0390156 0.0555753 0.857723
0.0407225 0.0558671 0.859051
0.0424538 0.0561944 0.860867
0.0442139 0.0565564 0.86317
0.0459728 0.0569055 0.865278
0.0477095 0.0572129 0.866793
-0.0941958 0.0391527 0.82597
-0.092532 0.039318 0.825461
-0.0908715 0.0394839 0.824968
-0.0891857 0.0396332 0.824181
-0.0875279 0.0397976 0.823671
-0.0858921 0.0399745 0.823384
-0.0842674 0.0401578 0.823213
-0.0826285 0.0403309 0.822866
-0.081007 0.0405149 0.822711
-0.0793843 0.0406973 0.82253
-0.077747 0.0408687 0.82216
-0.0760878 0.0410229 0.821494
-0.074444 0.0411864 0.820996
-0.0727933 0.041343 0.820382
-0.0711469 0.0415009 0.819794
-0.069504 0.0416596 0.819226
-0.0678775 0.0418301 0.818859
-0.0662587 0.0420055 0.818583
-0.0482804 0.0458118 0.843127
-0.0466782 0.0460551 0.843888
-0.0450958 0.0463287 0.845134
-0.04352 0.0466177 0.846622
-0.0419248 0.0468858 0.847762
-0.0403219 0.0471479 0.848804
-0.0387324 0.0474378 0.850274
-0.0371299 0.0477137 0.851521
-0.0354958 0.0479411 0.851991
-0.0338739 0.0481941 0.852859
-0.0322409 0.0484306 0.853466
-0.0305927 0.0486394 0.853635
-0.0289408 0.0488409 0.853688
-0.027287 0.0490373 0.853654
-0.0256378 0.0492454 0.853813
-0.0239869 0.049449 0.853896
-0.0223402 0.0496657 0.854182
-0.020691 0.0498763 0.854371
-0.019051 0.0501211 0.855084
-0.0174056 0.0503541 0.855623
-0.0157596 0.0505906 0.8562
-0.014108 0.0508098 0.856516
-0.0124602 0.0510541 0.85721
-0.0108097 0.0512947 0.857846
-0.00915107 0.0514868 0.857744
-0.00749232 0.0516753 0.857593
0.00576949 0.0533828 0.85934
0.00742416 0.0535542 0.858936
0.00907757 0.0537267 0.858552
0.0107287 0.0538936 0.85809
0.0123773 0.0540554 0.857559
0.014023 0.0542131 0.85697
0.0156693 0.0543857 0.856595
0.0173103 0.0545393 0.855958
0.018946 0.0546834 0.855184
0.0205786 0.0548255 0.854391
0.0222163 0.0549937 0.853966
0.02386 0.0551804 0.853815
0.0255123 0.0553933 0.854033
0.0271711 0.0556215 0.854466
0.0288211 0.0558247 0.854548
0.0304768 0.0560395 0.854795
0.0321366 0.0562638 0.855169
0.0338073 0.0565084 0.855825
0.0354817 0.056755 0.856511
0.0371693 0.0570247 0.857508
0.0388635 0.0573002 0.858583
0.040571 0.057593 0.859892
0.0423048 0.0579238 0.861717
0.0440671 0.0582904 0.86403
0.0458334 0.058653 0.866274
0.0475782 0.0589732 0.867925
-0.0927664 0.0409482 0.825739
-0.0911222 0.0411237 0.825427
-0.0894493 0.0412804 0.824794
-0.087789 0.0414435 0.824273
-0.0861594 0.0416249 0.824072
-0.0845249 0.0418024 0.823806
-0.0828769 0.0419699 0.823371
-0.0812539 0.0421534 0.823211
-0.0796378 0.0423412 0.823126
-0.0779991 0.042512 0.822755
-0.0763461 0.0426708 0.822187
-0.0747004 0.0428335 0.821686
-0.0730481 0.0429892 0.821071
-0.071399 0.0431452 0.820469
-0.0697541 0.0433027 0.819894
-0.0681293 0.0434754 0.819575
-0.0665162 0.0436569 0.819404
-0.0487984 0.0478614 0.849584
-0.0471128 0.0480107 0.848812
-0.0454719 0.0482172 0.848962
-0.0438576 0.0484631 0.849722
-0.0422227 0.0486818 0.850047
-0.0405918 0.0489081 0.850497
-0.0389775 0.049164 0.851404
-0.037357 0.0494148 0.852224
-0.0357096 0.0496213 0.852354
-0.0340785 0.0498596 0.85298
-0.0324382 0.0500834 0.853373
-0.0307901 0.0502928 0.853542
-0.029141 0.0505012 0.853702
-0.0274895 0.0507042 0.853774
-0.0258434 0.0509214 0.85406
-0.0241962 0.0511381 0.854346
-0.0225516 0.0513643 0.854768
-0.0209055 0.05159 0.85518
-0.0192669 0.0518466 0.856049
-0.0176222 0.0520901 0.856724
-0.0159771 0.0523417 0.857515
-0.0143281 0.0525854 0.85818
-0.0126843 0.052871 0.859467
-0.0110334 0.0531364 0.860443
-0.00937719 0.0533854 0.861177
-0.00771962 0.0536445 0.862056
0.00558156 0.0551166 0.860286
0.00723851 0.0552879 0.859892
0.00889553 0.0554685 0.859634
0.0105525 0.0556574 0.859493
0.012204 0.0558201 0.858982
0.0138555 0.0559929 0.858617
0.0155092 0.0561801 0.858457
0.0171562 0.0563426 0.857956
0.0187982 0.0564956 0.857318
0.0204357 0.0566388 0.856554
0.0220747 0.0567984 0.856014
0.0237188 0.0569753 0.855726
0.0253709 0.0571783 0.855799
0.0270264 0.0573905 0.855997
0.0286788 0.0575927 0.85606
0.0303336 0.0578014 0.85621
0.0319925 0.0580188 0.856477
0.0336578 0.0582474 0.8569
0.0353297 0.0584869 0.857469
0.0370145 0.058748 0.85833
0.0387099 0.0590247 0.859395
0.0404192 0.0593204 0.860714
0.0421545 0.0596552 0.862548
0.0439186 0.0600264 0.86487
0.0456862 0.0603931 0.867114
0.0474375 0.0607241 0.868871
-0.0921971 0.0432819 0.834586
-0.0896153 0.042868 0.824355
-0.0879712 0.0430402 0.824006
-0.0863616 0.0432346 0.824029
-0.0847439 0.0434233 0.823958
-0.0831129 0.0436024 0.823727
-0.0814893 0.0437859 0.823572
-0.07988 0.0439792 0.823581
-0.0782408 0.0441499 0.823218
-0.0765956 0.0443148 0.822764
-0.0749573 0.0444836 0.822375
-0.0733106 0.0446441 0.821856
-0.0716529 0.0447936 0.821163
-0.0700122 0.0449554 0.82067
-0.0683937 0.0451344 0.820461
-0.0667781 0.0453152 0.820282
-0.0492676 0.0498655 0.85499
-0.0475368 0.0499655 0.853472
-0.0458318 0.0500942 0.8524
-0.0441748 0.0502872 0.852327
-0.0425055 0.050461 0.851953
-0.040853 0.0506593 0.851957
-0.0392193 0.0508887 0.852437
-0.0375839 0.0511177 0.852907
-0.0359266 0.0513091 0.852805
-0.0342871 0.051534 0.853207
-0.0326391 0.0517438 0.853386
-0.0309872 0.0519459 0.853449
-0.0293416 0.0521628 0.853725
-0.0276926 0.052373 0.853904
-0.026046 0.052591 0.8542
-0.0244016 0.0528169 0.854612
-0.0227586 0.0530513 0.85514
-0.0211144 0.0532869 0.855689
-0.0194766 0.0535519 0.856664
-0.017833 0.0538057 0.857465
-0.0161898 0.0540733 0.85847
-0.0145463 0.054355 0.859669
-0.0129074 0.0546842 0.861548
-0.0112565 0.0549776 0.862903
-0.00960034 0.0552616 0.864112
-0.00794126 0.0555585 0.865507
0.00705429 0.0570384 0.861032
0.00871381 0.0572239 0.860843
0.010375 0.0574201 0.860809
0.0120316 0.057597 0.860502
0.013685 0.0577616 0.860031
0.015341 0.0579496 0.85988
0.0169929 0.0581202 0.859495
0.0186408 0.0582812 0.858985
0.020284 0.0584329 0.858347
0.0219271 0.0585923 0.857817
0.0235712 0.0587599 0.857403
0.0252197 0.0589455 0.857233
0.0268712 0.0591403 0.857188
0.0285199 0.0593268 0.857037
0.0301764 0.0595351 0.857178
0.0318333 0.0597452 0.857338
0.0335001 0.0599729 0.857741
0.0351726 0.0602123 0.85829
0.0368544 0.0604671 0.859044
0.0385513 0.0607454 0.860109
0.0402665 0.0610524 0.861544
0.0420044 0.06139 0.863378
0.0437645 0.061759 0.865612
0.0455323 0.0621271 0.867827
0.0472834 0.0624599 0.869564
-0.0889051 0.0451412 0.831953
-0.0865276 0.0448199 0.823582
-0.0849219 0.0450164 0.823643
-0.0840323 0.0457265 0.831981
-0.0702617 0.0466033 0.821321
-0.0686327 0.0467739 0.820985
-0.0670014 0.0469412 0.820598
-0.0513797 0.051653 0.859856
-0.0496469 0.0517647 0.858532
-0.0479012 0.051851 0.85684
-0.0461713 0.0519513 0.855361
-0.0444788 0.0520994 0.854609
-0.0427771 0.0522283 0.853576
-0.0411076 0.0524038 0.853241
-0.0394589 0.0526127 0.853401
-0.0378092 0.0528204 0.853541
-0.0361445 0.0530002 0.853274
-0.0344996 0.0532173 0.85355
-0.0328473 0.0534201 0.853622
-0.0311954 0.0536241 0.853704
-0.0295521 0.0538485 0.854087
-0.0279051 0.0540661 0.854373
-0.0262607 0.0542934 0.854795
-0.0246179 0.0545284 0.855324
-0.0229761 0.0547718 0.855969
-0.021332 0.0550144 0.856604
-0.0196927 0.0552814 0.85758
-0.0180472 0.0555364 0.858381
-0.0164024 0.0558062 0.859385
-0.0147574 0.0560911 0.860604
-0.0131158 0.0564185 0.862415
-0.0114642 0.0567185 0.863828
-0.00980747 0.0570143 0.865173
0.00687224 0.0588191 0.862522
0.00853494 0.0590052 0.862342
0.0101994 0.0592075 0.862386
0.0118617 0.0593976 0.862264
0.0135164 0.059554 0.861686
0.0151759 0.0597395 0.861506
0.0168303 0.0599084 0.861103
0.0184793 0.0600609 0.860485
0.0201255 0.0602134 0.859867
0.0217715 0.060373 0.859347
0.0234133 0.0605232 0.85871
0.0250588 0.0606901 0.858296
0.0267058 0.0608665 0.858009
0.0283521 0.0610442 0.857741
0.0300042 0.061238 0.857687
0.0316627 0.0614482 0.857847
0.0333297 0.0616762 0.858241
0.0350028 0.0619157 0.85878
0.0366822 0.0621642 0.859437
0.0383811 0.0624459 0.860521
0.0401016 0.0627652 0.862082
0.0418408 0.0631066 0.863926
0.0435969 0.0634703 0.866043
0.0453587 0.0638306 0.868111
0.0471088 0.064164 0.869819
0.0493817 0.0633184 0.878156
0.0491755 0.064988 0.877786
-0.0530854 0.0515012 0.860578
-0.0533816 0.0532899 0.862276
-0.0516751 0.0534445 0.861603
-0.0499436 0.0535607 0.860376
-0.0482007 0.0536539 0.85882
-0.0464596 0.0537412 0.857187
-0.0447518 0.0538702 0.856174
-0.0430411 0.0539885 0.855005
-0.04136 0.054149 0.854457
-0.0397009 0.0543442 0.854413
-0.038044 0.0545425 0.854417
-0.0363723 0.0547123 0.854005
-0.0347211 0.0549202 0.854145
-0.0330644 0.0551164 0.854121
-0.0314114 0.0553208 0.854213
-0.0297699 0.0555529 0.854692
-0.0281248 0.0557796 0.855095
-0.0264771 0.0560022 0.855439
-0.024836 0.0562473 0.856094
-0.0231947 0.056498 0.856826
-0.0215486 0.0567409 0.857452
-0.0199078 0.0570098 0.858427
-0.0182624 0.0572732 0.859325
-0.0166141 0.0575369 0.860223
-0.014969 0.0578311 0.861538
-0.0133279 0.0581725 0.863494
-0.0116718 0.0584586 0.864684
-0.0100136 0.0587568 0.866029
0.00836201 0.0608468 0.86457
0.0100297 0.0610446 0.864545
0.0116969 0.061244 0.864541
0.0133533 0.061381 0.86372
0.0150119 0.0615484 0.863297
0.0166618 0.0616796 0.862408
0.018308 0.0618123 0.861538
0.0199519 0.0619468 0.860697
0.0216001 0.0621054 0.860176
0.023244 0.0622555 0.859549
0.024893 0.0624287 0.859223
0.0265415 0.0626032 0.858917
0.0281868 0.0627714 0.858532
0.0298367 0.0629571 0.858371
0.0314934 0.0631583 0.858415
0.0331578 0.0633796 0.858711
0.034829 0.0636122 0.859153
0.0365136 0.0638719 0.859936
0.0382178 0.0641647 0.861137
0.0399447 0.0644957 0.862815
0.0416855 0.064841 0.864668
0.0434424 0.0652076 0.866774
0.0451999 0.0655631 0.868735
0.0469456 0.0658882 0.870307
0.0486734 0.0661784 0.871431
-0.0553453 0.0548739 0.863813
-0.0536431 0.055039 0.863305
-0.0519403 0.0552004 0.862748
-0.0502131 0.055324 0.861658
-0.0484753 0.0554266 0.860267
-0.0467315 0.0555118 0.858643
-0.0450208 0.0556398 0.85763
-0.0433053 0.0557532 0.856423
-0.041621 0.0559123 0.855866
-0.039955 0.0561002 0.855715
-0.0382915 0.0562915 0.855613
-0.0366127 0.0564514 0.855075
-0.034955 0.0566505 0.855089
-0.0332935 0.0568408 0.854977
-0.0316391 0.0570465 0.855079
-0.029999 0.057287 0.855666
-0.0283551 0.0575222 0.856175
-0.0267076 0.0577524 0.856616
-0.0250625 0.0579931 0.857193
-0.0234191 0.0582452 0.857925
-0.0217707 0.0584887 0.858541
-0.0201259 0.0587515 0.85941
-0.0184749 0.0590013 0.860104
-0.0168271 0.0592747 0.861108
-0.0151788 0.0595627 0.862307
-0.013531 0.0598783 0.863875
-0.0118691 0.0601305 0.864578
0.00818576 0.0626804 0.866582
0.00985783 0.0628838 0.866626
0.0115302 0.0630886 0.86669
0.0131912 0.0632309 0.865947
0.0148487 0.0633683 0.865145
0.0164932 0.0634599 0.863761
0.0181351 0.06356 0.862493
0.0197733 0.0636643 0.861283
0.0214182 0.0638053 0.860549
0.0230632 0.0639553 0.859931
0.024714 0.0641294 0.859625
0.0263633 0.0643035 0.859318
0.0280121 0.0644789 0.859031
0.0296635 0.0646625 0.858851
0.031321 0.064864 0.858895
0.0329862 0.0650859 0.859191
0.0346619 0.0653271 0.85973
0.0363487 0.0655887 0.860523
0.0380584 0.0658939 0.86185
0.0397918 0.0662361 0.863635
0.0415381 0.0665954 0.865614
0.0432925 0.0669575 0.867623
0.0450468 0.0673066 0.869466
0.0467932 0.0676347 0.871038
0.0485171 0.0679171 0.872045
0.0507362 0.0669896 0.879046
0.0502441 0.0682018 0.873072
-0.0573652 0.0565246 0.866221
-0.0556425 0.0566702 0.865442
-0.0539175 0.0568083 0.864565
-0.0522066 0.0569614 0.863902
-0.0504778 0.0570852 0.862832
-0.0487468 0.0571991 0.861635
-0.047001 0.0572832 0.860031
-0.0452882 0.0574111 0.859038
-0.0435694 0.057522 0.857822
-0.0418734 0.0576652 0.857051
-0.0401922 0.0578296 0.856581
-0.0385224 0.0580122 0.856363
-0.036842 0.0581716 0.855824
-0.0351834 0.0583722 0.855858
-0.0335236 0.0585703 0.855853
-0.0318744 0.0587918 0.856168
-0.0302321 0.0590334 0.856755
-0.0285921 0.0592856 0.857477
-0.0269455 0.059526 0.858045
-0.0252974 0.0597671 0.858612
-0.0236514 0.0600206 0.859344
-0.0220008 0.0602659 0.85996
-0.020349 0.0605146 0.860625
-0.0186922 0.0607507 0.861115
-0.0170384 0.0610079 0.861886
-0.0153821 0.0612636 0.862629
-0.0137273 0.0615421 0.863672
-0.0120615 0.0617703 0.864046
-0.0104003 0.0620422 0.864993
0.00801037 0.0645336 0.868749
0.00968656 0.0647389 0.868813
0.0113614 0.0649367 0.868779
0.0130249 0.065068 0.86791
0.0146845 0.0651951 0.866993
0.0163237 0.0652455 0.865113
0.0179614 0.0653125 0.863457
0.0195963 0.0653941 0.861985
0.0212402 0.0655238 0.861125
0.0228845 0.0656648 0.860411
0.0245369 0.0658401 0.860124
0.026188 0.0660152 0.859837
0.0278357 0.0661822 0.859453
0.0294879 0.0663656 0.859273
0.031149 0.0665753 0.859413
0.0328194 0.0668045 0.859797
0.0344966 0.0670484 0.860356
0.0361842 0.0673107 0.861138
0.0378993 0.067626 0.862563
0.0396345 0.0679739 0.864376
0.0413834 0.0683378 0.866374
0.0431443 0.0687131 0.8685
0.044904 0.0690746 0.87045
0.0466576 0.0694151 0.872138
0.0483834 0.0696995 0.873145
0.0501179 0.0699931 0.874259
-0.057598 0.058241 0.866647
-0.0558858 0.0584009 0.866081
-0.0541618 0.0585409 0.865254
-0.0524442 0.0586858 0.864494
-0.0507188 0.0588149 0.863521
-0.0489963 0.0589428 0.862538
-0.0472556 0.0590362 0.861089
-0.0455466 0.0591721 0.860232
-0.0438303 0.0592901 0.859132
-0.0421303 0.0594298 0.858333
-0.0404369 0.0595758 0.85762
-0.0387604 0.0597491 0.857286
-0.0370783 0.0599084 0.856758
-0.0354182 0.0601102 0.856801
-0.0337572 0.0603098 0.856816
-0.0321123 0.0605472 0.857334
-0.0304724 0.0608013 0.858066
-0.0288333 0.0610641 0.858915
-0.0271848 0.0613076 0.859502
-0.0255338 0.0615489 0.860059
-0.0238821 0.0617941 0.860665
-0.0222242 0.0620235 0.861058
-0.0205681 0.0622646 0.861607
-0.0189068 0.062491 0.861961
-0.0172477 0.0627319 0.862499
-0.0155783 0.0629279 0.862456
-0.0139173 0.0631705 0.863014
-0.0122458 0.0633551 0.862825
0.00951763 0.0666311 0.871358
0.0111951 0.0668109 0.871101
0.0128616 0.0669334 0.870136
0.01452 0.0670336 0.868898
0.0161577 0.0670526 0.866669
0.0177938 0.0670965 0.864761
0.0194268 0.0671559 0.863046
0.02107 0.0672732 0.86205
0.0227133 0.0674046 0.861229
0.0243673 0.0675795 0.860943
0.0260211 0.0677541 0.860656
0.0276733 0.0679304 0.860389
0.0293278 0.0681153 0.860228
0.0309921 0.0683258 0.860379
0.0326605 0.0685488 0.860675
0.0343391 0.068792 0.861214
0.0360282 0.0690548 0.861987
0.0377453 0.0693742 0.86343
0.039482 0.0697263 0.865253
0.0412371 0.0701036 0.867368
0.0430049 0.0704923 0.869609
0.0447726 0.0708688 0.871696
0.0465338 0.0712222 0.8735
0.0482685 0.0715181 0.874624
0.050012 0.0718248 0.875865
-0.0595578 0.0598148 0.867833
-0.0578327 0.0599618 0.867103
-0.0561204 0.060122 0.866556
-0.0543866 0.0602494 0.865574
-0.052661 0.0603827 0.864679
-0.0509391 0.0605167 0.863793
-0.0492213 0.0606518 0.862926
-0.0474861 0.0607533 0.861624
-0.0457784 0.0608925 0.860825
-0.0440698 0.0610249 0.859938
-0.042366 0.0611597 0.859091
-0.0406691 0.0613015 0.85834
-0.0389945 0.0614813 0.858093
-0.0373148 0.0616486 0.857681
-0.0356538 0.0618526 0.857754
-0.0339942 0.0620599 0.857865
-0.0323509 0.0623073 0.8585
-0.0307065 0.0625567 0.859154
-0.029067 0.0628252 0.860051
-0.0274132 0.0630612 0.860531
-0.025757 0.0632937 0.860963
-0.0240982 0.0635222 0.861336
-0.0224383 0.0637499 0.8617
-0.0207786 0.0639829 0.862132
-0.0191139 0.0642001 0.86236
-0.017452 0.0644334 0.862792
-0.0157796 0.0646179 0.862603
-0.0141147 0.0648427 0.862928
-0.0124406 0.0650094 0.862516
0.0110319 0.0687241 0.873791
0.0127003 0.0688262 0.872593
0.0143586 0.0688957 0.871006
0.0159961 0.0688931 0.868554
0.0176344 0.0689261 0.866549
0.019265 0.068956 0.864515
0.0209082 0.0690623 0.863403
0.0225536 0.0691893 0.862543
0.0242098 0.0693605 0.862218
0.0258652 0.069536 0.861941
0.0275237 0.0697207 0.861781
0.0291842 0.0699156 0.861737
0.0308518 0.0701273 0.861897
0.0325199 0.0703429 0.862096
0.0342014 0.070588 0.862645
0.0358927 0.0708515 0.863408
0.0376115 0.0711738 0.864852
0.0393473 0.0715196 0.866567
0.0411096 0.0719107 0.868798
0.0428798 0.0723052 0.871059
0.0446558 0.0726953 0.873262
0.0464272 0.0730663 0.875231
0.0481717 0.0733781 0.87651
0.0499136 0.0736795 0.877663
-0.0580804 0.0617015 0.867781
-0.0563627 0.0618556 0.867166
-0.0546201 0.0619712 0.866049
-0.0528825 0.0620877 0.86495
-0.0511596 0.0622202 0.864065
-0.0494459 0.0623618 0.863305
-0.0477205 0.0624792 0.862235
-0.0460175 0.0626275 0.861572
-0.0443121 0.0627674 0.860802
-0.0426056 0.0628994 0.859935
-0.0409064 0.0630394 0.859175
-0.0392266 0.0632122 0.858841
-0.0375456 0.0633796 0.858439
-0.035883 0.0635839 0.858512
-0.0342246 0.0637981 0.85871
-0.0325835 0.0640558 0.859462
-0.0309371 0.0643063 0.860116
-0.0292967 0.0645789 0.861042
-0.0276435 0.0648229 0.861609
-0.0259817 0.0650455 0.861905
-0.0243151 0.0652545 0.862026
-0.022651 0.0654734 0.862274
-0.0209855 0.0656893 0.862483
-0.0193142 0.0658815 0.862391
-0.0176507 0.0661098 0.862755
-0.0159729 0.0662665 0.862226
-0.0143002 0.0664425 0.861941
-0.0126203 0.0665614 0.860956
0.00918018 0.0704679 0.876746
0.0108647 0.0706283 0.876257
0.0125339 0.0707052 0.874777
0.0141918 0.0707445 0.872861
0.0158332 0.0707372 0.8704
0.0174735 0.0707573 0.868279
0.0191052 0.0707751 0.866138
0.0207495 0.0708707 0.86492
0.0223948 0.0709838 0.863915
0.0240507 0.0711448 0.863473
0.0257055 0.07131 0.86308
0.0273664 0.0714946 0.862919
0.0290328 0.0716987 0.862983
0.0307055 0.0719223 0.863269
0.0323803 0.0721465 0.863566
0.0340714 0.0724096 0.864309
0.0357659 0.0726766 0.865091
0.0374849 0.0729928 0.866437
0.0392179 0.0733327 0.868046
0.0409814 0.073725 0.870248
0.0427498 0.0741142 0.872401
0.0445299 0.0745125 0.874652
0.0463156 0.0749083 0.876864
0.0480699 0.0752355 0.878289
0.0498103 0.0755305 0.879345
-0.060046 0.0632855 0.869004
-0.0583073 0.0634157 0.86809
-0.0565896 0.0635705 0.867495
-0.0548417 0.0636781 0.866301
-0.0531031 0.0637926 0.865202
-0.0513802 0.063925 0.864336
-0.0496752 0.0640806 0.863771
-0.0479585 0.0642129 0.862914
-0.0462547 0.0643618 0.86227
-0.0445485 0.064502 0.86152
-0.0428402 0.0646326 0.860654
-0.041135 0.0647628 0.859787
-0.0394542 0.0649361 0.859463
-0.0377772 0.0651144 0.859206
-0.036117 0.0653282 0.859395
-0.0344606 0.0655516 0.859701
-0.0328201 0.0658172 0.860529
-0.0311684 0.0660602 0.861077
-0.0295226 0.0663242 0.861877
-0.0278641 0.0665584 0.862308
-0.0262003 0.06678 0.862585
-0.0245295 0.0669798 0.86259
-0.0228641 0.0671991 0.862838
-0.0211974 0.0674156 0.863046
-0.0195268 0.0676169 0.863071
-0.0178588 0.0678316 0.86326
-0.0161773 0.0679752 0.862587
0.00900331 0.0723406 0.878734
0.0106905 0.0724948 0.878177
0.0123599 0.0725472 0.876436
0.0140185 0.0725667 0.874326
0.0156644 0.0725596 0.871915
0.0173092 0.072585 0.869891
0.0189448 0.0725993 0.867751
0.0205968 0.0727109 0.866737
0.0222453 0.0728219 0.865723
0.0239015 0.0729732 0.865174
0.0255573 0.0731276 0.864665
0.0272208 0.0733133 0.864514
0.0288901 0.0735177 0.864578
0.0305696 0.0737504 0.864961
0.032251 0.0739858 0.865374
0.0339463 0.0742521 0.866137
0.0356444 0.0745225 0.866939
0.0373623 0.0748309 0.868168
0.0390932 0.0751615 0.869641
0.0408545 0.0755475 0.871725
0.0426247 0.0759386 0.873859
0.0444125 0.0763534 0.876245
0.0462066 0.0767645 0.878584
0.0479698 0.0771058 0.880135
0.0497128 0.077401 0.881171
-0.06025 0.0649708 0.868906
-0.058508 0.0650956 0.867944
-0.0567885 0.065247 0.867321
-0.0550519 0.0653695 0.866339
-0.0533076 0.0654745 0.865145
-0.0515842 0.0656053 0.864279
-0.0498789 0.06576 0.863713
-0.0481664 0.0658986 0.862954
-0.0464629 0.066048 0.862329
-0.0447613 0.0661959 0.861696
-0.0430617 0.0663433 0.861052
-0.0413636 0.0664885 0.860389
-0.0396863 0.0666715 0.860191
-0.0380119 0.066859 0.86005
-0.0363542 0.0670826 0.860356
-0.0346961 0.0673074 0.860671
-0.0330505 0.0675659 0.861393
-0.0313933 0.0677996 0.861815
-0.0297415 0.0680528 0.862469
-0.0280789 0.0682788 0.862794
-0.0264114 0.0684924 0.862964
-0.0247401 0.0686937 0.862989
-0.0230736 0.0689134 0.863236
-0.0214064 0.0691319 0.863464
-0.0197369 0.0693424 0.863595
-0.0180699 0.0695673 0.863901
-0.0163909 0.069732 0.86349
0.00881999 0.0741778 0.880227
0.0105115 0.0743362 0.879729
0.0121851 0.0743927 0.878066
0.0138478 0.0744151 0.876024
0.0154971 0.0744016 0.873584
0.0171433 0.0744136 0.871445
0.01878 0.0744153 0.869198
0.0204352 0.0745253 0.868184
0.0220894 0.0746452 0.867287
0.0237515 0.0748043 0.866836
0.0254133 0.0749695 0.866453
0.0270833 0.0751649 0.866409
0.0287591 0.0753784 0.86657
0.0304393 0.0756033 0.866857
0.0321246 0.0758414 0.867289
0.0338246 0.0761119 0.868081
0.0355304 0.0763945 0.868999
0.0372434 0.0766871 0.870025
0.0389768 0.0770168 0.871458
0.0407395 0.0774039 0.873513
0.0425085 0.0777909 0.875559
0.0442953 0.0781999 0.877838
0.0460919 0.0786163 0.880186
0.0478508 0.0789469 0.881591
0.0495794 0.0792119 0.882278
-0.0604921 0.066708 0.869448
-0.0587403 0.0668196 0.868341
-0.0570142 0.0669622 0.867621
-0.0552617 0.0670608 0.866368
-0.0535105 0.0671544 0.865058
-0.0517814 0.067275 0.864086
-0.0500759 0.0674283 0.86352
-0.0483683 0.0675744 0.862867
-0.0466699 0.0677321 0.862359
-0.0449733 0.0678895 0.861852
-0.0432779 0.0680453 0.861324
-0.0415833 0.0681984 0.860768
-0.0399088 0.0683889 0.860667
-0.0382375 0.0685858 0.860643
-0.0365804 0.0688143 0.860996
-0.034925 0.0690495 0.861428
-0.033274 0.0692992 0.862034
-0.0316085 0.0695152 0.862232
-0.029952 0.0697581 0.862751
-0.0282911 0.0699927 0.863173
-0.0266235 0.0702091 0.863372
-0.0249546 0.0704229 0.863542
-0.0232944 0.0706711 0.864119
-0.0216276 0.0708992 0.864454
-0.019958 0.0711197 0.864701
-0.0182925 0.0713621 0.865201
-0.0166227 0.0715911 0.865545
0.00863007 0.0759582 0.881021
0.0103266 0.0761436 0.880833
0.0120024 0.0761959 0.879151
0.013668 0.0762149 0.87711
0.0153232 0.0762157 0.874874
0.0169723 0.0762243 0.872735
0.0186102 0.0762147 0.870402
0.0202706 0.0763327 0.869495
0.0219298 0.076461 0.868705
0.0235951 0.0766234 0.868293
0.0252659 0.0768083 0.868133
0.0269398 0.0770046 0.8681
0.0286219 0.0772294 0.868377
0.0303122 0.0774747 0.868877
0.0320089 0.0777352 0.869543
0.0337133 0.0780113 0.870374
0.0354314 0.0783153 0.871506
0.0371478 0.0786073 0.872502
0.0388766 0.0789212 0.873731
0.040634 0.0792914 0.875563
0.0423982 0.0796621 0.877395
0.0441729 0.0800446 0.879343
0.0459556 0.0804315 0.881331
0.0477045 0.0807421 0.882493
0.0494224 0.0809858 0.882936
-0.0589321 0.0684882 0.86804
-0.0571985 0.0686179 0.867185
-0.0554466 0.0687152 0.865942
-0.0536889 0.0687958 0.864506
-0.0519591 0.068913 0.863515
-0.0502546 0.0690662 0.862959
-0.0485535 0.0692214 0.862432
-0.0468662 0.0693979 0.862157
-0.0451752 0.0695651 0.861775
-0.0434845 0.0697296 0.861364
-0.0417936 0.0698904 0.860914
-0.0401273 0.0700997 0.861036
-0.03846 0.0703072 0.861138
-0.0368097 0.0705554 0.861714
-0.0351532 0.0707921 0.862155
-0.0334972 0.071034 0.862654
-0.0318262 0.0712387 0.862718
-0.0301647 0.0714715 0.86311
-0.0285037 0.0717088 0.863552
-0.0268388 0.0719379 0.863896
-0.0251769 0.0721812 0.864405
-0.0235187 0.0724435 0.865127
-0.0218541 0.0726905 0.865675
-0.0201892 0.0729415 0.866262
-0.0185315 0.0732389 0.867381
-0.0168733 0.0735531 0.868685
0.00843228 0.0776701 0.881018
0.0101287 0.0778517 0.880792
0.0118079 0.0779185 0.879304
0.0134763 0.0779465 0.877399
0.0151372 0.0779675 0.875426
0.0167921 0.0779939 0.873521
0.0184377 0.078009 0.871499
0.0201029 0.0781354 0.870699
0.0217673 0.0782743 0.870035
0.0234388 0.0784468 0.869739
0.0251243 0.0786748 0.870046
0.0268084 0.078896 0.870274
0.0284985 0.0791351 0.870697
0.0301995 0.0794016 0.871412
0.0319084 0.0796835 0.872291
0.0336065 0.0799305 0.872792
0.0353212 0.0802187 0.873729
0.0370288 0.0804808 0.874385
0.0387469 0.0807641 0.875265
0.0404889 0.0810954 0.87665
0.0422444 0.0814475 0.878248
0.0440099 0.0818103 0.879954
0.0457862 0.0821869 0.881796
0.0475294 0.0824845 0.882802
0.0492468 0.0827259 0.883216
-0.0608498 0.070012 0.868411
-0.0590918 0.0701098 0.867188
-0.0573574 0.0702353 0.866304
-0.0556112 0.0703377 0.865149
-0.0538532 0.0704141 0.863694
-0.0521292 0.0705377 0.8628
-0.0504317 0.0707005 0.86237
-0.0487377 0.0708664 0.861978
-0.0470561 0.0710518 0.861819
-0.0453753 0.0712373 0.86166
-0.0436897 0.0714119 0.861375
-0.0420046 0.0715847 0.86107
-0.0403425 0.0718048 0.861317
-0.0386826 0.0720311 0.861632
-0.0370356 0.0722903 0.862325
-0.0353818 0.072538 0.862882
-0.0337239 0.0727799 0.863372
-0.0320508 0.0729832 0.863416
-0.0303878 0.0732159 0.863799
-0.0287251 0.0734539 0.86424
-0.0270624 0.0736956 0.86472
-0.0254025 0.0739527 0.865374
-0.02375 0.0742463 0.866435
-0.0220885 0.0745161 0.867225
-0.0204276 0.0748 0.86817
-0.0187738 0.0751359 0.869697
-0.017121 0.0755029 0.871563
0.00824741 0.0795114 0.882413
0.00993769 0.0796213 0.88141
0.0116153 0.0796595 0.879642
0.0132871 0.0796997 0.877902
0.0149521 0.0797309 0.876075
0.0166112 0.0797668 0.874306
0.0182635 0.0797994 0.872507
0.0199325 0.0799348 0.871815
0.0216023 0.0800845 0.871277
0.0232768 0.0802585 0.871001
0.0249759 0.0805304 0.871764
0.0266736 0.0807859 0.872351
0.0283761 0.0810528 0.873056
0.0300854 0.0813357 0.873925
0.0318052 0.0816389 0.875008
0.0334891 0.0818336 0.874946
0.035198 0.0820978 0.875612
0.036892 0.0823166 0.875802
0.0385984 0.0825673 0.876323
0.0403229 0.0828553 0.877231
0.0420665 0.0831822 0.878538
0.0438157 0.0835123 0.879875
0.0455866 0.0838775 0.88157
0.0473248 0.0841675 0.88248
0.0490416 0.0844104 0.882903
-0.059241 0.0717142 0.866163
-0.0575023 0.0718297 0.865182
-0.0557622 0.0719375 0.864114
-0.0539985 0.0720001 0.862533
-0.0522765 0.0721227 0.861649
-0.050581 0.0722852 0.861229
-0.0489002 0.0724712 0.861079
-0.0472311 0.0726774 0.861162
-0.0455614 0.072883 0.861235
-0.0438812 0.0730669 0.861066
-0.0422055 0.0732588 0.860984
-0.0405446 0.073482 0.86126
-0.0388896 0.0737206 0.861711
-0.0372469 0.0739921 0.862529
-0.0355961 0.0742501 0.863193
-0.0339378 0.0744936 0.863692
-0.0322699 0.0747141 0.863929
-0.0306088 0.0749571 0.864419
-0.0289483 0.0752064 0.864976
-0.0272871 0.0754592 0.865572
-0.0256311 0.0757378 0.866449
-0.0239797 0.0760453 0.867646
-0.0223193 0.0763307 0.868591
-0.0206611 0.0766394 0.869787
-0.0190098 0.0770045 0.871604
-0.0173545 0.0773793 0.873518
-0.0156809 0.0776806 0.874619
0.00806488 0.0813974 0.884223
0.00975219 0.0814437 0.882562
0.0114299 0.0814581 0.880571
0.0131039 0.0814955 0.878832
0.0147715 0.0815285 0.877053
0.0164315 0.0815533 0.875197
0.018092 0.0816125 0.87371
0.0197662 0.0817608 0.873163
0.0214399 0.0819125 0.872654
0.0231142 0.0820771 0.872282
0.0248239 0.0823793 0.873345
0.0265251 0.0826399 0.873971
0.02823 0.0829063 0.874656
0.0299441 0.0831944 0.875565
0.0316616 0.0834869 0.876512
0.0333306 0.0836318 0.875935
0.0350239 0.0838471 0.876087
0.0367037 0.0840286 0.875889
0.038392 0.0842317 0.875914
0.0401038 0.0844926 0.876531
0.0418353 0.0847947 0.877566
0.0435716 0.0851011 0.87864
0.045331 0.0854488 0.880132
0.0470678 0.0857428 0.88107
0.0487791 0.0859773 0.881406
-0.0593597 0.073271 0.864625
-0.0576252 0.0733879 0.863683
-0.0558871 0.0734934 0.862615
-0.054132 0.0735643 0.861161
-0.0524179 0.0736954 0.860392
-0.0507299 0.0738671 0.860088
-0.0490573 0.0740645 0.860074
-0.0474004 0.0742913 0.860389
-0.0457423 0.0745174 0.860694
-0.0440676 0.0747114 0.860641
-0.042402 0.0749237 0.860792
-0.0407454 0.0751568 0.861174
-0.0390948 0.0754067 0.861741
-0.0374552 0.075688 0.862656
-0.0358055 0.0759506 0.863358
-0.034151 0.0762065 0.863982
-0.0324869 0.0764406 0.864365
-0.0308255 0.0766861 0.864874
-0.0291641 0.0769372 0.865441
-0.0275103 0.0772196 0.866347
-0.0258556 0.0775102 0.86734
-0.0242083 0.0778422 0.868778
-0.0225512 0.0781517 0.869965
-0.0208951 0.0784847 0.871404
-0.0192408 0.0788505 0.873192
-0.0175813 0.0792199 0.875008
-0.0159021 0.0795061 0.875925
-0.0140094 0.0780213 0.876146
-0.0142236 0.0798154 0.877083
0.00618383 0.0832346 0.887577
0.00788218 0.0832957 0.886091
0.00956892 0.0832977 0.883994
0.0112452 0.0832726 0.881625
0.0129183 0.0832811 0.879615
0.0145856 0.0832991 0.877711
0.0162473 0.08332 0.875846
0.0179119 0.083388 0.874475
0.019586 0.083527 0.873841
0.0212593 0.0836685 0.873236
0.022927 0.0837994 0.872524
0.0246418 0.0841193 0.873752
0.0263463 0.0843916 0.874485
0.028054 0.0846638 0.875218
0.0297758 0.0849776 0.876369
0.0314909 0.0852572 0.87717
0.03314 0.085338 0.875954
0.0348145 0.0855019 0.875581
0.0364833 0.0856529 0.875082
0.0381498 0.0858039 0.874584
0.0398498 0.0860403 0.874949
0.0415677 0.0863176 0.875721
0.0432896 0.0866002 0.876542
0.0450359 0.0869296 0.877829
