ply
format ascii 1.0
element vertex 1704
property float x
property float y
property float z
end_header
-0.185598 0.146501 0.846015
-0.183942 0.146775 0.845983
-0.182315 0.14707 0.846115
-0.180623 0.147317 0.845874
-0.178917 0.147551 0.845541
-0.177223 0.147794 0.845273
-0.175509 0.148019 0.844874
-0.173768 0.148221 0.844301
-0.172062 0.14845 0.843928
-0.170406 0.148715 0.843841
-0.168755 0.148983 0.843783
-0.154312 0.157215 0.880218
-0.152419 0.157311 0.878816
-0.150594 0.157467 0.877862
-0.148911 0.157759 0.877915
-0.147188 0.158009 0.877665
-0.145517 0.158312 0.877796
-0.14391 0.15868 0.878407
-0.1423 0.159046 0.879008
-0.140614 0.159334 0.879031
-0.138994 0.159692 0.879563
-0.137345 0.160018 0.879871
-0.13568 0.160329 0.880061
-0.134042 0.16067 0.880466
-0.132391 0.160997 0.880774
-0.130754 0.16134 0.881199
-0.129129 0.1617 0.881742
-0.127518 0.162077 0.882402
-0.125906 0.162456 0.883083
-0.124342 0.162897 0.884194
-0.122755 0.163313 0.88513
-0.121188 0.163759 0.886272
-0.119639 0.164233 0.88761
-0.118158 0.164805 0.889636
-0.116616 0.165303 0.891132
-0.115055 0.165781 0.892482
-0.113508 0.166286 0.894019
-0.0979223 0.168374 0.890645
-0.0962262 0.16865 0.89058
-0.094543 0.168948 0.890673
-0.0928389 0.169206 0.890491
-0.0911225 0.169439 0.89014
-0.0894336 0.16972 0.890115
-0.0877268 0.169966 0.889853
-0.0860123 0.170192 0.889463
-0.0842906 0.1704 0.888944
-0.0825791 0.170623 0.888534
-0.0808774 0.170863 0.888242
-0.0791943 0.171139 0.888196
-0.07752 0.171434 0.888277
-0.0758385 0.171713 0.888251
-0.0741765 0.172036 0.88852
-0.072516 0.172362 0.888809
-0.0708683 0.172724 0.889344
-0.0692285 0.17311 0.890028
-0.0675987 0.173526 0.890919
-0.0659828 0.17399 0.892126
-0.0643832 0.174512 0.893708
-0.0627983 0.175095 0.895696
-0.0612284 0.17574 0.898089
-0.0596489 0.176384 0.900464
-0.0580415 0.176956 0.902355
-0.192319 0.148319 0.853759
-0.189126 0.147524 0.845479
-0.187508 0.147826 0.845664
-0.187394 0.149213 0.854161
-0.172464 0.150161 0.84444
-0.170785 0.150409 0.844226
-0.169099 0.15065 0.84396
-0.156997 0.159264 0.884843
-0.15512 0.159386 0.883638
-0.153195 0.159456 0.882061
-0.151307 0.159555 0.880699
-0.149524 0.159753 0.880068
-0.147706 0.159912 0.879154
-0.145986 0.160168 0.878944
-0.144334 0.160492 0.879232
-0.142679 0.160814 0.8795
-0.14097 0.161078 0.879358
-0.139333 0.161419 0.879763
-0.137668 0.161731 0.879963
-0.136006 0.162045 0.880172
-0.13438 0.162401 0.880685
-0.132741 0.162743 0.881101
-0.131118 0.163105 0.881653
-0.129506 0.163482 0.882313
-0.127907 0.163877 0.883092
-0.126304 0.16427 0.88386
-0.124738 0.164713 0.884972
-0.123149 0.16513 0.885907
-0.12158 0.165578 0.887049
-0.120032 0.166057 0.888407
-0.118542 0.166623 0.890364
-0.117005 0.167131 0.891919
-0.115456 0.167631 0.893406
-0.0983382 0.170286 0.892004
-0.0966398 0.170563 0.89195
-0.0949606 0.170873 0.892122
-0.0932682 0.171159 0.892127
-0.0915403 0.171376 0.891669
-0.0898451 0.171652 0.891614
-0.088134 0.171895 0.891333
-0.0864082 0.172105 0.890835
-0.0846853 0.172315 0.890337
-0.0829717 0.172539 0.889937
-0.0812513 0.172745 0.889419
-0.0795483 0.172984 0.889127
-0.0778556 0.173243 0.888963
-0.0761655 0.173504 0.888818
-0.0744897 0.173798 0.88889
-0.0728275 0.174124 0.889179
-0.0711788 0.174486 0.889705
-0.0695375 0.17487 0.890379
-0.067901 0.175273 0.891171
-0.0662851 0.175742 0.892397
-0.0646921 0.176286 0.894108
-0.0631069 0.176874 0.896105
-0.0615303 0.177505 0.898379
-0.0599433 0.17813 0.900605
-0.0583343 0.1787 0.902466
-0.0567277 0.178586 0.911202
-0.0569943 0.180247 0.910678
-0.15879 0.159059 0.885443
-0.159341 0.160987 0.887004
-0.157552 0.161199 0.886454
-0.155685 0.161333 0.885347
-0.153776 0.161419 0.883908
-0.151861 0.161494 0.88239
-0.150039 0.161655 0.881497
-0.148199 0.161794 0.880447
-0.146447 0.162019 0.880022
-0.144765 0.162315 0.880105
-0.14309 0.162618 0.880236
-0.14136 0.162862 0.879947
-0.139704 0.163184 0.880216
-0.138026 0.163482 0.880318
-0.136363 0.163797 0.880538
-0.134748 0.164168 0.881149
-0.133122 0.164528 0.881681
-0.131488 0.16488 0.882156
-0.12989 0.165277 0.882943
-0.1283 0.165685 0.883809
-0.126694 0.166078 0.884568
-0.125127 0.166522 0.88568
-0.123547 0.166956 0.886713
-0.121965 0.16739 0.887747
-0.120425 0.167885 0.889203
-0.11895 0.168475 0.891306
-0.117387 0.168954 0.892635
-0.115837 0.169457 0.894122
-0.0971163 0.172592 0.894056
-0.0954275 0.172892 0.894159
-0.093741 0.173196 0.894282
-0.0919885 0.173376 0.89358
-0.0902714 0.173616 0.893279
-0.088519 0.173785 0.892507
-0.0867722 0.173956 0.891754
-0.0850304 0.174131 0.89103
-0.0833145 0.174354 0.89063
-0.0815929 0.174561 0.890122
-0.0798946 0.174813 0.889919
-0.0781986 0.175069 0.889736
-0.0764984 0.175311 0.889474
-0.0748148 0.175589 0.889437
-0.0731434 0.175897 0.889608
-0.0714881 0.176245 0.890036
-0.0698398 0.176616 0.890611
-0.0682099 0.177039 0.891531
-0.0665997 0.177529 0.892875
-0.0650114 0.178093 0.894704
-0.0634256 0.178685 0.896711
-0.0618474 0.179319 0.898974
-0.0602548 0.179931 0.901091
-0.0586375 0.180483 0.902813
-0.0569961 0.180965 0.904082
-0.161564 0.162594 0.888274
-0.159795 0.162829 0.88789
-0.15802 0.163055 0.887458
-0.156171 0.163206 0.886489
-0.154282 0.163314 0.885217
-0.152365 0.163388 0.88371
-0.15054 0.163548 0.882817
-0.148691 0.163679 0.881728
-0.146935 0.163903 0.881294
-0.145236 0.164184 0.88127
-0.143544 0.164472 0.881294
-0.141795 0.164697 0.880879
-0.14012 0.165001 0.88102
-0.138429 0.165288 0.881035
-0.136766 0.165605 0.881264
-0.135163 0.165992 0.881983
-0.133548 0.166368 0.882624
-0.131924 0.166735 0.883196
-0.130314 0.167122 0.883905
-0.128722 0.167532 0.884771
-0.127113 0.167925 0.88552
-0.125531 0.168355 0.886524
-0.123927 0.16876 0.887352
-0.122355 0.169212 0.888493
-0.120802 0.169693 0.889831
-0.119283 0.170229 0.891542
-0.117669 0.170638 0.892381
-0.0975763 0.174596 0.895944
-0.0958895 0.174908 0.896116
-0.0942043 0.175222 0.896309
-0.0924544 0.175413 0.895685
-0.0907025 0.175595 0.895002
-0.0889089 0.175687 0.893729
-0.0871287 0.175796 0.892573
-0.0853579 0.175913 0.891476
-0.0836251 0.176102 0.890861
-0.0819032 0.17631 0.890363
-0.0802049 0.176565 0.89018
-0.0785081 0.176819 0.889996
-0.0768135 0.177077 0.889833
-0.0751265 0.177351 0.889777
-0.0734543 0.17766 0.889948
-0.0717983 0.178008 0.890375
-0.0701546 0.178395 0.891049
-0.0685234 0.178821 0.891979
-0.0669197 0.179333 0.893452
-0.065335 0.179917 0.895388
-0.0637557 0.180533 0.897522
-0.0621709 0.181155 0.899687
-0.0605708 0.181751 0.901685
-0.058953 0.182306 0.903407
-0.0573046 0.182772 0.904557
-0.0556279 0.182473 0.911938
-0.0556549 0.183242 0.905727
-0.163926 0.16433 0.890419
-0.162111 0.164525 0.889764
-0.160283 0.164707 0.88901
-0.15849 0.164918 0.888471
-0.156641 0.16507 0.887522
-0.154777 0.165204 0.886446
-0.15286 0.165278 0.884959
-0.151035 0.165439 0.884087
-0.149181 0.165568 0.882989
-0.147393 0.16576 0.882341
-0.145649 0.165995 0.881994
-0.14394 0.166266 0.881902
-0.142189 0.166491 0.881487
-0.140515 0.166798 0.881648
-0.138836 0.1671 0.88177
-0.137198 0.167448 0.882215
-0.135593 0.167837 0.882934
-0.134002 0.168246 0.88379
-0.132391 0.168632 0.884489
-0.130777 0.169019 0.885189
-0.129182 0.16943 0.886055
-0.127571 0.169825 0.886804
-0.125963 0.170227 0.887603
-0.124334 0.170603 0.888225
-0.122734 0.171022 0.889131
-0.121129 0.171437 0.890008
-0.119554 0.171897 0.89119
-0.117905 0.172258 0.891695
-0.116315 0.172705 0.892779
-0.0980505 0.176632 0.897987
-0.0963614 0.176947 0.89818
-0.0946645 0.177248 0.898274
-0.0929001 0.177419 0.897524
-0.0911351 0.177581 0.896724
-0.0892998 0.177595 0.89495
-0.0874872 0.177641 0.893402
-0.0856948 0.177716 0.89204
-0.083951 0.177884 0.891297
-0.0822207 0.178075 0.890701
-0.0805225 0.178333 0.890538
-0.0788257 0.17859 0.890375
-0.0771231 0.178832 0.890113
-0.0754352 0.179106 0.890058
-0.0737686 0.17943 0.890327
-0.0721155 0.179793 0.890843
-0.0704722 0.180184 0.891536
-0.0688394 0.18061 0.892456
-0.0672394 0.18114 0.894027
-0.0656558 0.181732 0.895993
-0.0640759 0.182354 0.898146
-0.0624958 0.182998 0.900429
-0.0609004 0.183616 0.902535
-0.0592864 0.184192 0.904375
-0.0576362 0.18466 0.905525
-0.0559873 0.185146 0.906784
-0.164294 0.166096 0.890699
-0.16251 0.166321 0.890258
-0.160688 0.166507 0.889554
-0.158879 0.166703 0.888918
-0.157042 0.166868 0.888067
-0.155207 0.167031 0.887206
-0.15331 0.167126 0.885876
-0.1515 0.167305 0.885141
-0.149661 0.167449 0.884161
-0.147866 0.167636 0.883484
-0.146086 0.167835 0.882894
-0.144359 0.168088 0.882685
-0.142608 0.168314 0.88228
-0.140933 0.168623 0.882451
-0.139255 0.168928 0.882593
-0.13764 0.169307 0.883243
-0.136051 0.169719 0.884109
-0.134474 0.170148 0.885092
-0.132862 0.170539 0.885811
-0.131245 0.170925 0.886501
-0.129632 0.171319 0.88724
-0.127992 0.171682 0.887764
-0.126369 0.172068 0.888445
-0.124723 0.172425 0.88893
-0.123096 0.17281 0.889602
-0.121403 0.173108 0.889686
-0.119776 0.173497 0.890377
-0.118068 0.173772 0.890314
-0.0968652 0.17905 0.900605
-0.0951445 0.179317 0.900474
-0.0933679 0.179472 0.899626
-0.0915737 0.179584 0.898503
-0.0897068 0.179539 0.896377
-0.0878717 0.179544 0.894574
-0.0860583 0.179578 0.892967
-0.0843023 0.179724 0.892087
-0.0825628 0.179897 0.891383
-0.080863 0.180155 0.89122
-0.0791634 0.180412 0.891057
-0.0774672 0.180672 0.890914
-0.0757789 0.180949 0.890879
-0.07411 0.181275 0.891158
-0.0724507 0.181625 0.891585
-0.0708041 0.182013 0.892259
-0.0691689 0.18244 0.89317
-0.0675689 0.182975 0.89476
-0.0659849 0.183572 0.896735
-0.0644098 0.184217 0.899006
-0.0628339 0.184884 0.901406
-0.0612435 0.185527 0.90365
-0.0596329 0.186125 0.905608
-0.0579848 0.186614 0.906877
-0.0563389 0.187123 0.908264
-0.166481 0.167667 0.891613
-0.164667 0.167868 0.891007
-0.162884 0.168095 0.890586
-0.161038 0.168258 0.889727
-0.159208 0.168432 0.888955
-0.157383 0.168608 0.888192
-0.155563 0.168787 0.887448
-0.153685 0.1689 0.886265
-0.151883 0.169087 0.885589
-0.150071 0.16926 0.884825
-0.148268 0.169439 0.884099
-0.14648 0.169631 0.883471
-0.144763 0.169898 0.883349
-0.143026 0.17014 0.883062
-0.141353 0.170454 0.883263
-0.139685 0.170773 0.883503
-0.138083 0.171171 0.88427
-0.136482 0.171573 0.885058
-0.134909 0.172011 0.886089
-0.133282 0.172387 0.886701
-0.131648 0.172755 0.887264
-0.130006 0.173116 0.887769
-0.128361 0.173475 0.888264
-0.126724 0.173844 0.888827
-0.125062 0.174183 0.889185
-0.123422 0.174553 0.889749
-0.121713 0.174828 0.889686
-0.12006 0.175182 0.890143
-0.118328 0.175423 0.889855
-0.0956567 0.181452 0.903046
-0.093856 0.18157 0.901963
-0.0920288 0.181625 0.900487
-0.0901408 0.181542 0.898135
-0.0882942 0.181529 0.896236
-0.0864527 0.181509 0.894305
-0.0846856 0.181636 0.893308
-0.0829403 0.181802 0.892566
-0.0812346 0.182053 0.892364
-0.0795343 0.182311 0.892211
-0.0778419 0.182588 0.892177
-0.0761584 0.182884 0.89226
-0.0744871 0.183213 0.892549
-0.072819 0.183548 0.892878
-0.0711704 0.183939 0.893562
-0.0695322 0.184366 0.894463
-0.0679305 0.184904 0.896053
-0.0663374 0.185487 0.897919
-0.0647663 0.186155 0.900308
-0.06319 0.186829 0.902728
-0.0616023 0.187495 0.905089
-0.0599972 0.188124 0.907214
-0.058354 0.188641 0.908641
-0.0567015 0.189138 0.909939
-0.165075 0.169675 0.891539
-0.163279 0.169891 0.89105
-0.161411 0.170032 0.890055
-0.15955 0.170176 0.889079
-0.157724 0.17035 0.888316
-0.155919 0.170543 0.88768
-0.154072 0.170689 0.886732
-0.152287 0.170895 0.886193
-0.15049 0.171084 0.885546
-0.148682 0.171259 0.884801
-0.146891 0.171449 0.884164
-0.145161 0.171702 0.883955
-0.143423 0.171945 0.883678
-0.141748 0.172259 0.883879
-0.14009 0.172592 0.884207
-0.138501 0.173009 0.885091
-0.136898 0.173412 0.885879
-0.135327 0.173856 0.88694
-0.133709 0.174246 0.88764
-0.132056 0.174595 0.888066
-0.130382 0.174918 0.888316
-0.128723 0.17526 0.888694
-0.127058 0.175596 0.889033
-0.125359 0.175886 0.889068
-0.123711 0.176246 0.889563
-0.121965 0.176469 0.889158
-0.120246 0.176728 0.888998
-0.118454 0.176879 0.888132
-0.0979021 0.183333 0.905754
-0.0961522 0.183562 0.905389
-0.0943239 0.183634 0.904022
-0.0924658 0.183634 0.902214
-0.0905727 0.183546 0.899854
-0.088713 0.183511 0.897837
-0.0868601 0.183471 0.8958
-0.0850818 0.183579 0.894695
-0.0833226 0.183721 0.893806
-0.0816061 0.183953 0.893487
-0.0798954 0.184192 0.893217
-0.0782005 0.184469 0.893182
-0.0765213 0.184783 0.893374
-0.0748568 0.185133 0.893792
-0.0731911 0.185484 0.89422
-0.0715513 0.185909 0.8951
-0.0699117 0.186341 0.89602
-0.0683007 0.186865 0.897512
-0.0667005 0.187434 0.89927
-0.0651255 0.188101 0.901629
-0.0635411 0.188762 0.90394
-0.0619541 0.18944 0.90635
-0.0603577 0.190113 0.908721
-0.0587184 0.190657 0.910295
-0.0570584 0.19114 0.911495
-0.167271 0.171259 0.89249
-0.165426 0.17143 0.8917
-0.163633 0.171648 0.891232
-0.161752 0.171776 0.890159
-0.159889 0.171918 0.889183
-0.158065 0.172094 0.888441
-0.156287 0.172314 0.888
-0.154469 0.17249 0.887266
-0.152685 0.172698 0.886747
-0.150889 0.172889 0.88612
-0.149079 0.173063 0.885376
-0.147272 0.173235 0.884632
-0.145542 0.17349 0.884433
-0.143821 0.173754 0.884303
-0.14216 0.174086 0.884621
-0.140514 0.174437 0.885056
-0.138934 0.174867 0.886019
-0.137315 0.175255 0.886699
-0.135726 0.175682 0.887633
-0.13409 0.176052 0.888196
-0.132434 0.176399 0.888603
-0.130744 0.176704 0.888736
-0.129084 0.177046 0.889114
-0.127418 0.177383 0.889453
-0.125731 0.177691 0.889606
-0.124062 0.178024 0.889925
-0.122297 0.178223 0.889374
-0.0983627 0.185375 0.907614
-0.0966037 0.185594 0.907181
-0.0947503 0.185621 0.90555
-0.0928728 0.185587 0.903546
-0.0909797 0.185503 0.901237
-0.0891244 0.185481 0.89932
-0.0872674 0.185438 0.897283
-0.0855006 0.185577 0.896386
-0.0837373 0.185716 0.895488
-0.0820103 0.185931 0.895061
-0.0802874 0.186151 0.894673
-0.0785909 0.18643 0.894649
-0.0769086 0.186744 0.894841
-0.0752465 0.187111 0.895358
-0.0735852 0.187482 0.895904
-0.0719431 0.187912 0.896804
-0.0703018 0.188349 0.897744
-0.068681 0.188857 0.899118
-0.0670701 0.189406 0.900737
-0.0654866 0.190058 0.902978
-0.0638986 0.19072 0.905269
-0.0623168 0.191425 0.907816
-0.060724 0.192123 0.910315
-0.059088 0.192691 0.912017
-0.0574235 0.193173 0.913197
-0.167561 0.172956 0.892242
-0.165708 0.173119 0.891404
-0.16391 0.173331 0.890906
-0.16206 0.173489 0.890048
-0.160183 0.173615 0.888976
-0.158358 0.173789 0.888233
-0.15658 0.174009 0.887793
-0.154776 0.174198 0.887157
-0.152994 0.174408 0.886658
-0.151213 0.174615 0.886148
-0.149433 0.174821 0.885629
-0.147652 0.175023 0.885089
-0.145937 0.175297 0.885018
-0.144231 0.175579 0.885005
-0.142583 0.175929 0.88544
-0.140936 0.176282 0.885885
-0.139341 0.176698 0.886741
-0.137704 0.177067 0.887294
-0.136096 0.177473 0.888081
-0.134445 0.177827 0.888537
-0.132775 0.178158 0.888837
-0.131087 0.178466 0.88899
-0.129425 0.178809 0.889367
-0.127761 0.179149 0.889726
-0.126085 0.179474 0.889986
-0.124428 0.179827 0.890423
-0.122691 0.180066 0.890136
-0.0987832 0.187345 0.908972
-0.0970253 0.187572 0.908599
-0.0951749 0.187609 0.907048
-0.0932996 0.187584 0.905113
-0.0914001 0.187491 0.902776
-0.0895322 0.187447 0.900742
-0.0876638 0.187384 0.898599
-0.0858936 0.187522 0.897702
-0.0841356 0.187679 0.896922
-0.0824118 0.187908 0.896594
-0.0806948 0.188149 0.896335
-0.0790018 0.188446 0.896419
-0.0773223 0.188777 0.89671
-0.0756503 0.189129 0.897129
-0.0739869 0.189505 0.897694
-0.0723429 0.189941 0.898625
-0.0707049 0.1904 0.899683
-0.0690698 0.190876 0.90085
-0.0674528 0.191422 0.90243
-0.0658652 0.192073 0.904641
-0.0642703 0.192724 0.906842
-0.0626796 0.193415 0.909281
-0.0610854 0.19412 0.91179
-0.05944 0.194666 0.913344
-0.0577569 0.195091 0.914169
-0.16795 0.174751 0.892636
-0.166073 0.17489 0.891652
-0.164259 0.175087 0.891058
-0.162368 0.175202 0.889928
-0.160472 0.175307 0.888739
-0.158631 0.175464 0.88789
-0.156853 0.175682 0.88745
-0.155064 0.175887 0.886921
-0.153298 0.176113 0.886539
-0.151534 0.176339 0.886156
-0.149769 0.176562 0.885754
-0.148003 0.17678 0.885322
-0.146299 0.177068 0.885348
-0.144607 0.177368 0.885453
-0.142965 0.177727 0.885937
-0.141332 0.178098 0.886499
-0.139719 0.178497 0.887238
-0.138054 0.178832 0.887566
-0.136428 0.179218 0.888217
-0.134788 0.179588 0.88877
-0.133121 0.179924 0.889099
-0.131449 0.180255 0.889399
-0.129825 0.180651 0.890109
-0.128171 0.181009 0.890575
-0.126506 0.181352 0.890953
-0.124869 0.181737 0.891585
-0.123213 0.182096 0.892061
-0.0991443 0.189205 0.909624
-0.0974108 0.189483 0.909564
-0.0955562 0.189515 0.907994
-0.0936778 0.189486 0.906061
-0.0917915 0.189423 0.903931
-0.0899206 0.189376 0.901898
-0.0880425 0.189295 0.899668
-0.0862771 0.189449 0.898879
-0.084524 0.189622 0.898208
-0.0828007 0.189859 0.89792
-0.0810958 0.190136 0.897887
-0.0793998 0.190435 0.897982
-0.077725 0.190787 0.898391
-0.0760631 0.191175 0.899026
-0.0744103 0.191592 0.899828
-0.0727656 0.192037 0.900798
-0.0711355 0.192534 0.902072
-0.0694944 0.193008 0.90321
-0.0678628 0.193522 0.904583
-0.0662594 0.194139 0.906568
-0.0646493 0.194758 0.908553
-0.0630396 0.195397 0.910657
-0.0614255 0.196045 0.9128
-0.0597672 0.196552 0.914108
-0.0580719 0.196936 0.914687
-0.166331 0.176556 0.8912
-0.164497 0.176731 0.89047
-0.162607 0.176845 0.88935
-0.160693 0.176929 0.888035
-0.158849 0.17708 0.887167
-0.157072 0.177299 0.886736
-0.155302 0.177522 0.886335
-0.153569 0.177783 0.886186
-0.151823 0.178028 0.88593
-0.150074 0.178268 0.885645
-0.148321 0.178501 0.885321
-0.146647 0.178824 0.885571
-0.144971 0.179144 0.885802
-0.143357 0.179539 0.886511
-0.141723 0.179913 0.887083
-0.140096 0.180296 0.887714
-0.138412 0.18061 0.887906
-0.136769 0.180977 0.88843
-0.135131 0.181351 0.889003
-0.13348 0.181711 0.889478
-0.131848 0.182096 0.89012
-0.13024 0.182517 0.890976
-0.128608 0.182909 0.891657
-0.12698 0.183308 0.892377
-0.12541 0.183794 0.893635
-0.123858 0.184309 0.895078
-0.0994379 0.190937 0.909471
-0.0977007 0.191208 0.909372
-0.095861 0.191269 0.907999
-0.0939926 0.191259 0.906204
-0.0921253 0.191237 0.90434
-0.0902704 0.191225 0.902543
-0.0884138 0.191192 0.900627
-0.0866538 0.191363 0.899948
-0.0849074 0.191557 0.899405
-0.0831889 0.191813 0.899235
-0.0815134 0.192169 0.899674
-0.079832 0.192513 0.900034
-0.0781629 0.19289 0.90059
-0.0765106 0.193317 0.901442
-0.0748658 0.193772 0.902461
-0.0731962 0.194163 0.903096
-0.0715512 0.194629 0.904175
-0.0698867 0.195047 0.904968
-0.0682327 0.195504 0.905988
-0.0666027 0.196048 0.90752
-0.0649793 0.19663 0.909268
-0.063356 0.197231 0.911125
-0.0617346 0.197857 0.913121
-0.0600674 0.198339 0.914271
-0.0583699 0.198719 0.914821
-0.168399 0.178019 0.891293
-0.166505 0.178136 0.890194
-0.164666 0.178304 0.889435
-0.162791 0.17843 0.888403
-0.160874 0.178508 0.887068
-0.159045 0.178673 0.886298
-0.157288 0.17891 0.885994
-0.155537 0.179153 0.885729
-0.153822 0.179432 0.885697
-0.152106 0.179711 0.885666
-0.150375 0.17997 0.885507
-0.148641 0.180226 0.885329
-0.146984 0.180569 0.885706
-0.145335 0.180923 0.886151
-0.143736 0.181338 0.886977
-0.142116 0.181731 0.887666
-0.140486 0.182113 0.888288
-0.138798 0.182425 0.88846
-0.137153 0.182791 0.888975
-0.135513 0.183166 0.889547
-0.133877 0.183548 0.890159
-0.132261 0.183958 0.890947
-0.130691 0.184435 0.892145
-0.129085 0.184868 0.89307
-0.127496 0.185327 0.894152
-0.125968 0.185881 0.89582
-0.124475 0.186491 0.89783
-0.0998513 0.192903 0.910729
-0.0980465 0.193044 0.909847
-0.0961816 0.193056 0.90819
-0.0943252 0.193071 0.906562
-0.0924674 0.19307 0.904846
-0.0906212 0.193078 0.903187
-0.0887789 0.193079 0.901498
-0.0870251 0.193268 0.900927
-0.0852851 0.193482 0.900512
-0.0835654 0.193741 0.900362
-0.0819197 0.194176 0.901262
-0.0802586 0.194582 0.901986
-0.0786039 0.195009 0.902828
-0.076958 0.195464 0.903836
-0.0753218 0.195956 0.905062
-0.0736129 0.196252 0.905128
-0.071948 0.196673 0.905931
-0.0702529 0.197012 0.906254
-0.0685767 0.197409 0.90691
-0.0669191 0.197873 0.907959
-0.0652802 0.198407 0.909412
-0.0636383 0.198947 0.910895
-0.0620088 0.19955 0.912743
-0.0603375 0.200018 0.913794
-0.0586415 0.2004 0.914354
-0.166651 0.179687 0.889013
-0.164799 0.179838 0.888157
-0.162937 0.179975 0.887213
-0.161003 0.18003 0.885752
-0.159177 0.180195 0.884992
-0.157422 0.180432 0.884698
-0.155708 0.180713 0.884676
-0.154028 0.18103 0.884887
-0.152346 0.181346 0.885089
-0.150631 0.181622 0.885048
-0.148929 0.181913 0.885094
-0.147275 0.182261 0.8855
-0.145644 0.182638 0.886082
-0.144061 0.183073 0.887033
-0.142455 0.183485 0.88783
-0.140825 0.18387 0.888461
-0.139161 0.184213 0.888829
-0.137528 0.184596 0.88945
-0.135901 0.184992 0.89014
-0.134278 0.185393 0.890869
-0.132687 0.185842 0.891881
-0.131131 0.186342 0.893216
-0.129542 0.186803 0.894297
-0.127979 0.187305 0.895632
-0.126482 0.18791 0.897593
-0.12499 0.188531 0.899651
-0.123402 0.18902 0.900891
-0.100302 0.194946 0.912406
-0.0984376 0.194974 0.910859
-0.0965513 0.194945 0.908978
-0.0946926 0.194957 0.907351
-0.0928366 0.194962 0.905684
-0.090981 0.194952 0.903938
-0.0891599 0.195004 0.902564
-0.0874146 0.195217 0.90214
-0.0856735 0.195435 0.901756
-0.0839447 0.195677 0.901508
-0.0823169 0.196166 0.902712
-0.0806562 0.19658 0.903475
-0.0789972 0.197005 0.904298
-0.0773502 0.197469 0.905346
-0.0757034 0.19794 0.906433
-0.0739606 0.198146 0.90598
-0.0722625 0.198479 0.906263
-0.0705449 0.198751 0.906192
-0.0688398 0.199062 0.906347
-0.0671674 0.199477 0.907101
-0.0655149 0.199965 0.908279
-0.0638612 0.200461 0.909496
-0.0622239 0.201031 0.911136
-0.0605568 0.201504 0.912216
-0.0588581 0.201871 0.912687
-0.166717 0.181153 0.887319
-0.164873 0.181308 0.886501
-0.163013 0.181443 0.885557
-0.161099 0.181515 0.884223
-0.159292 0.181697 0.88358
-0.157556 0.181951 0.883402
-0.155863 0.182253 0.883516
-0.154218 0.182607 0.883961
-0.15257 0.18296 0.884396
-0.150871 0.183255 0.884471
-0.149201 0.183583 0.884751
-0.147562 0.183949 0.885264
-0.145947 0.184345 0.885963
-0.144376 0.184798 0.887012
-0.142774 0.185216 0.887847
-0.141161 0.185623 0.888604
-0.139514 0.18599 0.889119
-0.137883 0.186378 0.889759
-0.136256 0.186776 0.890459
-0.13467 0.18723 0.8915
-0.133092 0.187699 0.892629
-0.131563 0.188242 0.894207
-0.13 0.188744 0.895532
-0.128462 0.189289 0.897111
-0.12696 0.189892 0.899042
-0.125455 0.190502 0.901003
-0.123844 0.190962 0.902057
-0.121857 0.18958 0.90256
-0.122257 0.191463 0.903355
-0.102619 0.196949 0.91551
-0.100759 0.197005 0.914141
-0.0988535 0.196956 0.912154
-0.0969324 0.196859 0.909892
-0.0950486 0.196822 0.907992
-0.0931809 0.196802 0.906199
-0.0913224 0.196788 0.904444
-0.0895081 0.196858 0.903188
-0.0877545 0.197055 0.902677
-0.0860046 0.197256 0.902194
-0.0842501 0.197438 0.901604
-0.082633 0.197958 0.902975
-0.0809791 0.198392 0.903845
-0.0793219 0.198826 0.904716
-0.0776903 0.199334 0.90601
-0.0760323 0.199781 0.90695
-0.0742484 0.199874 0.905849
-0.0725194 0.200116 0.905602
-0.0707841 0.200334 0.905226
-0.0690512 0.200552 0.904851
-0.0673666 0.200923 0.905349
-0.0657029 0.201366 0.906261
-0.0640398 0.201818 0.907222
-0.0623964 0.202353 0.908655
-0.0607331 0.202831 0.909754
-0.0590397 0.203203 0.910254
-0.166518 0.182342 0.883916
-0.164731 0.182549 0.883438
-0.162974 0.182785 0.883144
-0.161128 0.182925 0.882248
-0.159357 0.18314 0.881828
-0.157642 0.183414 0.881777
-0.155982 0.18375 0.882104
-0.154356 0.184124 0.882675
-0.152729 0.1845 0.883246
-0.151049 0.184815 0.883448
-0.149421 0.185192 0.884029
-0.147799 0.185577 0.884659
-0.146216 0.186012 0.885591
-0.144676 0.186504 0.886873
-0.143102 0.186959 0.887922
-0.141504 0.187387 0.888806
-0.139875 0.187779 0.889466
-0.138246 0.188173 0.890136
-0.136633 0.188591 0.890953
-0.135059 0.189065 0.892101
-0.133496 0.189558 0.893366
-0.131994 0.190144 0.895188
-0.130457 0.190688 0.896747
-0.128928 0.191251 0.898423
-0.127414 0.191845 0.900276
-0.125883 0.192422 0.902022
-0.124247 0.192848 0.902861
-0.122622 0.193297 0.903827
-0.104508 0.196939 0.917163
-0.104866 0.198803 0.917681
-0.102981 0.198823 0.916108
-0.101125 0.198889 0.914808
-0.0992038 0.19881 0.912665
-0.0972825 0.198712 0.910424
-0.0954079 0.198696 0.908662
-0.093526 0.198648 0.906723
-0.091655 0.198607 0.904831
-0.0898384 0.198673 0.903567
-0.0880643 0.198824 0.902801
-0.0862979 0.198987 0.902103
-0.0845234 0.199122 0.901248
-0.0828811 0.199579 0.902246
-0.0812173 0.199987 0.90296
-0.0795521 0.200398 0.903693
-0.0779083 0.200871 0.90478
-0.0762373 0.201277 0.905475
-0.0744448 0.201338 0.904207
-0.072694 0.201508 0.903557
-0.0709491 0.201687 0.902965
-0.0692116 0.201881 0.902462
-0.067528 0.202241 0.902901
-0.0658609 0.202662 0.903685
-0.0642005 0.203111 0.904625
-0.0625545 0.203623 0.90592
-0.06089 0.20408 0.9069
-0.0592007 0.204449 0.907379
-0.166384 0.18359 0.880942
-0.164635 0.183831 0.880687
-0.162906 0.184091 0.880549
-0.16112 0.184289 0.880031
-0.159371 0.184523 0.879737
-0.157689 0.184831 0.8799
-0.156064 0.185203 0.88045
-0.154473 0.185615 0.881245
-0.152879 0.186027 0.882039
-0.15125 0.186399 0.88259
-0.149642 0.186799 0.883307
-0.148021 0.187187 0.883947
-0.146453 0.18764 0.884985
-0.144915 0.188136 0.886277
-0.143359 0.188613 0.887452
-0.141793 0.189083 0.888579
-0.14019 0.18951 0.889444
-0.138578 0.189927 0.89025
-0.13699 0.19038 0.891271
-0.135431 0.190878 0.892555
-0.133896 0.191414 0.894064
-0.132426 0.192049 0.896158
-0.130901 0.192617 0.897843
-0.129357 0.193164 0.899403
-0.127811 0.193716 0.900992
-0.126237 0.194234 0.902367
-0.124572 0.194619 0.902952
-0.122923 0.195032 0.903703
-0.105223 0.20067 0.918199
-0.103338 0.200691 0.916646
-0.101483 0.200758 0.915366
-0.0995567 0.20067 0.913196
-0.0976292 0.20056 0.910906
-0.0957455 0.200525 0.909057
-0.0938418 0.200431 0.906874
-0.0919513 0.200346 0.904748
-0.0901141 0.200365 0.903229
-0.0883203 0.200469 0.902199
-0.0865337 0.20058 0.901218
-0.0847413 0.200667 0.900099
-0.0830607 0.201025 0.900528
-0.0813719 0.201364 0.900849
-0.0796938 0.201731 0.901327
-0.0780368 0.20216 0.902158
-0.0763562 0.202528 0.902636
-0.0745823 0.20263 0.901614
-0.0728406 0.202814 0.901062
-0.0711066 0.203016 0.900608
-0.0693815 0.203236 0.900262
-0.0677023 0.203601 0.90073
-0.0660335 0.204003 0.901404
-0.0643631 0.204407 0.902089
-0.0627032 0.204854 0.903009
-0.061031 0.205266 0.903734
-0.0593393 0.205609 0.904075
-0.165977 0.184543 0.876224
-0.16435 0.184905 0.876716
-0.162699 0.185241 0.877052
-0.161005 0.185531 0.877107
-0.159314 0.185824 0.877182
-0.157689 0.186191 0.877703
-0.156112 0.186614 0.878564
-0.15457 0.187079 0.879678
-0.152999 0.187516 0.880618
-0.151404 0.187927 0.881403
-0.149817 0.188352 0.882265
-0.148229 0.188777 0.883128
-0.146664 0.189235 0.884185
-0.145142 0.18975 0.885583
-0.143601 0.190249 0.886875
-0.142051 0.19074 0.888119
-0.140463 0.191187 0.8891
-0.138863 0.191622 0.890003
-0.13729 0.192096 0.891141
-0.13576 0.192636 0.892658
-0.134269 0.193237 0.894537
-0.132803 0.193881 0.896669
-0.131293 0.194475 0.898491
-0.129745 0.195021 0.90003
-0.128172 0.195537 0.901385
-0.126569 0.196015 0.902516
-0.124911 0.196412 0.903169
-0.123288 0.196868 0.904164
-0.0998489 0.202408 0.913011
-0.0979339 0.202323 0.910889
-0.0960487 0.202283 0.909031
-0.0941447 0.202187 0.906858
-0.0922435 0.202077 0.904616
-0.0903869 0.202049 0.902843
-0.0885715 0.202102 0.90154
-0.086765 0.202163 0.900284
-0.0849648 0.202227 0.899048
-0.0832461 0.202484 0.898909
-0.0815333 0.202755 0.898847
-0.0798219 0.203026 0.898786
-0.0781454 0.203391 0.899254
-0.0764432 0.203687 0.89933
-0.0746905 0.203833 0.898572
-0.0729531 0.204013 0.898009
-0.0712383 0.204259 0.89781
-0.0695303 0.20452 0.897699
-0.0678613 0.204906 0.898285
-0.0661906 0.205289 0.898851
-0.0645217 0.205686 0.899495
-0.062847 0.206065 0.900042
-0.0611702 0.206445 0.900589
-0.0594829 0.206786 0.90092
-0.0578907 0.206942 0.90992
-0.0578046 0.207163 0.901447
-0.165639 0.185557 0.871964
-0.164086 0.18599 0.872892
-0.162486 0.186375 0.873529
-0.160868 0.186741 0.874049
-0.159251 0.187111 0.874589
-0.157682 0.187537 0.875469
-0.15613 0.187985 0.876475
-0.154625 0.188492 0.877832
-0.153089 0.188967 0.878994
-0.151545 0.189437 0.880128
-0.149979 0.189886 0.881126
-0.148438 0.190367 0.882319
-0.146886 0.190842 0.883463
-0.145366 0.191361 0.884871
-0.143827 0.191862 0.886172
-0.142292 0.192373 0.887522
-0.140707 0.192825 0.888522
-0.139135 0.193297 0.889639
-0.137605 0.193833 0.891127
-0.136104 0.194414 0.892878
-0.134644 0.195063 0.895019
-0.133192 0.195733 0.897277
-0.131682 0.196331 0.899108
-0.130106 0.19684 0.900413
-0.128505 0.197317 0.901534
-0.126887 0.197774 0.902528
-0.12523 0.198175 0.903201
-0.124062 0.199353 0.908369
-0.100051 0.203958 0.911761
-0.0981663 0.203932 0.909992
-0.096303 0.203937 0.908408
-0.0944102 0.203861 0.906373
-0.0924989 0.203724 0.904005
-0.0906145 0.20363 0.90188
-0.0887665 0.203602 0.900136
-0.0869436 0.203617 0.898637
-0.0851441 0.203676 0.897391
-0.083397 0.203853 0.89681
-0.0816709 0.204081 0.896514
-0.0799578 0.204337 0.896374
-0.0782672 0.204652 0.896567
-0.0765612 0.204926 0.896524
-0.0748349 0.205137 0.896139
-0.0731234 0.205384 0.895959
-0.0714264 0.205675 0.896015
-0.0697348 0.205977 0.896139
-0.06806 0.206339 0.896586
-0.0663848 0.206699 0.897024
-0.0647067 0.207053 0.897433
-0.0630217 0.207386 0.897724
-0.0613429 0.207743 0.898143
-0.0596643 0.208103 0.898581
-0.0579956 0.208507 0.899255
-0.056361 0.208541 0.907477
-0.0563235 0.208909 0.89992
-0.180829 0.182941 0.871376
-0.18254 0.182671 0.871437
-0.182749 0.184268 0.870739
-0.180995 0.184497 0.870426
-0.179204 0.184689 0.869891
-0.171667 0.18367 0.867278
-0.173602 0.185014 0.86679
-0.171761 0.18514 0.865865
-0.170036 0.18538 0.865637
-0.166907 0.186194 0.867189
-0.165415 0.186683 0.868454
-0.163872 0.187121 0.86941
-0.162291 0.187521 0.870133
-0.160745 0.187961 0.871099
-0.159189 0.188394 0.872017
-0.157664 0.188866 0.873168
-0.156164 0.18937 0.874504
-0.154694 0.189916 0.876083
-0.153177 0.190412 0.877361
-0.151671 0.190927 0.878747
-0.150137 0.191412 0.879958
-0.148629 0.191935 0.881384
-0.147094 0.192431 0.882645
-0.145575 0.192951 0.884052
-0.144048 0.193468 0.88543
-0.142514 0.193982 0.886789
-0.140935 0.19444 0.887818
-0.139379 0.194935 0.889062
-0.137882 0.195517 0.890802
-0.136397 0.196124 0.892688
-0.134968 0.196818 0.895072
-0.133529 0.197512 0.897447
-0.13203 0.198128 0.899365
-0.13045 0.198636 0.90065
-0.128834 0.199093 0.901644
-0.127201 0.199529 0.902511
-0.125911 0.200506 0.906487
-0.125178 0.202394 0.91567
-0.098359 0.205456 0.908635
-0.096537 0.205544 0.907531
-0.0946583 0.205496 0.905673
-0.0927447 0.20535 0.903276
-0.0908419 0.205209 0.900917
-0.0889859 0.205157 0.899057
-0.0871566 0.20515 0.897459
-0.0853665 0.205228 0.896331
-0.0835906 0.205328 0.89533
-0.0818499 0.20551 0.894789
-0.0801125 0.205696 0.894267
-0.0783939 0.205925 0.893989
-0.0766843 0.206174 0.893819
-0.0749828 0.206444 0.893766
-0.0732825 0.206716 0.893724
-0.0715962 0.207029 0.893906
-0.0699231 0.207385 0.894324
-0.0682521 0.207746 0.894771
-0.0665785 0.208106 0.895209
-0.0649014 0.208456 0.895598
-0.0632201 0.208789 0.895889
-0.0615429 0.209144 0.896297
-0.0598725 0.209528 0.896863
-0.0582169 0.209978 0.897782
-0.0565608 0.210429 0.898711
-0.185835 0.186696 0.876758
-0.1829 0.185811 0.869713
-0.181114 0.186006 0.869206
-0.179302 0.186174 0.868535
-0.177372 0.184837 0.869093
-0.177458 0.186307 0.86766
-0.175499 0.18494 0.868024
-0.175594 0.186416 0.86664
-0.173707 0.186496 0.865454
-0.171883 0.186635 0.864627
-0.170154 0.186868 0.864361
-0.168452 0.185765 0.866282
-0.168495 0.187173 0.86453
-0.166871 0.187517 0.864923
-0.165321 0.18794 0.86579
-0.163742 0.188335 0.866483
-0.162157 0.188724 0.867148
-0.160619 0.18917 0.868142
-0.159101 0.189641 0.869282
-0.157614 0.190152 0.870655
-0.156165 0.190714 0.87232
-0.154747 0.191318 0.874228
-0.153279 0.191871 0.875836
-0.151807 0.192426 0.877445
-0.150307 0.192953 0.878888
-0.148819 0.193501 0.880449
-0.147286 0.193998 0.88171
-0.145768 0.19452 0.883116
-0.144241 0.195037 0.884484
-0.142708 0.195551 0.885833
-0.141143 0.196029 0.886969
-0.139607 0.196551 0.888357
-0.138141 0.197177 0.89034
-0.13669 0.197833 0.892489
-0.135301 0.198589 0.895202
-0.133876 0.199307 0.897693
-0.132388 0.199943 0.899708
-0.130806 0.200451 0.900984
-0.129187 0.200906 0.901958
-0.127875 0.201843 0.905669
-0.126968 0.203439 0.913122
-0.100374 0.206887 0.908354
-0.0985619 0.207001 0.907406
-0.096734 0.20707 0.906214
-0.0948593 0.207025 0.904396
-0.0929532 0.20689 0.902088
-0.091051 0.206743 0.89972
-0.0891952 0.206685 0.89785
-0.087375 0.206697 0.896371
-0.0855937 0.206792 0.895351
-0.0838188 0.206892 0.89436
-0.0820717 0.207053 0.893711
-0.0803199 0.207194 0.892954
-0.0785872 0.207378 0.892431
-0.0768698 0.2076 0.892124
-0.075164 0.20785 0.891964
-0.073467 0.208122 0.89193
-0.0717838 0.208437 0.892122
-0.0701135 0.208792 0.89254
-0.0684375 0.209132 0.892869
-0.066761 0.209472 0.893199
-0.065089 0.209828 0.893617
-0.0634158 0.210182 0.894025
-0.0617474 0.21056 0.89456
-0.0600907 0.210988 0.895361
-0.058443 0.211463 0.896407
-0.0567938 0.211939 0.897464
-0.0551367 0.211935 0.905318
-0.0551399 0.212412 0.898501
-0.184729 0.187051 0.868564
-0.182957 0.18726 0.868145
-0.181153 0.187435 0.867523
-0.179351 0.187609 0.8669
-0.177516 0.187746 0.866064
-0.175683 0.187881 0.865218
-0.173815 0.187977 0.864139
-0.172002 0.188124 0.86337
-0.170267 0.188349 0.863065
-0.168566 0.188609 0.862963
-0.166921 0.188925 0.8632
-0.165317 0.189288 0.863709
-0.163696 0.189633 0.864111
-0.162078 0.189984 0.864542
-0.16056 0.190447 0.865632
-0.159063 0.190939 0.866888
-0.15758 0.191451 0.868261
-0.156165 0.19205 0.870128
-0.154793 0.192708 0.872336
-0.153366 0.193308 0.874205
-0.151931 0.193907 0.876056
-0.15048 0.194494 0.877838
-0.149006 0.195059 0.879486
-0.147463 0.195544 0.880668
-0.145932 0.19605 0.881967
-0.144406 0.196567 0.883325
-0.142872 0.197079 0.884654
-0.141322 0.197577 0.885896
-0.139831 0.198161 0.887624
-0.138421 0.198867 0.890044
-0.137015 0.199589 0.892552
-0.135658 0.200395 0.895527
-0.134249 0.201141 0.898154
-0.132761 0.201782 0.900178
-0.131166 0.202273 0.901346
-0.129534 0.202713 0.902223
-0.128554 0.204173 0.908854
-0.0987366 0.208482 0.905846
-0.0969184 0.208566 0.904752
-0.0950652 0.208562 0.903178
-0.0931602 0.208425 0.900881
-0.091258 0.208271 0.898504
-0.0894109 0.208229 0.896742
-0.0876007 0.20826 0.895381
-0.0858221 0.208358 0.89439
-0.0840563 0.208477 0.893517
-0.082301 0.208613 0.892741
-0.0805423 0.208731 0.891866
-0.0787938 0.208868 0.8911
-0.0770709 0.209067 0.890675
-0.0753601 0.209296 0.890406
-0.0736578 0.209548 0.890265
-0.0719708 0.209841 0.89035
-0.0703014 0.210193 0.890747
-0.0686292 0.210535 0.891086
-0.0669571 0.21088 0.891444
-0.0652938 0.211259 0.891989
-0.063628 0.211636 0.892515
-0.0619687 0.212038 0.893178
-0.0603249 0.21251 0.894203
-0.0586842 0.213009 0.895377
-0.057046 0.213531 0.896669
-0.0554084 0.214072 0.898059
-0.0534826 0.212885 0.899529
-0.053766 0.214611 0.89943
-0.0520691 0.214551 0.906912
-0.0521351 0.215227 0.901204
-0.187879 0.189546 0.874867
-0.184807 0.188521 0.867133
-0.183 0.188692 0.866501
-0.181139 0.188808 0.86554
-0.17932 0.18896 0.864801
-0.177471 0.189079 0.863869
-0.175662 0.189233 0.863149
-0.173837 0.189367 0.862312
-0.172064 0.189552 0.861775
-0.170334 0.189779 0.861489
-0.16865 0.190053 0.861474
-0.167003 0.190366 0.861692
-0.165385 0.190711 0.862093
-0.163764 0.191054 0.862485
-0.162164 0.191421 0.863013
-0.160614 0.191847 0.86388
-0.159099 0.192316 0.864999
-0.157584 0.19279 0.866139
-0.156174 0.193393 0.868015
-0.15481 0.194058 0.870251
-0.153424 0.194707 0.872381
-0.152026 0.19535 0.874473
-0.150624 0.195998 0.876585
-0.149153 0.196567 0.878242
-0.147624 0.197068 0.879511
-0.146091 0.197571 0.88078
-0.144566 0.198089 0.882137
-0.143049 0.198624 0.883582
-0.14153 0.199163 0.885047
-0.14007 0.19979 0.887008
-0.13872 0.200582 0.889893
-0.137347 0.201355 0.892663
-0.135995 0.202174 0.895686
-0.134588 0.202926 0.898322
-0.133099 0.20357 0.900345
-0.131492 0.204046 0.901416
-0.130185 0.20499 0.905105
-0.0988942 0.209923 0.904091
-0.0970904 0.210033 0.903153
-0.095248 0.210046 0.901688
-0.0933561 0.209931 0.899537
-0.0914645 0.209796 0.897288
-0.0896293 0.209776 0.895664
-0.0878279 0.209826 0.89442
-0.0860525 0.209927 0.893459
-0.0842956 0.210066 0.892704
-0.0825402 0.210199 0.891918
-0.0807806 0.210311 0.891024
-0.0790242 0.210422 0.890131
-0.077303 0.210622 0.889716
-0.075592 0.210848 0.889438
-0.0738854 0.211081 0.889199
-0.0721918 0.21135 0.889155
-0.0705116 0.21166 0.889327
-0.0688325 0.211975 0.889529
-0.0671608 0.212316 0.889867
-0.0655067 0.21272 0.890539
-0.0638501 0.213123 0.891202
-0.0621988 0.21355 0.891992
-0.0605622 0.214043 0.893125
-0.0589277 0.214564 0.894406
-0.0572967 0.215112 0.895824
-0.0556662 0.21568 0.897342
-0.0540334 0.216267 0.898958
-0.052411 0.216923 0.900927
-0.189828 0.190899 0.874334
-0.186755 0.189876 0.866682
-0.184868 0.18997 0.865606
-0.183042 0.19012 0.864858
-0.181165 0.190215 0.863791
-0.179331 0.190349 0.862956
-0.177503 0.190483 0.862129
-0.175715 0.190656 0.861525
-0.173897 0.190793 0.860718
-0.172167 0.191019 0.860432
-0.170461 0.191269 0.860282
-0.168793 0.191558 0.860364
-0.167146 0.19187 0.860571
-0.165528 0.192213 0.860963
-0.163892 0.192538 0.861248
-0.16229 0.192902 0.861756
-0.160708 0.193289 0.8624
-0.159161 0.19372 0.863286
-0.157614 0.194154 0.864192
-0.156216 0.194769 0.866126
-0.154873 0.19546 0.868487
-0.153526 0.196155 0.870868
-0.152168 0.196847 0.873221
-0.150811 0.197553 0.875643
-0.149325 0.198103 0.877183
-0.14778 0.198584 0.878325
-0.146247 0.199085 0.879574
-0.144722 0.199603 0.880921
-0.143225 0.200164 0.882502
-0.141741 0.200751 0.884228
-0.140314 0.201425 0.886431
-0.138986 0.202251 0.889481
-0.137618 0.203035 0.892288
-0.136268 0.203859 0.89531
-0.134857 0.20461 0.897916
-0.133366 0.205254 0.899919
-0.131759 0.205729 0.90098
-0.130813 0.20724 0.90778
-0.098997 0.211241 0.901703
-0.0972112 0.211382 0.900941
-0.0954026 0.211464 0.899866
-0.0935422 0.211414 0.898087
-0.0916732 0.211324 0.896103
-0.0898555 0.211343 0.894704
-0.0880745 0.211437 0.893714
-0.0863007 0.21154 0.892773
-0.0845526 0.211699 0.892135
-0.0827959 0.211828 0.89134
-0.0810293 0.211918 0.890339
-0.0792659 0.212008 0.889338
-0.0775445 0.212205 0.888914
-0.0758214 0.212391 0.88843
-0.0741077 0.212599 0.888064
-0.072407 0.212841 0.887884
-0.0707199 0.213123 0.887909
-0.0690356 0.213413 0.887982
-0.0673723 0.213775 0.888429
-0.0657265 0.214202 0.889218
-0.0640775 0.214628 0.889997
-0.0624324 0.215074 0.890885
-0.0608064 0.215608 0.892224
-0.05918 0.216155 0.893631
-0.0575501 0.216709 0.895069
-0.055921 0.217278 0.896586
-0.0542941 0.217887 0.898299
-0.0526646 0.218506 0.900062
-0.190574 0.191115 0.867179
-0.188733 0.191259 0.866394
-0.186843 0.191352 0.865319
-0.184919 0.191407 0.864031
-0.183057 0.191517 0.863061
-0.181183 0.191611 0.862004
-0.179368 0.191759 0.861265
-0.17756 0.19191 0.860545
-0.175794 0.192101 0.860057
-0.174015 0.192276 0.859482
-0.172307 0.192524 0.859322
-0.170604 0.192774 0.859182
-0.168924 0.193048 0.859176
-0.167277 0.193357 0.859374
-0.165644 0.193684 0.859669
-0.16401 0.194008 0.859954
-0.162396 0.194355 0.860365
-0.160796 0.194721 0.860882
-0.159231 0.195128 0.861633
-0.157663 0.195536 0.862383
-0.156236 0.196116 0.864102
-0.154911 0.196827 0.866559
-0.153597 0.197562 0.869143
-0.152273 0.198297 0.871718
-0.150953 0.199049 0.874381
-0.149485 0.199622 0.876037
-0.147938 0.200099 0.877149
-0.146402 0.200596 0.878369
-0.144895 0.201137 0.879832
-0.143418 0.201726 0.881557
-0.141984 0.202382 0.883652
-0.140604 0.203126 0.886223
-0.139308 0.204 0.889515
-0.137938 0.204785 0.892302
-0.136582 0.205607 0.895284
-0.135154 0.206336 0.897743
-0.133645 0.206955 0.89959
-0.132025 0.207412 0.900544
-0.131398 0.20943 0.910064
-0.0994532 0.213332 0.903473
-0.0973438 0.212756 0.898896
-0.0955671 0.212901 0.898172
-0.0937307 0.212898 0.896667
-0.0918906 0.212873 0.895045
-0.0901015 0.212955 0.893997
-0.0883292 0.21307 0.893126
-0.0865566 0.213172 0.892195
-0.0848161 0.213351 0.891664
-0.0830538 0.213461 0.890782
-0.0812856 0.213547 0.889772
-0.0795305 0.213657 0.888888
-0.0778082 0.213851 0.888454
-0.0760783 0.214015 0.887863
-0.0743639 0.214218 0.887478
-0.0726561 0.214436 0.88717
-0.0709557 0.214672 0.88696
-0.0692652 0.214938 0.886907
-0.0676027 0.215298 0.887343
-0.0659577 0.215726 0.888132
-0.0643121 0.216158 0.88894
-0.0626732 0.216626 0.889935
-0.0610544 0.217184 0.891391
-0.0594293 0.217733 0.892798
-0.0578007 0.218289 0.894235
-0.056172 0.218861 0.895752
-0.0545451 0.219466 0.897435
-0.052908 0.220041 0.898962
-0.192361 0.190917 0.867645
-0.194251 0.192216 0.866855
-0.19252 0.192467 0.866698
-0.190743 0.192673 0.86628
-0.188879 0.192792 0.86537
-0.186966 0.19286 0.86416
-0.185026 0.192896 0.862776
-0.183143 0.192981 0.861681
-0.181273 0.193074 0.860633
-0.179479 0.193241 0.860011
-0.177677 0.193395 0.85932
-0.17593 0.193603 0.858938
-0.174168 0.193794 0.85846
-0.17246 0.194039 0.85829
-0.170758 0.194289 0.85815
-0.169095 0.194579 0.858241
-0.16745 0.19489 0.858448
-0.165819 0.195216 0.858743
-0.164187 0.195543 0.859038
-0.162558 0.195873 0.859351
-0.160944 0.19622 0.859762
-0.159361 0.196606 0.860386
-0.157778 0.196993 0.86102
-0.15632 0.197535 0.862516
-0.154994 0.198244 0.864943
-0.153682 0.198983 0.867526
-0.152376 0.199741 0.870206
-0.151076 0.200519 0.872994
-0.149643 0.201137 0.874881
-0.1481 0.201619 0.876013
-0.146579 0.202134 0.877329
-0.145085 0.202693 0.878879
-0.143628 0.203309 0.880739
-0.142229 0.204016 0.883095
-0.140895 0.204827 0.886015
-0.139626 0.205746 0.889519
-0.138254 0.206532 0.892286
-0.136879 0.207328 0.895102
-0.135418 0.208011 0.897288
-0.134202 0.20908 0.901574
-0.132874 0.209999 0.905035
-0.0999743 0.215567 0.905973
-0.0975362 0.214258 0.897564
-0.0957691 0.21442 0.896938
-0.0939357 0.21442 0.895463
-0.0921175 0.214442 0.894104
-0.0903468 0.214566 0.893292
-0.0885765 0.214683 0.89244
-0.0868112 0.214802 0.891607
-0.0850778 0.214998 0.891174
-0.0833231 0.215127 0.8904
-0.0815713 0.215256 0.889624
-0.0798246 0.215388 0.888868
-0.0781018 0.215584 0.888444
-0.0763701 0.215743 0.887834
-0.07464 0.2159 0.887214
-0.0729175 0.216071 0.886672
-0.0712169 0.216307 0.886462
-0.0695274 0.216574 0.886419
-0.0678652 0.216936 0.886864
-0.0662217 0.217367 0.887663
-0.0645769 0.2178 0.888471
-0.0629391 0.218271 0.889475
-0.0613205 0.218831 0.890931
-0.0596966 0.219386 0.892357
-0.0580739 0.219967 0.893912
-0.0564441 0.220535 0.895398
-0.0548131 0.22112 0.896963
-0.05317 0.221666 0.898333
-0.051275 0.220667 0.900744
-0.0515294 0.222248 0.899879
-0.194443 0.193797 0.866091
-0.192691 0.194027 0.865818
-0.190897 0.194215 0.865304
-0.189022 0.194321 0.864327
-0.18709 0.194367 0.863011
-0.185148 0.194396 0.861608
-0.183269 0.194483 0.860533
-0.181417 0.194591 0.859582
-0.179628 0.194759 0.858979
-0.177848 0.194934 0.858414
-0.176101 0.195141 0.858032
-0.174341 0.19533 0.857554
-0.172629 0.195569 0.857356
-0.170926 0.195816 0.857205
-0.169246 0.196087 0.85719
-0.167586 0.196379 0.857291
-0.165954 0.196704 0.857576
-0.164324 0.19703 0.85787
-0.162697 0.19736 0.858184
-0.161087 0.197711 0.858614
-0.159517 0.198111 0.859315
-0.157952 0.19852 0.860064
-0.156482 0.199046 0.861463
-0.155142 0.19974 0.863782
-0.153825 0.200474 0.866316
-0.152521 0.201235 0.868995
-0.151214 0.202006 0.871714
-0.149801 0.202648 0.873727
-0.14829 0.203172 0.875081
-0.1468 0.203731 0.87662
-0.145326 0.204316 0.878304
-0.143911 0.204994 0.880484
-0.142556 0.205765 0.88317
-0.141241 0.206607 0.886234
-0.139972 0.207532 0.889737
-0.138582 0.208297 0.892367
-0.137165 0.209036 0.894843
-0.135664 0.20966 0.896698
-0.134445 0.210729 0.900943
-0.133412 0.212111 0.906871
-0.100137 0.217016 0.904297
-0.097736 0.215777 0.89633
-0.0959727 0.215942 0.895733
-0.0941593 0.215984 0.894493
-0.09236 0.216048 0.893369
-0.0905919 0.216176 0.892586
-0.0888232 0.216293 0.891744
-0.087064 0.216427 0.891
-0.085332 0.216622 0.890567
-0.0835925 0.216793 0.890017
-0.0818654 0.21699 0.889604
-0.080135 0.21717 0.889102
-0.0784129 0.217368 0.888698
-0.0766778 0.217521 0.888059
-0.0749377 0.21765 0.887303
-0.0732083 0.217799 0.886653
-0.0715013 0.218017 0.886356
-0.0698125 0.218288 0.886332
-0.0681565 0.218671 0.886885
-0.0665119 0.219103 0.887683
-0.0648657 0.219536 0.888482
-0.0632342 0.220032 0.889603
-0.0616155 0.220596 0.891068
-0.059986 0.221132 0.892387
-0.0583618 0.221711 0.893921
-0.0567277 0.222262 0.895309
-0.055088 0.222806 0.896658
-0.0534402 0.223329 0.8979
-0.0517944 0.223887 0.899309
-0.196374 0.195135 0.865533
-0.194631 0.195373 0.865308
-0.192832 0.195557 0.864775
-0.191019 0.195724 0.864155
-0.189123 0.195805 0.863053
-0.187178 0.195835 0.86166
-0.185255 0.195879 0.860354
-0.183396 0.195982 0.859385
-0.181582 0.196127 0.858657
-0.179799 0.196299 0.858083
-0.178038 0.196491 0.857624
-0.176276 0.19668 0.857146
-0.174493 0.196844 0.856533
-0.172751 0.197047 0.856141
-0.17103 0.197273 0.855875
-0.169335 0.197524 0.855753
-0.167673 0.197812 0.855834
-0.166057 0.198152 0.856206
-0.164446 0.198497 0.856606
-0.162821 0.198829 0.85693
-0.161228 0.199197 0.857456
-0.159678 0.199621 0.858283
-0.158117 0.200032 0.859042
-0.156636 0.200546 0.860362
-0.155312 0.201261 0.862777
-0.153995 0.201995 0.86529
-0.15269 0.202757 0.867949
-0.151396 0.203546 0.870745
-0.150016 0.204234 0.872989
-0.148526 0.204787 0.874488
-0.14707 0.205392 0.876269
-0.145626 0.206021 0.878176
-0.144229 0.206725 0.880481
-0.14289 0.207524 0.883292
-0.141589 0.208391 0.886462
-0.140308 0.209305 0.889877
-0.138894 0.210039 0.892312
-0.137461 0.210757 0.894661
-0.135944 0.21136 0.896379
-0.134717 0.212421 0.900546
-0.134007 0.21432 0.909181
-0.100316 0.218499 0.902818
-0.0979689 0.217367 0.895487
-0.0961976 0.217513 0.894793
-0.0943927 0.217571 0.89365
-0.0926039 0.217655 0.892644
-0.0908456 0.217806 0.891988
-0.0890767 0.21792 0.891147
-0.0873261 0.218074 0.89051
-0.085593 0.218266 0.890068
-0.083857 0.218443 0.889557
-0.0821481 0.218691 0.889407
-0.0804344 0.218921 0.88917
-0.0787206 0.219146 0.888903
-0.0769903 0.219314 0.888352
-0.0752541 0.219457 0.887674
-0.0735149 0.219582 0.886908
-0.0718083 0.219801 0.886621
-0.0701246 0.220095 0.886714
-0.0684685 0.220481 0.887277
-0.0668224 0.220913 0.888066
-0.0651742 0.221344 0.888854
-0.0635467 0.221861 0.890074
-0.061922 0.222409 0.89144
-0.0602924 0.222945 0.892749
-0.0586661 0.223525 0.894273
-0.0570313 0.224078 0.89566
-0.0553863 0.224604 0.896911
-0.0537337 0.225112 0.898065
-0.05209 0.225687 0.899552
-0.197196 0.19731 0.868122
-0.194841 0.19697 0.864651
-0.192988 0.197099 0.86382
-0.191158 0.197248 0.863104
-0.189243 0.197308 0.861895
-0.187298 0.197333 0.860494
-0.185364 0.197361 0.85912
-0.183524 0.197481 0.858257
-0.181734 0.197647 0.857655
-0.179972 0.197839 0.857197
-0.178213 0.198032 0.856748
-0.176449 0.198215 0.856251
-0.174663 0.198374 0.855618
-0.172885 0.198536 0.855004
-0.171151 0.198745 0.854651
-0.16944 0.198976 0.854423
-0.167777 0.19926 0.854485
-0.166161 0.199598 0.854847
-0.164568 0.199963 0.855353
-0.162968 0.200321 0.855821
-0.161392 0.20071 0.856454
-0.159875 0.201171 0.857483
-0.158346 0.201622 0.858454
-0.156856 0.202126 0.859707
-0.155535 0.202846 0.862131
-0.154214 0.203579 0.864614
-0.152892 0.204321 0.867146
-0.151571 0.205076 0.869738
-0.150223 0.205808 0.872194
-0.148749 0.206382 0.873799
-0.147314 0.207017 0.875724
-0.145888 0.207674 0.877766
-0.144521 0.208424 0.880294
-0.1432 0.20925 0.88323
-0.141917 0.210148 0.886535
-0.140651 0.211089 0.890065
-0.139248 0.211843 0.892586
-0.137784 0.21252 0.894692
-0.136236 0.213078 0.896158
-0.134992 0.214118 0.900177
-0.10299 0.221383 0.910039
-0.100548 0.220097 0.901953
-0.0982654 0.219104 0.895404
-0.0964695 0.219191 0.894418
-0.0946469 0.219205 0.893062
-0.0928568 0.219285 0.892046
-0.0911084 0.219458 0.891507
-0.0893318 0.219551 0.890569
-0.0875889 0.219723 0.890029
-0.0858552 0.219913 0.889588
-0.0841273 0.220113 0.889194
-0.0824375 0.220411 0.889309
-0.0807411 0.220693 0.889335
-0.079035 0.220942 0.889195
-0.0773164 0.221152 0.88886
-0.0755852 0.221313 0.88828
-0.0738451 0.221439 0.887524
-0.0721438 0.221681 0.887354
-0.0704633 0.221992 0.887536
-0.0688044 0.222378 0.88809
-0.0671561 0.22281 0.888878
-0.0655076 0.223247 0.889686
-0.0638736 0.223747 0.890807
-0.062241 0.224271 0.892047
-0.0606027 0.224784 0.893228
-0.0589721 0.225342 0.894634
-0.0573344 0.225896 0.896011
-0.0556896 0.226428 0.897282
