ply
format ascii 1.0
element vertex 1755
property float x
property float y
property float z
end_header
0.0838799 0.120088 0.90715
0.0853279 0.120222 0.904849
0.0867598 0.120339 0.902418
0.0881813 0.120451 0.899951
0.0895596 0.120506 0.897004
0.0909441 0.120582 0.894262
0.0923523 0.120704 0.891939
0.0937817 0.120865 0.889975
0.0952273 0.121057 0.888289
0.0967171 0.121317 0.887201
0.0982119 0.121588 0.886212
0.099713 0.12187 0.885328
0.101196 0.12213 0.884261
0.102699 0.122422 0.883468
0.104212 0.122727 0.882794
0.105716 0.123024 0.882055
0.107228 0.123333 0.881416
0.108737 0.123638 0.880757
0.11027 0.123976 0.880375
0.111779 0.124286 0.879753
0.113288 0.124596 0.879143
0.114779 0.124887 0.878379
0.116283 0.125196 0.877761
0.117739 0.12545 0.876697
0.119226 0.125742 0.875953
0.120754 0.126082 0.875603
0.122315 0.126461 0.87557
0.12387 0.126831 0.875468
0.125445 0.127223 0.875546
0.127064 0.127662 0.875995
0.128645 0.128058 0.876101
0.130228 0.128457 0.876224
0.131855 0.1289 0.8767
0.133495 0.129356 0.877277
0.135096 0.129769 0.877505
0.136732 0.130218 0.878014
0.138366 0.130662 0.878479
0.139989 0.131094 0.878853
0.141655 0.131567 0.879535
0.143343 0.132059 0.880367
0.145048 0.132565 0.881303
0.146743 0.133059 0.882137
0.148449 0.133562 0.883033
0.15016 0.134067 0.883937
0.15195 0.134641 0.885372
0.15378 0.135251 0.887061
0.155695 0.135932 0.889292
0.157664 0.136657 0.891837
0.159692 0.137428 0.894723
0.16169 0.138168 0.897346
0.163634 0.138854 0.899546
0.165512 0.139477 0.90126
0.168554 0.141104 0.910492
0.0179806 0.1066 0.916677
0.0195851 0.106973 0.916478
0.0211893 0.107345 0.916268
0.0227934 0.107722 0.916105
0.0243981 0.108107 0.916033
0.0260024 0.108484 0.915871
0.0276037 0.108832 0.915424
0.0292054 0.10919 0.915084
0.0308099 0.109578 0.915036
0.0324077 0.109915 0.914487
0.0340036 0.110249 0.913908
0.0355992 0.110589 0.913395
0.0371881 0.1109 0.912593
0.038773 0.111201 0.911704
0.0403642 0.111542 0.911213
0.0419473 0.111853 0.910433
0.0435258 0.112153 0.90955
0.0451122 0.112492 0.909048
0.0466982 0.112834 0.908573
0.0482874 0.11319 0.908239
0.0498892 0.113589 0.908316
0.0515025 0.114022 0.908713
0.0531221 0.114469 0.909234
0.0547642 0.114975 0.910303
0.0564241 0.115519 0.911725
0.0580995 0.116093 0.913403
0.0597854 0.116679 0.91519
0.0614812 0.117276 0.91706
0.0631578 0.117812 0.918357
0.0648152 0.118295 0.919151
0.0759294 0.120601 0.914927
0.0774648 0.120844 0.913559
0.079016 0.121121 0.912512
0.0805038 0.12129 0.910514
0.0820014 0.121486 0.908763
0.0835261 0.121735 0.907496
0.0849843 0.121879 0.905314
0.0864177 0.121992 0.902874
0.0878412 0.1221 0.900405
0.0892138 0.122137 0.897348
0.0905924 0.122197 0.894499
0.0920009 0.122313 0.892155
0.0934238 0.12246 0.89009
0.0948693 0.122647 0.888385
0.0963606 0.122906 0.887304
0.09785 0.123167 0.886238
0.0993439 0.123437 0.88526
0.100835 0.123706 0.884281
0.10234 0.123998 0.883496
0.103854 0.124303 0.882826
0.105369 0.124611 0.882192
0.10689 0.12493 0.881647
0.108409 0.125247 0.881082
0.109963 0.125609 0.880901
0.111494 0.125943 0.880487
0.113027 0.12628 0.880099
0.114543 0.126598 0.879555
0.116052 0.126908 0.878953
0.117496 0.127145 0.877757
0.11897 0.127419 0.876872
0.120487 0.127745 0.876403
0.122041 0.128113 0.87628
0.123599 0.128485 0.876194
0.125179 0.128882 0.876299
0.126799 0.129322 0.876748
0.128382 0.129719 0.876856
0.129954 0.130105 0.876869
0.131578 0.130546 0.877315
0.133207 0.130989 0.877778
0.134807 0.131402 0.877995
0.136431 0.131838 0.878392
0.138065 0.132283 0.878858
0.139678 0.132705 0.879145
0.141346 0.13318 0.879837
0.143024 0.133664 0.880591
0.144731 0.134174 0.881537
0.146424 0.134667 0.882353
0.148128 0.135169 0.883225
0.149823 0.13566 0.884011
0.151596 0.136222 0.88533
0.153411 0.13682 0.886908
0.155309 0.137491 0.88903
0.157277 0.13822 0.891574
0.159304 0.138997 0.894462
0.161304 0.139743 0.8971
0.163252 0.140437 0.899332
0.165132 0.141065 0.90106
0.0159755 0.107819 0.9167
0.0175807 0.108164 0.916213
0.0191847 0.108495 0.915598
0.0207874 0.108839 0.915109
0.0223893 0.109195 0.914751
0.0239905 0.109549 0.914368
0.0255901 0.109892 0.913878
0.0271877 0.110226 0.913302
0.0287852 0.11057 0.912832
0.0303839 0.110936 0.912573
0.0319785 0.111272 0.91203
0.0335729 0.111617 0.911571
0.0351677 0.11197 0.911196
0.0367562 0.112291 0.910521
0.0383407 0.112602 0.909743
0.0399294 0.112942 0.909252
0.0415126 0.113262 0.908573
0.0430917 0.113573 0.907805
0.0446789 0.113922 0.907417
0.0462632 0.114264 0.90695
0.0478497 0.114617 0.906601
0.049446 0.115005 0.906574
0.0510531 0.115427 0.906858
0.0526663 0.115863 0.907279
0.0543046 0.116368 0.908329
0.055965 0.116926 0.909852
0.0576371 0.117501 0.911532
0.0593197 0.11809 0.913318
0.0610113 0.118688 0.915167
0.0626813 0.119218 0.916391
0.0643349 0.119699 0.917167
0.0755423 0.122212 0.914851
0.077075 0.122445 0.913421
0.0786311 0.122729 0.912443
0.0801242 0.122903 0.910512
0.0816294 0.123107 0.908859
0.083156 0.123356 0.907602
0.0846223 0.123508 0.905517
0.0860573 0.123617 0.903077
0.0874823 0.123721 0.900602
0.0888649 0.123767 0.897656
0.0902471 0.123824 0.894827
0.0916583 0.123938 0.892496
0.0930748 0.12407 0.890324
0.0945202 0.124252 0.8886
0.0960048 0.124499 0.88742
0.0974953 0.124758 0.886355
0.0989916 0.125029 0.885393
0.100492 0.125307 0.884504
0.101998 0.125599 0.883724
0.103514 0.125905 0.88307
0.10504 0.126225 0.882537
0.106572 0.126557 0.882095
0.108102 0.126885 0.881632
0.109659 0.127249 0.881465
0.111211 0.127607 0.881247
0.112756 0.127958 0.880969
0.114287 0.128291 0.880547
0.115809 0.128614 0.880056
0.117279 0.128876 0.87907
0.118745 0.129137 0.878083
0.120251 0.129446 0.877485
0.121805 0.129812 0.877341
0.123367 0.130188 0.877278
0.12495 0.130587 0.877389
0.126573 0.131029 0.877841
0.128164 0.131434 0.878
0.129725 0.131806 0.877899
0.131328 0.132224 0.878156
0.132932 0.132641 0.878405
0.13452 0.13304 0.878509
0.136132 0.133463 0.878799
0.137757 0.133898 0.879182
0.139382 0.134333 0.879557
0.141053 0.134813 0.880267
0.142729 0.135295 0.880997
0.144411 0.135782 0.881752
0.146102 0.136275 0.882551
0.147794 0.136766 0.883327
0.149476 0.137246 0.88402
0.151236 0.137798 0.885244
0.153038 0.138387 0.886732
0.154907 0.139035 0.888652
0.156857 0.139752 0.89108
0.158879 0.140532 0.893949
0.160878 0.141283 0.896589
0.162837 0.141991 0.898898
0.164714 0.142621 0.900613
0.0139683 0.109066 0.917001
0.0155758 0.109382 0.916229
0.017181 0.109721 0.915691
0.0187847 0.110026 0.914823
0.0203865 0.11035 0.914146
0.0219867 0.110682 0.913559
0.0235859 0.111022 0.913048
0.0251826 0.111343 0.912356
0.0267774 0.111664 0.911664
0.0283715 0.111994 0.911069
0.0299665 0.112346 0.910681
0.0315585 0.112681 0.910136
0.0331524 0.113037 0.909801
0.0347469 0.113401 0.90954
0.0363354 0.113733 0.908978
0.0379202 0.114053 0.908299
0.0395072 0.114392 0.907811
0.0410865 0.114701 0.907038
0.0426637 0.115009 0.906265
0.0442465 0.115347 0.905777
0.0458257 0.115676 0.905207
0.0474072 0.116018 0.904758
0.0490037 0.116416 0.904821
0.0506052 0.116827 0.905015
0.0522162 0.117266 0.90545
0.0538514 0.117772 0.906498
0.0555078 0.118329 0.907997
0.0571762 0.118906 0.909666
0.0588557 0.119498 0.911457
0.0605439 0.120097 0.913305
0.0622169 0.120644 0.914664
0.0638814 0.12116 0.915735
0.0655315 0.121633 0.91642
0.0751309 0.123775 0.914355
0.0766614 0.124002 0.912887
0.0782188 0.124286 0.911929
0.0797109 0.124455 0.909977
0.0812365 0.124693 0.908636
0.0827641 0.124941 0.907386
0.0842383 0.125101 0.905402
0.0856815 0.125219 0.903062
0.0871216 0.125341 0.900782
0.0885153 0.125398 0.897961
0.0899157 0.125477 0.895349
0.0913319 0.125592 0.893053
0.0927495 0.125719 0.890867
0.0941884 0.125886 0.889035
0.095664 0.126115 0.887725
0.0971479 0.126361 0.886562
0.098645 0.12663 0.885596
0.100146 0.126909 0.884713
0.101655 0.1272 0.883937
0.103172 0.127505 0.883285
0.104708 0.127838 0.882852
0.106252 0.128183 0.882523
0.107795 0.128526 0.882184
0.109354 0.128893 0.882031
0.110916 0.129262 0.881898
0.11247 0.129621 0.881692
0.114014 0.129968 0.881382
0.115552 0.130309 0.881024
0.117038 0.130586 0.880169
0.118507 0.130847 0.879188
0.120017 0.131157 0.878601
0.121571 0.131522 0.878441
0.123134 0.131896 0.878359
0.124729 0.132307 0.878558
0.126354 0.132749 0.879003
0.127935 0.133143 0.879067
0.129485 0.133501 0.87885
0.131078 0.133906 0.879001
0.132662 0.1343 0.879067
0.134238 0.134687 0.879069
0.135849 0.135108 0.87934
0.137464 0.135533 0.879635
0.139079 0.135958 0.879921
0.140747 0.136435 0.880604
0.142408 0.136904 0.881215
0.144075 0.137376 0.881849
0.145779 0.137883 0.882742
0.147475 0.13838 0.883549
0.149163 0.138866 0.884274
0.150938 0.139435 0.885599
0.152739 0.140025 0.887078
0.154578 0.140647 0.888786
0.156512 0.141355 0.891109
0.158516 0.142123 0.893853
0.160482 0.142849 0.896276
0.162421 0.143544 0.898457
0.164276 0.144158 0.900037
0.0135671 0.110664 0.916869
0.0151751 0.110982 0.916122
0.0167811 0.111301 0.915407
0.0183851 0.111587 0.914358
0.0199865 0.111887 0.913461
0.021586 0.112207 0.912759
0.0231837 0.112528 0.912074
0.0247789 0.112838 0.911284
0.0263719 0.113146 0.910484
0.0279635 0.113462 0.909766
0.0295559 0.113802 0.909277
0.0311474 0.114145 0.908823
0.0327398 0.114501 0.90849
0.0343329 0.114866 0.908244
0.0359182 0.115187 0.907584
0.0374992 0.115493 0.906792
0.0390799 0.115808 0.906085
0.0406567 0.116113 0.905294
0.0422319 0.11642 0.904522
0.0438153 0.116769 0.904144
0.0453952 0.117107 0.903671
0.0469775 0.117458 0.903314
0.0485719 0.117855 0.90337
0.0501687 0.118257 0.903482
0.0517738 0.118684 0.903809
0.0534024 0.11918 0.904749
0.0550556 0.119738 0.906244
0.056721 0.120317 0.907913
0.0584015 0.120923 0.909804
0.0600909 0.121537 0.911748
0.0617772 0.122127 0.913469
0.0634536 0.122678 0.914839
0.0651083 0.123167 0.915649
0.0667726 0.123671 0.916591
0.0777852 0.125802 0.911064
0.0792961 0.126003 0.909415
0.0808373 0.126267 0.908316
0.0823653 0.126514 0.907067
0.083841 0.126672 0.905093
0.0852856 0.126787 0.902761
0.0867349 0.12692 0.900597
0.0881448 0.126997 0.897981
0.0895563 0.127088 0.895501
0.0909904 0.127226 0.89342
0.0924178 0.127361 0.891336
0.0938563 0.127523 0.889475
0.0953238 0.127735 0.888043
0.0968079 0.127978 0.886864
0.098298 0.128234 0.885799
0.0998091 0.128523 0.885015
0.101326 0.128824 0.884325
0.102853 0.129141 0.88377
0.1044 0.129486 0.88344
0.105956 0.129845 0.883219
0.10751 0.130202 0.882988
0.109064 0.130558 0.88275
0.110617 0.130914 0.882512
0.112161 0.131259 0.882186
0.113714 0.131616 0.881953
0.115256 0.131959 0.881617
0.116757 0.132253 0.880897
0.118242 0.132529 0.880044
0.119773 0.132862 0.879637
0.121319 0.133214 0.879376
0.122884 0.133589 0.879289
0.124482 0.134002 0.879502
0.126098 0.134434 0.879855
0.12767 0.134816 0.879822
0.129221 0.135173 0.8796
0.130805 0.135568 0.87966
0.13239 0.135963 0.879727
0.133978 0.13636 0.879806
0.135592 0.136784 0.880088
0.137194 0.137195 0.88027
0.138799 0.137609 0.880466
0.14044 0.138059 0.880931
0.142075 0.138501 0.881336
0.143725 0.138957 0.881842
0.145444 0.13948 0.882839
0.147143 0.139982 0.883672
0.148863 0.140501 0.884624
0.150667 0.1411 0.886156
0.15248 0.141705 0.887715
0.154319 0.14233 0.889414
0.156264 0.143052 0.891811
0.158242 0.1438 0.894369
0.160162 0.144487 0.896478
0.162066 0.145153 0.898428
0.165098 0.146859 0.907808
0.0131652 0.11227 0.91681
0.0147741 0.112585 0.916048
0.0163811 0.112885 0.915142
0.0179857 0.113137 0.913792
0.0195869 0.113424 0.91278
0.021186 0.113743 0.912083
0.022783 0.114054 0.911314
0.0243778 0.114363 0.910532
0.0259704 0.11467 0.90973
0.0275614 0.114984 0.909005
0.0291521 0.115313 0.908418
0.0307418 0.115646 0.907874
0.0323317 0.11599 0.907435
0.0339218 0.116342 0.907073
0.0355038 0.116648 0.906291
0.0370813 0.116941 0.905389
0.0386599 0.117252 0.904661
0.0402352 0.117555 0.903866
0.0418088 0.11786 0.903093
0.0433903 0.118208 0.902713
0.0449661 0.118536 0.902153
0.0465437 0.118875 0.9017
0.0481358 0.119271 0.901752
0.0497299 0.119672 0.901849
0.0513295 0.120089 0.902085
0.0529548 0.120583 0.903007
0.0546039 0.121141 0.904471
0.056266 0.121722 0.906138
0.0579399 0.122321 0.907946
0.0596352 0.122963 0.910108
0.0613367 0.123602 0.912241
0.0630307 0.124206 0.914044
0.0647023 0.12474 0.915236
0.0663835 0.125288 0.916535
0.0773458 0.127303 0.910094
0.0788806 0.127548 0.908839
0.080438 0.127842 0.907995
0.0819666 0.128086 0.906747
0.0834563 0.128266 0.904974
0.08491 0.128391 0.902757
0.0863693 0.128536 0.900717
0.0878026 0.128646 0.898402
0.0892323 0.12876 0.896137
0.090669 0.128895 0.894061
0.0920996 0.129029 0.891987
0.093539 0.129186 0.890109
0.0949926 0.129372 0.888478
0.0964688 0.129599 0.887183
0.0979518 0.129841 0.886017
0.099464 0.130129 0.885232
0.100983 0.13043 0.884547
0.102511 0.130747 0.883997
0.104076 0.131116 0.883858
0.105643 0.131489 0.883746
0.10721 0.131861 0.883632
0.108764 0.132216 0.883379
0.110316 0.132568 0.883114
0.11184 0.132886 0.882573
0.113383 0.133228 0.882229
0.114917 0.133559 0.8818
0.116438 0.133876 0.881264
0.117936 0.134165 0.880516
0.119469 0.1345 0.88012
0.121018 0.134854 0.879875
0.122585 0.135229 0.879792
0.124174 0.135631 0.879909
0.125781 0.136053 0.880181
0.127355 0.136436 0.880148
0.128917 0.136805 0.880015
0.130502 0.1372 0.880075
0.13209 0.137597 0.880154
0.133691 0.138008 0.880334
0.135306 0.138435 0.880621
0.136886 0.13882 0.880608
0.138489 0.139231 0.880779
0.140103 0.139653 0.881032
0.141725 0.140082 0.881334
0.143375 0.14054 0.881837
0.14512 0.141092 0.883033
0.14685 0.141626 0.884085
0.148601 0.142178 0.885258
0.150407 0.142781 0.886798
0.152234 0.143402 0.888448
0.154074 0.14403 0.890151
0.155997 0.144735 0.892382
0.157947 0.14546 0.894747
0.159847 0.146131 0.896715
0.161718 0.14677 0.898443
0.0111506 0.113578 0.917661
0.0127626 0.113889 0.916861
0.0143724 0.114198 0.916058
0.0159808 0.114476 0.914955
0.0175863 0.114715 0.913495
0.0191878 0.114996 0.912444
0.0207866 0.115293 0.911547
0.0223831 0.115591 0.910668
0.0239771 0.115888 0.909785
0.0255697 0.116202 0.909061
0.0271607 0.116518 0.908357
0.0287511 0.116847 0.907787
0.0303406 0.11718 0.907248
0.0319297 0.117521 0.906785
0.0335159 0.117848 0.906201
0.0350934 0.118128 0.905192
0.0366677 0.118405 0.90417
0.038243 0.118703 0.903336
0.0398147 0.118994 0.902448
0.0413869 0.119299 0.901683
0.0429673 0.119648 0.901321
0.0445417 0.119976 0.900768
0.0461176 0.120314 0.900312
0.0477046 0.120698 0.900261
0.0492932 0.121086 0.900245
0.0508894 0.121499 0.900448
0.0525081 0.121982 0.901258
0.0541503 0.122529 0.902618
0.0558128 0.123123 0.904376
0.0574876 0.123737 0.906287
0.059181 0.124385 0.908478
0.0608846 0.125042 0.910728
0.0625934 0.125694 0.912921
0.064276 0.126262 0.914388
0.0659704 0.126848 0.915989
0.076901 0.12879 0.909028
0.0784651 0.129092 0.90826
0.0800327 0.129404 0.907578
0.081561 0.129646 0.906322
0.0830643 0.129847 0.904746
0.0845277 0.129985 0.902656
0.086004 0.130154 0.900842
0.087461 0.130299 0.898839
0.0889074 0.130434 0.896774
0.0903471 0.130568 0.894705
0.0917946 0.130723 0.892821
0.0932306 0.130868 0.890866
0.0946778 0.131038 0.889127
0.0961548 0.131261 0.887817
0.0976302 0.131487 0.886534
0.0991281 0.131751 0.885563
0.100649 0.132053 0.884889
0.102188 0.132382 0.884435
0.103755 0.132754 0.884318
0.105333 0.133141 0.88431
0.106902 0.133513 0.884196
0.108457 0.133867 0.88394
0.109999 0.134206 0.883565
0.111513 0.134506 0.882897
0.113037 0.134822 0.882348
0.114568 0.13515 0.881895
0.116089 0.135464 0.881344
0.117587 0.135752 0.880592
0.119123 0.136088 0.880209
0.120683 0.136455 0.880061
0.122261 0.136843 0.880073
0.123851 0.137246 0.880195
0.12547 0.137682 0.88056
0.127044 0.138064 0.880523
0.128607 0.138433 0.880386
0.130182 0.138816 0.880354
0.131772 0.139215 0.880438
0.133366 0.139618 0.880551
0.134982 0.140045 0.880841
0.136561 0.14043 0.880822
0.138162 0.140839 0.880968
0.139775 0.14126 0.881208
0.141398 0.14169 0.88151
0.143052 0.142151 0.882032
0.144812 0.142721 0.883338
0.146558 0.143273 0.884503
0.148312 0.14383 0.885697
0.150119 0.144438 0.887245
0.151949 0.145063 0.888908
0.153792 0.145698 0.890624
0.155704 0.146395 0.89278
0.157653 0.147124 0.895139
0.159537 0.147783 0.896993
0.161402 0.148419 0.898677
0.010745 0.115223 0.917944
0.0123579 0.115537 0.917186
0.0139695 0.115835 0.916278
0.0155797 0.116093 0.915005
0.0171865 0.116317 0.913425
0.0187887 0.116584 0.912256
0.0203877 0.116856 0.911142
0.0219838 0.117139 0.910134
0.0235776 0.117432 0.909227
0.0251701 0.117745 0.908503
0.0267611 0.118062 0.907817
0.0283526 0.118403 0.907363
0.029942 0.118735 0.906822
0.0315282 0.119051 0.906143
0.0331104 0.11935 0.905317
0.0346852 0.119615 0.904189
0.0362569 0.119879 0.903063
0.0378296 0.120167 0.902151
0.0394003 0.120457 0.901269
0.0409713 0.12076 0.900503
0.0425478 0.121097 0.900037
0.0441208 0.121423 0.899482
0.0456951 0.121761 0.899028
0.0472801 0.122142 0.898959
0.0488664 0.122528 0.898929
0.0504576 0.12293 0.899034
0.0520671 0.123391 0.899641
0.0537024 0.123926 0.900885
0.0553612 0.124522 0.902629
0.0570326 0.125137 0.904534
0.0587311 0.125813 0.906929
0.0604372 0.126488 0.909305
0.0621534 0.12717 0.911721
0.0638496 0.127781 0.913528
0.0655603 0.128414 0.9155
0.0672623 0.129011 0.917157
0.0765565 0.130479 0.909631
0.0780737 0.130684 0.90807
0.0796399 0.130991 0.90736
0.0811684 0.13123 0.906097
0.0826789 0.131441 0.904618
0.0841516 0.131591 0.90265
0.0856458 0.131788 0.901078
0.0871142 0.131946 0.899209
0.0885765 0.132103 0.897336
0.090026 0.132247 0.89537
0.0914836 0.132412 0.893588
0.0929226 0.132555 0.891639
0.0943721 0.132723 0.889899
0.0958421 0.13293 0.888475
0.09731 0.13314 0.887077
0.0987995 0.133388 0.885985
0.100314 0.133677 0.885221
0.101863 0.134019 0.884868
0.103441 0.134405 0.884854
0.10503 0.134806 0.884956
0.106593 0.135169 0.884766
0.108148 0.135521 0.884496
0.109682 0.135845 0.884009
0.111187 0.136132 0.883245
0.112692 0.136421 0.882497
0.114213 0.136732 0.881919
0.115723 0.137031 0.881256
0.11722 0.137317 0.880496
0.118758 0.137654 0.880129
0.120329 0.138034 0.880074
0.121918 0.138436 0.880184
0.123518 0.138851 0.880389
0.125138 0.139288 0.880756
0.126713 0.139671 0.880722
0.128277 0.14004 0.880584
0.129852 0.140422 0.880545
0.131442 0.140821 0.880626
0.133036 0.141224 0.880732
0.134642 0.14164 0.880938
0.136222 0.142026 0.880918
0.13781 0.142419 0.880954
0.139425 0.142843 0.881206
0.141062 0.143289 0.881613
0.142756 0.143794 0.882443
0.144534 0.144386 0.883882
0.146295 0.144955 0.885153
0.148062 0.145527 0.886431
0.149858 0.146124 0.887883
0.151673 0.146738 0.88944
0.153517 0.147376 0.89116
0.15543 0.148079 0.893318
0.157353 0.148785 0.895488
0.15922 0.14943 0.897224
0.162255 0.15121 0.906809
0.0103381 0.11688 0.918319
0.0119524 0.117193 0.917557
0.0135655 0.11749 0.916647
0.0151773 0.117744 0.915359
0.016786 0.117953 0.913658
0.0183896 0.118197 0.912291
0.0199893 0.118452 0.911033
0.0215854 0.118709 0.909808
0.023179 0.118987 0.908771
0.0247716 0.1193 0.908058
0.0263626 0.119617 0.907383
0.0279542 0.11996 0.906947
0.0295434 0.12029 0.906398
0.031127 0.120581 0.905508
0.0327056 0.120853 0.904454
0.0342779 0.121103 0.903205
0.0358471 0.121353 0.901977
0.0374175 0.121632 0.900997
0.0389892 0.121932 0.900214
0.0405613 0.122243 0.899532
0.0421362 0.122576 0.899044
0.0437081 0.122901 0.898486
0.0452844 0.123249 0.898131
0.0468659 0.123621 0.89798
0.0484478 0.123995 0.897845
0.0500338 0.124383 0.897834
0.0516378 0.124832 0.898332
0.0532638 0.125346 0.899381
0.0549188 0.125941 0.901095
0.0565908 0.12657 0.903087
0.058291 0.127262 0.905593
0.0600079 0.127979 0.908286
0.0617313 0.12869 0.910911
0.0634436 0.129351 0.913101
0.0651717 0.130034 0.915459
0.0668976 0.130693 0.917606
0.068623 0.131335 0.919594
0.0763447 0.132452 0.912487
0.0778033 0.132523 0.909866
0.0793122 0.132709 0.908183
0.0808094 0.13288 0.906396
0.0823137 0.133075 0.9048
0.0837893 0.133224 0.902852
0.0852943 0.133436 0.901414
0.0867802 0.13362 0.899768
0.0882535 0.13379 0.898017
0.0897118 0.133942 0.896138
0.0911723 0.134106 0.894362
0.0926144 0.134247 0.892421
0.0940595 0.134402 0.890593
0.0955207 0.13459 0.889036
0.0969883 0.134794 0.887609
0.0984787 0.135039 0.886507
0.099994 0.135326 0.885732
0.101553 0.135681 0.88548
0.103133 0.136068 0.885466
0.104725 0.136472 0.885583
0.106279 0.136821 0.885286
0.107828 0.137162 0.884928
0.109352 0.13747 0.884328
0.110858 0.137756 0.883561
0.112346 0.138019 0.882622
0.113867 0.138329 0.882043
0.115385 0.138637 0.881454
0.116895 0.138936 0.880797
0.118435 0.139276 0.880446
0.120019 0.13967 0.8805
0.121607 0.140071 0.880597
0.123198 0.140474 0.880705
0.12481 0.140901 0.880994
0.126386 0.141285 0.880959
0.127951 0.141655 0.880828
0.129525 0.142035 0.880773
0.131115 0.142433 0.88084
0.132708 0.142835 0.880936
0.134301 0.143235 0.881021
0.135882 0.143622 0.881006
0.13746 0.144005 0.880963
0.139089 0.144444 0.881321
0.140741 0.144907 0.88184
0.142466 0.145446 0.882899
0.14426 0.146057 0.884452
0.146049 0.146659 0.885928
0.147816 0.147232 0.887199
0.149609 0.147828 0.888623
0.151423 0.148442 0.890158
0.153253 0.149068 0.891767
0.15515 0.149758 0.893813
0.157058 0.150453 0.895876
0.15891 0.151087 0.897511
0.00993272 0.118512 0.918441
0.0115479 0.118829 0.917722
0.0131628 0.119109 0.916671
0.0147756 0.119361 0.915378
0.0163858 0.119556 0.91358
0.0179902 0.119797 0.9122
0.0195906 0.120027 0.910733
0.0211871 0.12028 0.909489
0.0227805 0.120545 0.908344
0.0243732 0.120857 0.907634
0.0259643 0.121173 0.906966
0.0275568 0.121527 0.906628
0.0291452 0.121846 0.905983
0.0307273 0.122122 0.904979
0.0323042 0.122379 0.903804
0.0338762 0.122624 0.90253
0.0354455 0.122875 0.901321
0.0370159 0.123153 0.900352
0.0385874 0.123452 0.89957
0.0401585 0.123759 0.898862
0.0417304 0.124079 0.898269
0.0432995 0.124392 0.897619
0.0448753 0.124741 0.897279
0.046456 0.125114 0.897134
0.0480371 0.125487 0.896999
0.0496219 0.125875 0.896979
0.0512209 0.126311 0.897366
0.0528373 0.126799 0.898188
0.0544859 0.127383 0.899787
0.056155 0.128014 0.901769
0.0578528 0.128711 0.904282
0.0595769 0.129461 0.907208
0.0613116 0.130214 0.910149
0.063044 0.130937 0.912814
0.0647874 0.131666 0.915514
0.0665304 0.132374 0.918018
0.0682621 0.133033 0.920122
0.069993 0.133676 0.922071
0.0761078 0.134386 0.914956
0.0775385 0.134384 0.911784
0.0790036 0.134471 0.909327
0.0804741 0.134581 0.907074
0.0819793 0.134771 0.905456
0.0834624 0.134927 0.903586
0.084971 0.135139 0.902167
0.0864676 0.135337 0.90064
0.0879428 0.135504 0.898881
0.0894034 0.135652 0.896995
0.0908595 0.135802 0.895129
0.0923033 0.13594 0.893176
0.0937502 0.136091 0.89134
0.0952136 0.136276 0.88978
0.0966741 0.136464 0.888241
0.0981576 0.136694 0.887034
0.0996657 0.136967 0.886156
0.101227 0.137323 0.885912
0.102798 0.137696 0.885795
0.104391 0.138101 0.885909
0.105945 0.138448 0.885596
0.107493 0.138786 0.885222
0.109009 0.13908 0.884517
0.110517 0.139366 0.883752
0.112005 0.139626 0.882809
0.113528 0.139937 0.88224
0.115057 0.140259 0.881752
0.11658 0.140573 0.881211
0.118124 0.140915 0.880878
0.11971 0.141312 0.880946
0.121299 0.141712 0.881033
0.12288 0.142103 0.88105
0.124492 0.14253 0.881326
0.126082 0.142929 0.881401
0.127659 0.143313 0.881367
0.129237 0.143696 0.881328
0.130815 0.144079 0.881288
0.132382 0.14445 0.88116
0.133962 0.144835 0.881132
0.135542 0.14522 0.881104
0.137122 0.145605 0.881074
0.138779 0.146076 0.881642
0.14047 0.146582 0.882457
0.142212 0.147142 0.88364
0.144012 0.147761 0.885229
0.145817 0.148381 0.886809
0.147569 0.14894 0.887963
0.149335 0.14951 0.889183
0.151135 0.150111 0.890612
0.152948 0.150722 0.892096
0.154831 0.151401 0.894035
0.156737 0.152098 0.896086
0.158588 0.152734 0.897712
0.00952789 0.120136 0.918477
0.0111433 0.120458 0.917818
0.0127599 0.120727 0.916681
0.0143738 0.120977 0.915378
0.0159851 0.121169 0.913573
0.0175907 0.121395 0.912087
0.0191918 0.121612 0.910521
0.020789 0.121863 0.909273
0.0223826 0.122116 0.908042
0.0239755 0.122426 0.907321
0.0255661 0.12273 0.906554
0.0271576 0.123071 0.906108
0.0287457 0.123388 0.905453
0.0303266 0.123651 0.904345
0.0319008 0.123883 0.902978
0.0334722 0.124124 0.901692
0.0350409 0.124372 0.900477
0.0366089 0.124638 0.899412
0.03818 0.124937 0.898641
0.0397524 0.125254 0.898026
0.0413238 0.125573 0.897438
0.0428946 0.125897 0.896887
0.0444728 0.12626 0.896658
0.0460534 0.126633 0.896524
0.0476341 0.127007 0.896389
0.0492177 0.127391 0.89635
0.050809 0.127803 0.896528
0.0524164 0.128266 0.897132
0.0540619 0.128849 0.898704
0.0557323 0.129494 0.900771
0.0574334 0.130211 0.903418
0.0591652 0.130995 0.90658
0.0609038 0.13177 0.909649
0.0626403 0.132512 0.912435
0.064395 0.13328 0.915404
0.0661438 0.134008 0.918039
0.0678794 0.134682 0.92023
0.0696107 0.13533 0.922187
0.0717108 0.134275 0.923651
0.0713102 0.135888 0.923424
0.0732355 0.134426 0.921649
0.0728976 0.136178 0.922544
0.0743743 0.136226 0.919759
0.0758394 0.136266 0.916926
0.0772604 0.136229 0.913509
0.078698 0.136246 0.910537
0.0801483 0.136306 0.907914
0.0816412 0.136464 0.90607
0.0831262 0.136617 0.904193
0.0846354 0.136825 0.902754
0.0861405 0.137033 0.901319
0.0876116 0.137185 0.899469
0.0890802 0.137342 0.897664
0.0905361 0.137485 0.895764
0.0919819 0.137619 0.893807
0.0934237 0.137755 0.891879
0.0948965 0.137951 0.890411
0.096359 0.138137 0.888871
0.0978451 0.138367 0.887672
0.0993562 0.13864 0.886806
0.100926 0.139008 0.886649
0.102491 0.139369 0.886437
0.104083 0.13977 0.88652
0.105629 0.140103 0.886099
0.107168 0.140427 0.885617
0.108675 0.140706 0.884812
0.110183 0.140989 0.884036
0.111664 0.141236 0.883001
0.113188 0.141547 0.882438
0.114721 0.141871 0.881969
0.116258 0.142201 0.881547
0.117804 0.142546 0.881235
0.119392 0.142944 0.881305
0.12098 0.143343 0.881375
0.12257 0.143743 0.881459
0.124182 0.144171 0.881735
0.125785 0.144586 0.881921
0.127389 0.145 0.882095
0.128981 0.1454 0.882171
0.13055 0.145771 0.88204
0.132094 0.146113 0.881702
0.133659 0.146479 0.881541
0.135238 0.146862 0.881494
0.136822 0.147251 0.881485
0.138507 0.147753 0.882267
0.140227 0.148293 0.883299
0.141984 0.148871 0.884587
0.143773 0.14948 0.886078
0.145565 0.150088 0.887557
0.147307 0.150636 0.888619
0.149073 0.151208 0.889835
0.150874 0.151813 0.891264
0.152677 0.152415 0.892669
0.154573 0.153111 0.894697
0.156478 0.153809 0.896732
0.158316 0.154435 0.898263
0.0075048 0.121437 0.919161
0.00912164 0.121773 0.918621
0.0107387 0.122086 0.917882
0.0123567 0.122344 0.916666
0.0139721 0.122582 0.915274
0.0155845 0.12277 0.913466
0.0171912 0.122983 0.911874
0.018793 0.123197 0.910304
0.0203907 0.123435 0.908959
0.0219846 0.123685 0.90772
0.0235773 0.123984 0.90691
0.0251672 0.124274 0.906031
0.0267574 0.1246 0.905463
0.0283442 0.124902 0.904696
0.0299236 0.125152 0.903492
0.0314987 0.125394 0.902222
0.0330714 0.125645 0.901041
0.0346417 0.125904 0.899927
0.0362098 0.126168 0.898867
0.0377826 0.126477 0.898189
0.0393551 0.126794 0.897585
0.0409268 0.127115 0.89701
0.0424981 0.12744 0.896476
0.0440788 0.127814 0.896342
0.0456593 0.128187 0.896207
0.04724 0.128561 0.896073
0.0488206 0.128934 0.895939
0.0504077 0.129332 0.896002
0.0520136 0.129793 0.896581
0.053654 0.130364 0.898039
0.0553234 0.131014 0.900118
0.0570313 0.131763 0.90298
0.0587711 0.132581 0.906372
0.0605103 0.133366 0.909476
0.0622507 0.134127 0.912372
0.0640096 0.134913 0.915447
0.0657607 0.135653 0.918141
0.0674958 0.136331 0.920326
0.0692246 0.136976 0.922237
0.070919 0.137524 0.923375
0.0725385 0.137887 0.923069
0.074064 0.138037 0.921105
0.0755556 0.138123 0.918662
0.0769901 0.1381 0.915392
0.078419 0.138085 0.912202
0.0798535 0.1381 0.909259
0.0813358 0.138228 0.907198
0.0828163 0.138364 0.905209
0.08432 0.138554 0.903648
0.0858205 0.138747 0.902111
0.0872918 0.138893 0.90023
0.0887555 0.139034 0.898323
0.0902048 0.139158 0.896303
0.0916522 0.139289 0.894341
0.0930952 0.139421 0.892399
0.0945723 0.139619 0.890963
0.0960536 0.13983 0.889628
0.0975587 0.140086 0.888631
0.0990805 0.140372 0.887864
0.100653 0.140742 0.887711
0.10222 0.141102 0.887492
0.103804 0.141489 0.88747
0.105342 0.141806 0.886937
0.106874 0.142116 0.886353
0.108375 0.142383 0.885459
0.109864 0.142636 0.88447
0.111335 0.142865 0.883319
0.11285 0.143161 0.882649
0.114376 0.143473 0.8821
0.115913 0.143803 0.881679
0.117481 0.144175 0.881556
0.119079 0.144586 0.881717
0.120678 0.144999 0.881881
0.12229 0.145426 0.882154
0.123915 0.14587 0.882533
0.125543 0.146315 0.882923
0.127165 0.14675 0.883236
0.128762 0.147155 0.883334
0.130323 0.147513 0.88311
0.131865 0.147849 0.882737
0.133405 0.148185 0.882356
0.134974 0.148554 0.882208
0.136562 0.148946 0.882223
0.138252 0.149455 0.88303
0.139975 0.149999 0.884077
0.141731 0.150577 0.88535
0.143507 0.151173 0.886735
0.145297 0.15178 0.888183
0.147039 0.15233 0.889237
0.148834 0.152935 0.89066
0.150656 0.153563 0.892229
0.152477 0.154187 0.893756
0.154363 0.154875 0.895701
0.156241 0.155548 0.897538
0.159219 0.157358 0.906918
0.00709992 0.123051 0.919087
0.00871648 0.123395 0.918623
0.0103349 0.1237 0.91782
0.0119532 0.123966 0.916684
0.0135702 0.124189 0.915184
0.0151834 0.124386 0.913469
0.0167913 0.124584 0.911776
0.0183941 0.124794 0.910195
0.0199924 0.125018 0.90874
0.021587 0.125266 0.9075
0.0231791 0.125539 0.906482
0.0247684 0.125814 0.905484
0.0263574 0.126125 0.904793
0.0279435 0.126422 0.903995
0.0295229 0.126671 0.9028
0.0310994 0.126926 0.901658
0.0326738 0.12719 0.900596
0.034246 0.127458 0.899578
0.0358146 0.127721 0.898522
0.0373874 0.12803 0.897848
0.0389605 0.128349 0.89726
0.0405325 0.128669 0.896691
0.042104 0.128994 0.89616
0.0436847 0.129368 0.896026
0.0452653 0.129741 0.895891
0.0468459 0.130115 0.895757
0.0484265 0.130488 0.895623
0.0500102 0.130873 0.895583
0.0516155 0.131336 0.896159
0.0532549 0.131909 0.897613
0.0549273 0.132576 0.899798
0.0566389 0.133345 0.902783
0.0583863 0.134196 0.90639
0.0601294 0.135 0.909602
0.0618731 0.135777 0.912581
0.0636308 0.136567 0.915641
0.0653764 0.137298 0.918225
0.0671108 0.137978 0.920399
0.0688388 0.138625 0.922298
0.0705312 0.13917 0.923395
0.0721783 0.139597 0.923582
0.0737466 0.13984 0.922348
0.0752619 0.139968 0.920254
0.0767283 0.140002 0.917448
0.0781612 0.13998 0.914237
0.0795814 0.139951 0.910988
0.0810478 0.140035 0.908617
0.0825246 0.140153 0.906514
0.0840169 0.140313 0.904738
0.0855187 0.140501 0.903177
0.0869791 0.140618 0.9011
0.0884378 0.140743 0.899089
0.0898811 0.140849 0.896955
0.0913295 0.140975 0.894974
0.0927677 0.141092 0.892941
0.0942553 0.141303 0.891612
0.0957479 0.141528 0.890393
0.0972649 0.141799 0.889513
0.0987989 0.142101 0.888865
0.100375 0.142472 0.88872
0.101943 0.142832 0.888495
0.10352 0.143205 0.888367
0.10506 0.143522 0.887834
0.106585 0.143818 0.887154
0.108078 0.144069 0.886151
0.109559 0.144305 0.885048
0.111028 0.144528 0.883865
0.112532 0.144805 0.883066
0.114057 0.145115 0.882498
0.115594 0.145443 0.882067
0.117173 0.145828 0.882037
0.118763 0.146228 0.882113
0.120375 0.146657 0.882388
0.121992 0.147091 0.88269
0.123642 0.147566 0.883284
0.125288 0.148033 0.883813
0.126934 0.148498 0.884328
0.128546 0.148919 0.88453
0.130109 0.149277 0.884305
0.13164 0.149597 0.883817
0.133181 0.14993 0.883418
0.13475 0.150298 0.883261
0.136342 0.150692 0.883283
0.138049 0.151221 0.884215
0.139774 0.151768 0.885259
0.141505 0.152319 0.886324
0.143264 0.152896 0.887566
0.145039 0.153489 0.888896
0.14677 0.154027 0.889857
0.148584 0.154655 0.891409
0.150426 0.155307 0.893118
0.152254 0.155939 0.894678
0.154128 0.156616 0.896528
0.156043 0.157332 0.898622
0.00669436 0.124669 0.919042
0.00831221 0.125006 0.918515
0.00993174 0.125302 0.917648
0.0115501 0.125576 0.916597
0.013168 0.125797 0.915096
0.0147818 0.126006 0.913508
0.016391 0.126201 0.911805
0.017995 0.126396 0.910113
0.019594 0.126602 0.908524
0.0211887 0.126822 0.907066
0.02278 0.127069 0.90584
0.0243685 0.127329 0.904732
0.025956 0.127623 0.903916
0.0275405 0.127907 0.903018
0.0291202 0.128167 0.901921
0.0306979 0.128434 0.900897
0.0322741 0.128713 0.899978
0.0338496 0.129008 0.899186
0.0354202 0.129282 0.898233
0.0369934 0.129589 0.897556
0.0385663 0.129905 0.896952
0.0401383 0.130224 0.896378
0.04171 0.130548 0.895844
0.0432906 0.130922 0.89571
0.0448712 0.131295 0.895575
0.0464519 0.131669 0.895441
0.0480325 0.132042 0.895306
0.049613 0.132416 0.895172
0.051218 0.132879 0.89575
0.0528567 0.133456 0.897207
0.0545326 0.134141 0.899513
0.0562472 0.13493 0.902609
0.0579978 0.135801 0.90632
0.0597435 0.136622 0.90962
0.061486 0.137402 0.912585
0.063233 0.138169 0.915426
0.0649665 0.138874 0.917773
0.0666991 0.139557 0.919935
0.068421 0.140194 0.921735
0.0701136 0.140743 0.922852
0.0717666 0.141187 0.923157
0.0733714 0.141513 0.922575
0.0749035 0.141674 0.920746
0.0763947 0.141754 0.918316
0.0778566 0.141784 0.915532
0.0792988 0.141789 0.912572
0.0807613 0.141854 0.910078
0.0822467 0.141979 0.908049
0.0837355 0.142123 0.906166
0.0852253 0.142279 0.904381
0.0866812 0.142378 0.902194
0.088127 0.14247 0.899962
0.0895591 0.142548 0.897637
0.0910079 0.142667 0.895632
0.092448 0.142781 0.893593
0.0939372 0.142989 0.892257
0.0954263 0.143204 0.890969
0.0969533 0.143487 0.89019
0.0984902 0.143791 0.889555
0.100068 0.144163 0.889416
0.101639 0.144525 0.889203
0.103226 0.144911 0.889166
0.104776 0.145241 0.888721
0.106304 0.145537 0.888047
0.107799 0.145786 0.887039
0.109271 0.146005 0.885825
0.110738 0.146221 0.884599
0.112214 0.146455 0.883498
0.113719 0.146733 0.882718
0.115237 0.147031 0.882076
0.116824 0.147428 0.882129
0.118407 0.147818 0.882132
0.120045 0.148282 0.882643
0.121697 0.148762 0.883262
0.123385 0.149287 0.884182
0.125045 0.149772 0.884825
0.126716 0.150269 0.885541
0.128342 0.150705 0.885841
0.129905 0.15106 0.885594
0.131439 0.151381 0.885112
0.132982 0.151714 0.884709
0.134557 0.152086 0.884574
0.136163 0.152495 0.884687
0.137859 0.15301 0.885509
0.139583 0.153556 0.886532
0.141315 0.154107 0.887582
0.143062 0.154672 0.888718
0.144815 0.155239 0.889865
0.146558 0.155792 0.890907
0.148378 0.156428 0.892488
0.150211 0.157072 0.894117
0.15207 0.157741 0.895897
0.153985 0.158464 0.898022
0.15592 0.159203 0.900238
0.00790621 0.126633 0.918544
0.00952654 0.126929 0.917679
0.0111448 0.127222 0.916804
0.0127639 0.127443 0.915321
0.0143786 0.127665 0.913852
0.0159898 0.127846 0.912055
0.0175955 0.128036 0.910344
0.0191959 0.128224 0.908624
0.0207914 0.128427 0.907046
0.0223829 0.128647 0.905607
0.0239718 0.128903 0.904479
0.0255574 0.129159 0.903361
0.02714 0.129417 0.902257
0.0287195 0.129675 0.901161
0.0302983 0.129956 0.900264
0.0318745 0.130237 0.89937
0.0334534 0.130558 0.898802
0.0350261 0.130843 0.897953
0.0365994 0.131149 0.897272
0.0381723 0.131463 0.896655
0.0397443 0.13178 0.89607
0.0413159 0.132102 0.895528
0.0428966 0.132476 0.895393
0.0444771 0.132849 0.895259
0.0460578 0.133223 0.895125
0.0476384 0.133596 0.89499
0.049219 0.13397 0.894856
0.0508268 0.134447 0.895529
0.0524689 0.135039 0.897091
0.054152 0.135757 0.899613
0.0558746 0.13658 0.902926
0.0576255 0.13746 0.90666
0.0593665 0.138273 0.909853
0.0611032 0.139043 0.912694
0.0628399 0.139786 0.915318
0.0645583 0.140455 0.917357
0.0662837 0.141124 0.919392
0.0680035 0.141762 0.921173
0.0696962 0.142317 0.922309
0.0713502 0.142764 0.922644
0.0729911 0.143176 0.922712
0.0745471 0.143388 0.92128
0.0760624 0.143515 0.919226
0.0775464 0.143584 0.916755
0.0790098 0.143623 0.914079
0.0804695 0.14367 0.911477
0.0819651 0.143807 0.909551
0.0834573 0.143948 0.907661
0.0849487 0.144097 0.905847
0.0864058 0.144189 0.903624
0.0878401 0.144249 0.90118
0.0892661 0.144306 0.898727
0.0907096 0.144407 0.896609
0.0921359 0.144488 0.894354
0.0936189 0.14468 0.892911
0.0951156 0.144902 0.891692
0.0966525 0.145199 0.891009
0.0981766 0.145477 0.890194
0.0997632 0.145861 0.890139
0.101335 0.146221 0.889911
0.102924 0.14661 0.889881
0.10447 0.146929 0.889369
0.106026 0.147267 0.888986
0.107524 0.147515 0.887983
0.108998 0.147732 0.886763
0.110458 0.147933 0.88544
0.111917 0.148137 0.884142
0.113403 0.148384 0.883151
0.114908 0.148662 0.882378
0.116497 0.14906 0.882433
0.118072 0.149439 0.882352
0.119734 0.149935 0.883074
0.121409 0.150447 0.8839
0.123112 0.150992 0.884946
0.124786 0.151496 0.885702
0.126471 0.152011 0.886529
0.128098 0.152447 0.886819
0.129675 0.152818 0.886673
0.131236 0.153169 0.886396
0.132775 0.153493 0.885933
0.134364 0.153879 0.88589
0.135983 0.154303 0.886091
0.137667 0.154803 0.886802
0.13937 0.155324 0.887638
0.141128 0.155905 0.888872
0.14288 0.156476 0.890029
0.144635 0.157047 0.89118
0.146409 0.157635 0.892435
0.148257 0.158303 0.894203
0.15008 0.158937 0.895739
0.151953 0.159622 0.897597
0.153912 0.160396 0.900023
0.155903 0.161198 0.90261
0.00750282 0.128232 0.918323
0.00912328 0.128531 0.917496
0.0107405 0.128844 0.916796
0.0123599 0.12908 0.915457
0.0139753 0.129315 0.914111
0.0155878 0.129506 0.91242
0.0171954 0.129679 0.910588
0.0187974 0.129851 0.908756
0.020394 0.130039 0.907065
0.0219862 0.130242 0.905514
0.0235752 0.130483 0.904275
0.0251608 0.130725 0.903047
0.0267419 0.130954 0.901731
0.0283222 0.131219 0.900705
0.0299022 0.131511 0.899909
0.0314805 0.131807 0.899142
0.033063 0.132155 0.898794
0.0346396 0.132464 0.898141
0.0362141 0.132769 0.897458
0.0377861 0.13307 0.896746
0.0393567 0.133374 0.896058
0.0409264 0.133682 0.895409
0.0425048 0.134042 0.895172
0.0440831 0.134403 0.894943
0.0456638 0.134777 0.894809
0.0472443 0.13515 0.894674
0.0488279 0.135536 0.894635
0.0504422 0.13604 0.895505
0.0520916 0.136664 0.897283
0.0537862 0.137428 0.900125
0.0555142 0.138276 0.90358
0.0572656 0.139164 0.907322
0.0590026 0.139969 0.910411
0.0607299 0.140715 0.913031
0.0624478 0.141407 0.915234
0.0641592 0.142061 0.917134
0.065873 0.142704 0.918943
0.0675865 0.143331 0.920617
0.0692831 0.143898 0.921845
0.0709492 0.144379 0.922417
0.0726151 0.144854 0.922938
0.0741932 0.145113 0.921873
0.0757311 0.145284 0.920167
0.0772366 0.145392 0.918006
0.078723 0.145471 0.915644
0.0801886 0.145519 0.913072
0.0817031 0.145685 0.911376
0.0831996 0.145824 0.909488
0.0846805 0.145942 0.907458
0.0861318 0.146012 0.905093
0.0875599 0.146049 0.902508
0.0889742 0.146073 0.899846
0.090412 0.146155 0.89761
0.0918387 0.146228 0.895319
0.0933224 0.146414 0.893851
0.0948204 0.146634 0.892619
0.096368 0.146945 0.892038
0.0979001 0.147231 0.891289
0.0994975 0.147631 0.891336
0.101063 0.147976 0.890999
0.102645 0.148351 0.890873
0.104194 0.14867 0.890361
0.105755 0.149012 0.890003
0.107248 0.149249 0.88893
0.108734 0.149479 0.88781
0.110199 0.149681 0.8865
0.11164 0.149853 0.884995
0.113126 0.150095 0.883982
0.114631 0.15037 0.88319
0.116221 0.150768 0.883236
0.117799 0.151149 0.883167
0.119483 0.151676 0.884084
0.121149 0.152175 0.88481
0.122853 0.152722 0.885851
0.12453 0.15323 0.886619
0.126218 0.153747 0.887449
0.127836 0.154171 0.887653
0.129417 0.154545 0.887518
0.130993 0.154913 0.887348
0.132548 0.155255 0.887007
0.134142 0.155645 0.886985
0.135763 0.156069 0.887181
0.137447 0.156568 0.887873
0.139152 0.157092 0.888713
0.140915 0.15768 0.889975
0.1427 0.158291 0.891372
0.144489 0.1589 0.892755
0.146307 0.15954 0.894319
0.148171 0.160227 0.896187
0.149983 0.160848 0.897618
0.15187 0.161551 0.899562
0.153867 0.162369 0.902234
0.15592 0.163241 0.905231
0.00710299 0.129791 0.917772
0.00872218 0.130104 0.917069
0.0103377 0.130444 0.916595
0.0119563 0.130704 0.915468
0.0135721 0.130955 0.914271
0.0151858 0.131155 0.912668
0.0167949 0.131324 0.910829
0.0183985 0.131494 0.909
0.0199966 0.131668 0.907224
0.0215901 0.13187 0.905671
0.0231798 0.132095 0.90432
0.0247656 0.132318 0.902962
0.0263474 0.132543 0.901625
0.0279291 0.132817 0.900679
0.02951 0.133109 0.899887
0.0310891 0.133405 0.899134
0.0326723 0.133753 0.898787
0.0342497 0.134062 0.898133
0.035825 0.134366 0.897455
0.0373961 0.134656 0.896663
0.0389674 0.134959 0.895975
0.0405374 0.135264 0.89531
0.0421133 0.135609 0.894959
0.043689 0.135957 0.894627
0.0452697 0.136331 0.894492
0.0468503 0.136704 0.894358
0.048437 0.137104 0.894421
0.0500582 0.137638 0.895506
0.0517224 0.138323 0.897721
0.053434 0.139154 0.901028
0.0551718 0.140041 0.904729
0.0569242 0.140937 0.908475
0.0586564 0.141728 0.91142
0.0603697 0.142431 0.913686
0.0620645 0.143056 0.915357
0.0637612 0.143671 0.916937
0.0654579 0.14427 0.918401
0.0671585 0.144867 0.919835
0.0688479 0.145422 0.920948
0.0705248 0.145935 0.921746
0.0722139 0.14647 0.922711
0.0738121 0.146776 0.921991
0.0753704 0.146991 0.920616
0.0768969 0.147139 0.918773
0.0784068 0.147262 0.916753
0.0798782 0.147312 0.914218
0.081418 0.147525 0.912869
0.0829256 0.147677 0.911093
0.0844094 0.14779 0.909047
0.0858561 0.14784 0.906559
0.0872867 0.14787 0.903953
0.0886895 0.147861 0.901078
0.090129 0.147937 0.89882
0.0915504 0.14799 0.896416
0.0930358 0.148173 0.894933
0.0945214 0.148364 0.893509
0.0960645 0.148663 0.892845
0.0976069 0.148963 0.892196
0.0992225 0.149391 0.892433
0.100789 0.149735 0.892085
0.102385 0.150128 0.892081
0.103959 0.150485 0.891827
0.105515 0.150814 0.891383
0.107003 0.151037 0.890213
0.108494 0.151269 0.889113
0.109969 0.15148 0.88788
0.111404 0.151635 0.886274
0.112892 0.151876 0.885251
0.114399 0.152149 0.884451
0.115983 0.152536 0.884417
0.117553 0.152902 0.884248
0.119216 0.1534 0.88495
0.12086 0.153868 0.885454
0.122552 0.154399 0.886372
0.124219 0.154893 0.887038
0.125907 0.155412 0.887872
0.127528 0.155839 0.888086
0.12913 0.156239 0.888128
0.13071 0.156611 0.887976
0.132304 0.156999 0.88794
0.133902 0.157394 0.887944
0.135548 0.157848 0.888325
0.137236 0.158351 0.889029
0.138967 0.158905 0.890054
0.140738 0.159504 0.891362
0.142554 0.160153 0.892983
0.144365 0.160789 0.894515
0.146229 0.161483 0.896408
0.14809 0.162167 0.89822
0.149894 0.162779 0.899573
0.151824 0.163532 0.901803
0.153887 0.164426 0.904922
0.155986 0.165352 0.908219
0.00832018 0.131689 0.916747
0.00993457 0.132045 0.916401
0.0115525 0.132327 0.915468
0.0131685 0.132592 0.914395
0.0147832 0.132802 0.912895
0.0163938 0.132982 0.911155
0.0179992 0.133152 0.90935
0.0195989 0.133312 0.90748
0.0211939 0.13351 0.905922
0.0227845 0.133719 0.904454
0.0243697 0.133903 0.902803
0.0259505 0.134098 0.901239
0.0275333 0.134381 0.900385
0.0291135 0.134662 0.899509
0.0306933 0.134961 0.898784
0.0322776 0.135318 0.898515
0.0338581 0.135649 0.89804
0.0354341 0.135954 0.897371
0.0370064 0.136246 0.896602
0.0385783 0.136548 0.895915
0.0401483 0.136849 0.89522
0.0417218 0.137178 0.894749
0.043295 0.137511 0.894311
0.0448756 0.137885 0.894176
0.0464562 0.138258 0.894042
0.0480462 0.138672 0.894211
0.0496652 0.139201 0.895239
0.0513506 0.139976 0.8981
0.0530792 0.140878 0.90189
0.0548276 0.141808 0.90586
0.0565812 0.142712 0.909616
0.0583146 0.14351 0.91256
0.0599973 0.144115 0.914069
0.0616675 0.144665 0.915171
0.0633477 0.145235 0.916405
0.0650269 0.145789 0.917518
0.0667149 0.146358 0.918729
0.0684064 0.146925 0.919919
0.0700877 0.147454 0.920829
0.0717887 0.148026 0.92204
0.0734002 0.148365 0.921566
0.0749773 0.148622 0.920512
0.0765176 0.148798 0.918886
0.0780494 0.148965 0.917201
0.0795387 0.149046 0.914918
0.0811021 0.149305 0.913904
0.0826322 0.149498 0.912426
0.0841275 0.149625 0.910498
0.0855839 0.149683 0.908094
0.087019 0.149712 0.905494
0.088425 0.149696 0.902607
0.0898613 0.149756 0.900252
0.0912921 0.149817 0.897923
0.0927821 0.150001 0.896453
0.0942808 0.150207 0.895149
0.0958436 0.150535 0.894687
0.0974078 0.150867 0.894256
0.0990383 0.151316 0.894626
0.100613 0.151668 0.894331
0.102211 0.152058 0.894295
0.103787 0.152413 0.894018
0.105327 0.152708 0.893345
0.1068 0.1529 0.891973
0.108284 0.153114 0.890755
0.109751 0.153306 0.8894
0.111179 0.153444 0.887686
0.11267 0.153684 0.886666
0.114193 0.153975 0.885988
0.115772 0.15435 0.885873
0.117333 0.154699 0.885584
0.118964 0.15515 0.885962
0.120594 0.155597 0.886319
0.122253 0.156083 0.886925
0.123908 0.15656 0.887471
0.125596 0.15708 0.888297
0.127229 0.157522 0.888601
0.128857 0.157956 0.888856
0.130472 0.158372 0.888992
0.132094 0.158795 0.889172
0.133709 0.159208 0.88929
0.135372 0.159682 0.889792
0.13705 0.160172 0.890394
0.138772 0.160715 0.891332
0.140558 0.161332 0.892739
0.142381 0.16199 0.894394
0.144235 0.162679 0.896236
0.146148 0.163433 0.898478
0.148045 0.164159 0.900539
0.149899 0.164829 0.902229
0.151893 0.165655 0.904888
0.153993 0.166595 0.908244
0.156075 0.167504 0.911391
0.00953143 0.133647 0.916215
0.0111485 0.133951 0.915465
0.0127648 0.134228 0.914503
0.0143802 0.13445 0.91311
0.0159921 0.134641 0.911482
0.0175992 0.13481 0.909687
0.0192008 0.134968 0.907814
0.0207974 0.135162 0.906246
0.0223892 0.135354 0.904657
0.0239751 0.135521 0.902895
0.0255572 0.135713 0.901328
0.0271412 0.135999 0.900496
0.0287226 0.136279 0.89963
0.0303032 0.136578 0.898906
0.0318882 0.136934 0.89863
0.0334693 0.137263 0.898142
0.0350463 0.137568 0.897477
0.0366199 0.13786 0.896719
0.0381926 0.138161 0.896031
0.0397611 0.138446 0.895226
0.0413325 0.13876 0.894638
0.0429033 0.139078 0.894089
0.0444816 0.139439 0.89386
0.0460621 0.139812 0.893726
0.0476522 0.140228 0.893902
0.0492676 0.140746 0.894835
0.0509764 0.141624 0.898423
0.0527258 0.142615 0.902814
0.0544898 0.143608 0.907193
0.0562489 0.144535 0.911061
0.0579888 0.145354 0.914124
0.0596443 0.145866 0.914929
0.0612915 0.146342 0.915472
0.0629524 0.146853 0.916268
0.0646104 0.147348 0.916937
0.0662797 0.147868 0.917781
0.0679585 0.148406 0.918749
0.0696284 0.148911 0.919477
0.0713241 0.149477 0.920631
0.0729514 0.149859 0.920473
0.0745461 0.15016 0.919744
0.0761003 0.150368 0.918357
0.0776588 0.150594 0.91711
0.079176 0.150734 0.915258
0.0807614 0.151037 0.914563
0.0823085 0.15126 0.913314
0.083828 0.151431 0.911708
0.085311 0.151535 0.90964
0.0867657 0.151592 0.907262
0.088191 0.151602 0.904579
0.0896381 0.151671 0.902308
0.091082 0.151746 0.900087
0.0925702 0.151916 0.898534
0.0940811 0.152136 0.897329
0.0956407 0.152451 0.896775
0.0972256 0.152813 0.896546
0.0988715 0.153284 0.897049
0.100466 0.153662 0.896927
0.10207 0.154056 0.896906
0.103658 0.154423 0.896707
0.105188 0.154695 0.895873
0.106638 0.154839 0.894192
0.108112 0.155029 0.892817
0.109561 0.155185 0.89123
0.110981 0.155302 0.88939
0.112479 0.155545 0.888394
0.114018 0.155855 0.887844
0.11558 0.1562 0.887523
0.117141 0.156546 0.887209
0.118748 0.156959 0.887335
0.120338 0.157347 0.887292
0.121965 0.157785 0.887579
0.123618 0.158259 0.888097
0.125298 0.158768 0.888833
0.126943 0.159227 0.889243
0.12861 0.159711 0.889816
0.130265 0.160179 0.890276
0.131919 0.160642 0.890706
0.133562 0.16109 0.891032
0.13523 0.161568 0.891549
0.136907 0.162055 0.892122
0.138621 0.162586 0.892968
0.140408 0.163205 0.894361
0.142234 0.163867 0.896016
0.14413 0.164608 0.898165
0.146077 0.165404 0.900639
0.148039 0.16621 0.903159
0.149947 0.166943 0.905215
0.151966 0.1678 0.90803
0.154045 0.168716 0.911197
0.156099 0.169595 0.914115
0.159251 0.169634 0.922121
0.158116 0.170421 0.916692
0.00913068 0.135215 0.915756
0.010746 0.135547 0.91523
0.0123622 0.135835 0.914368
0.0139773 0.136088 0.913233
0.01559 0.136294 0.911738
0.0171989 0.136459 0.909937
0.018802 0.136612 0.908051
0.0204 0.136801 0.906446
0.0219926 0.136964 0.904658
0.0235797 0.137128 0.902889
0.0251636 0.13733 0.90142
0.0267485 0.137614 0.900583
0.0283309 0.137895 0.89973
0.0299138 0.138206 0.899108
0.0314996 0.138562 0.898829
0.0330819 0.138891 0.898346
0.0346599 0.139196 0.897682
0.0362344 0.139487 0.896923
0.0378084 0.139788 0.896235
0.0393758 0.140059 0.895331
0.0409455 0.140357 0.894637
0.0425144 0.14066 0.893979
0.04409 0.141006 0.893639
0.0456681 0.141366 0.89341
0.0472578 0.141781 0.893579
0.0488669 0.142276 0.894326
0.0506031 0.143281 0.898793
0.052379 0.144386 0.903957
0.0541677 0.145478 0.908994
0.0559426 0.146462 0.91322
0.0576659 0.14722 0.915799
0.0592872 0.14761 0.915711
0.060907 0.147994 0.915588
0.0625429 0.148429 0.915819
0.0641801 0.148864 0.916053
0.0658314 0.149336 0.916552
0.0675068 0.149872 0.917492
0.0691686 0.150361 0.9181
0.0708571 0.150915 0.919161
0.0724938 0.151326 0.919207
0.0741001 0.151658 0.918706
0.075668 0.151899 0.917566
0.0772474 0.152175 0.916675
0.0787922 0.152374 0.915261
0.0803921 0.152709 0.914787
0.0819628 0.15298 0.913879
0.0835003 0.153184 0.912512
0.085011 0.153338 0.910811
0.0864921 0.15344 0.908763
0.0879448 0.153495 0.906407
0.0894045 0.153577 0.904246
0.0908679 0.153679 0.902227
0.09236 0.153846 0.900662
0.0938757 0.154065 0.89946
0.0954532 0.154406 0.899077
0.0970928 0.154861 0.899464
0.0987661 0.155375 0.900235
