ply
format ascii 1.0
element vertex 1737
property float x
property float y
property float z
end_header
0.0106342 -0.344644 1.07979
0.0121684 -0.344666 1.07858
0.013704 -0.344757 1.0776
0.0152411 -0.3449 1.0768
0.0167778 -0.345063 1.07606
0.0183155 -0.34526 1.07544
0.0198503 -0.34544 1.07476
0.0213923 -0.345708 1.07437
0.0229394 -0.346032 1.07417
0.0244868 -0.34636 1.07397
0.0260381 -0.34672 1.07388
0.0276039 -0.347199 1.07418
0.0291873 -0.347804 1.07489
0.0308036 -0.348634 1.07632
0.0324406 -0.349577 1.07812
0.0341065 -0.350676 1.08042
0.0357988 -0.351897 1.0831
0.0375015 -0.353125 1.0858
0.0392016 -0.354275 1.08824
0.0409123 -0.355437 1.09071
0.0426226 -0.356544 1.09299
0.0443209 -0.357536 1.0949
0.0460183 -0.358484 1.09666
0.0519924 -0.357896 1.08969
0.0533878 -0.357334 1.08664
0.054818 -0.356982 1.08426
0.0562537 -0.356688 1.08208
0.0577245 -0.356581 1.08049
0.0591733 -0.356397 1.07866
0.0606477 -0.356347 1.07726
0.0621102 -0.356263 1.07576
0.0635514 -0.356109 1.07404
0.0649781 -0.355916 1.0722
0.0664004 -0.355728 1.07037
0.0678105 -0.355512 1.06847
0.0692239 -0.35533 1.06668
0.0706539 -0.35523 1.06515
0.072081 -0.355134 1.06363
0.0735313 -0.355137 1.06243
0.0750061 -0.355239 1.06154
0.0765336 -0.355531 1.06124
0.0780719 -0.355861 1.06106
0.0796312 -0.356261 1.0611
0.081152 -0.356532 1.06074
0.0826666 -0.356785 1.06032
0.084149 -0.356937 1.05959
0.0856237 -0.35707 1.05881
0.0870787 -0.357149 1.05786
0.0885686 -0.357341 1.05725
0.0900651 -0.357557 1.05673
0.0915551 -0.357756 1.05615
0.0930657 -0.35802 1.05577
0.0946181 -0.358405 1.05577
0.0961734 -0.358797 1.05578
0.0977217 -0.359167 1.05573
0.0992993 -0.359617 1.05592
0.100856 -0.360005 1.05593
0.1024 -0.36036 1.05583
0.103944 -0.360714 1.05572
0.105488 -0.361067 1.05562
0.107023 -0.361393 1.05543
0.108569 -0.36175 1.05533
0.110116 -0.362108 1.05524
0.111662 -0.362464 1.05515
0.113285 -0.363007 1.05561
0.114941 -0.363626 1.0563
0.116648 -0.364362 1.05735
0.118413 -0.365224 1.05877
0.120182 -0.366086 1.06018
0.121899 -0.366815 1.06119
0.12363 -0.367567 1.06227
0.125394 -0.368384 1.06353
0.127171 -0.36922 1.06486
0.129017 -0.370201 1.0666
0.130886 -0.371218 1.06845
0.132701 -0.372103 1.06991
-0.0124111 -0.342132 1.09647
-0.0108313 -0.34232 1.09578
-0.00925152 -0.342375 1.09464
-0.00767478 -0.342383 1.09334
-0.00610168 -0.34225 1.09157
-0.0045335 -0.342205 1.0901
-0.00296985 -0.342137 1.08855
-0.00140937 -0.342157 1.0873
0.0001478 -0.34218 1.08608
0.00170536 -0.342346 1.08533
0.00326063 -0.342499 1.08454
0.00481748 -0.342742 1.08405
0.00637057 -0.342925 1.08336
0.00791558 -0.34298 1.08225
0.00945329 -0.342961 1.08089
0.0109885 -0.342964 1.07961
0.0125212 -0.342986 1.0784
0.0140536 -0.34305 1.07733
0.0155897 -0.343197 1.07653
0.0171275 -0.343388 1.07589
0.0186644 -0.343586 1.07526
0.0202008 -0.343795 1.07468
0.0217452 -0.344095 1.07439
0.0232921 -0.344423 1.0742
0.0248392 -0.34475 1.074
0.0263892 -0.345105 1.0739
0.0279474 -0.345522 1.074
0.0295224 -0.346063 1.0745
0.031137 -0.346882 1.07591
0.0327771 -0.347847 1.07779
0.0344485 -0.34898 1.08021
0.0361513 -0.350265 1.08312
0.0378605 -0.351525 1.08594
0.039567 -0.352706 1.0885
0.0412918 -0.353942 1.09122
0.0430099 -0.355083 1.09363
0.0447142 -0.356097 1.09562
0.0464136 -0.357045 1.0974
0.0477025 -0.359325 1.09808
0.0480804 -0.357783 1.09849
0.0491915 -0.359114 1.09613
0.0496321 -0.357903 1.09759
0.051071 -0.357465 1.0949
0.0524985 -0.357011 1.09217
0.0538814 -0.356383 1.08888
0.0552816 -0.355883 1.08602
0.0566952 -0.355484 1.08348
0.0581522 -0.355313 1.08168
0.0596014 -0.35513 1.07985
0.0610754 -0.355076 1.07842
0.0625454 -0.355022 1.07701
0.063981 -0.354844 1.0752
0.0654144 -0.354678 1.07343
0.0668351 -0.354483 1.07158
0.0682457 -0.354269 1.06967
0.0696526 -0.354062 1.06779
0.0710909 -0.353992 1.06634
0.0725188 -0.353898 1.06483
0.0739708 -0.353906 1.06363
0.075448 -0.354013 1.06275
0.0769846 -0.354331 1.06254
0.0785162 -0.354634 1.06227
0.0800744 -0.355024 1.06228
0.0815867 -0.355263 1.06182
0.0830923 -0.355484 1.0613
0.084566 -0.355607 1.06047
0.0860403 -0.355738 1.05968
0.0874871 -0.35579 1.05864
0.0889782 -0.355985 1.05804
0.0904773 -0.356207 1.05753
0.0919804 -0.356444 1.05707
0.0934941 -0.356714 1.05671
0.095048 -0.3571 1.05671
0.0966026 -0.357486 1.05671
0.0981594 -0.357877 1.05672
0.0997383 -0.358327 1.05691
0.101308 -0.358749 1.05701
0.102878 -0.359168 1.05711
0.104438 -0.359557 1.05711
0.105973 -0.359883 1.05692
0.107484 -0.360144 1.05654
0.109015 -0.360461 1.05632
0.110561 -0.360812 1.05621
0.112111 -0.361176 1.05613
0.113762 -0.361784 1.0568
0.115448 -0.362469 1.0577
0.117172 -0.363236 1.05884
0.118926 -0.364066 1.06017
0.120684 -0.364894 1.06148
0.122392 -0.365593 1.06241
0.124124 -0.366341 1.06348
0.12589 -0.367157 1.06475
0.127658 -0.367967 1.066
0.129519 -0.368972 1.06783
0.131389 -0.369981 1.06967
0.133192 -0.370834 1.07104
-0.0136265 -0.340483 1.0978
-0.0120453 -0.340706 1.09722
-0.0104646 -0.340873 1.09646
-0.00888441 -0.340908 1.09524
-0.0073074 -0.340893 1.09386
-0.00573456 -0.340762 1.09208
-0.00416666 -0.340689 1.09051
-0.00260348 -0.340622 1.08896
-0.00104361 -0.340616 1.08762
0.00051296 -0.340639 1.08639
0.00206956 -0.340781 1.08555
0.00362335 -0.340903 1.08466
0.00517834 -0.341112 1.08405
0.00672929 -0.341265 1.08326
0.00827174 -0.341294 1.08206
0.00980969 -0.341304 1.08079
0.0113456 -0.341338 1.07961
0.0128794 -0.341391 1.07849
0.0144112 -0.341457 1.07742
0.0159488 -0.341632 1.07671
0.0174864 -0.341827 1.07608
0.0190232 -0.342029 1.07547
0.0205598 -0.342243 1.0749
0.0221068 -0.342571 1.0747
0.0236537 -0.342898 1.07451
0.0252008 -0.343225 1.07431
0.0267477 -0.343553 1.07412
0.0283016 -0.343937 1.07411
0.0298756 -0.344469 1.07459
0.0314861 -0.345253 1.0759
0.033127 -0.346217 1.07779
0.034808 -0.347408 1.08041
0.036522 -0.348755 1.08354
0.0382343 -0.35002 1.0864
0.0399473 -0.351228 1.08905
0.0416789 -0.352491 1.09188
0.0434017 -0.353645 1.09435
0.0451072 -0.354654 1.09634
0.0468057 -0.355585 1.09807
0.0484681 -0.356293 1.09907
0.0500527 -0.356581 1.09871
0.0515398 -0.356387 1.09679
0.0529923 -0.356051 1.09442
0.0543863 -0.355471 1.09127
0.0557752 -0.354913 1.0882
0.0571703 -0.354424 1.08536
0.0586149 -0.354193 1.08336
0.0600581 -0.35398 1.08142
0.0615252 -0.353893 1.07988
0.0629894 -0.353811 1.07836
0.0644238 -0.353627 1.07653
0.0658507 -0.353434 1.07466
0.0672631 -0.353206 1.07269
0.0686739 -0.352994 1.07078
0.0700805 -0.352786 1.06889
0.0715221 -0.352727 1.06747
0.072968 -0.352697 1.06615
0.0744383 -0.352767 1.06514
0.0759257 -0.352905 1.06435
0.077465 -0.353225 1.06414
0.0789982 -0.353526 1.06387
0.080549 -0.353886 1.06378
0.082053 -0.354092 1.06321
0.0835507 -0.354283 1.06259
0.0850173 -0.35438 1.06168
0.0864723 -0.354449 1.06069
0.0879082 -0.354468 1.05954
0.0893894 -0.354631 1.05884
0.0908811 -0.35483 1.05826
0.0923849 -0.355068 1.05779
0.0939193 -0.355396 1.05761
0.095484 -0.355809 1.05769
0.0970502 -0.356224 1.05778
0.0986292 -0.356672 1.05797
0.100222 -0.357153 1.05826
0.101817 -0.357637 1.05856
0.103405 -0.358098 1.05878
0.104969 -0.358494 1.05881
0.106496 -0.358792 1.05853
0.108005 -0.359044 1.05811
0.109512 -0.359294 1.05769
0.111047 -0.359615 1.05748
0.112602 -0.359985 1.05743
0.114258 -0.3606 1.05811
0.115949 -0.361289 1.05903
0.117672 -0.362049 1.06016
0.119415 -0.362845 1.06139
0.121172 -0.363661 1.06268
0.12288 -0.364356 1.0636
0.124643 -0.365167 1.06486
0.126431 -0.366024 1.06627
0.128219 -0.36687 1.06763
0.130071 -0.367847 1.06938
0.131915 -0.368792 1.07104
0.13486 -0.372091 1.07976
-0.0132592 -0.338995 1.09835
-0.0116783 -0.339239 1.09785
-0.0100969 -0.33939 1.09702
-0.00851702 -0.339449 1.09588
-0.0069398 -0.339406 1.09439
-0.00536719 -0.339303 1.0927
-0.00379956 -0.339205 1.09103
-0.00223655 -0.339137 1.08947
-0.000677509 -0.339102 1.08803
0.000878756 -0.339127 1.08679
0.00243358 -0.339212 1.08576
0.00398568 -0.339302 1.08475
0.00553864 -0.339477 1.08403
0.00708839 -0.339622 1.08321
0.00862994 -0.339655 1.08201
0.010169 -0.339703 1.08087
0.0117062 -0.339772 1.0798
0.0132414 -0.339852 1.07877
0.014773 -0.339922 1.07771
0.0163103 -0.340098 1.077
0.0178481 -0.340298 1.07638
0.0193849 -0.340503 1.07578
0.0209214 -0.340718 1.07521
0.0224684 -0.341046 1.07501
0.0240154 -0.341373 1.07482
0.0255624 -0.3417 1.07462
0.0271093 -0.342028 1.07443
0.0286596 -0.342382 1.07432
0.0302336 -0.342912 1.0748
0.0318443 -0.343693 1.0761
0.0334903 -0.344684 1.07809
0.0351777 -0.345906 1.08084
0.0369027 -0.347309 1.08417
0.0386219 -0.348601 1.08713
0.0403408 -0.349828 1.08987
0.0420737 -0.351081 1.09268
0.0437928 -0.3522 1.09505
0.0454994 -0.353202 1.09703
0.0471987 -0.354127 1.09875
0.0488599 -0.354821 1.09971
0.0504731 -0.355253 1.09982
0.052004 -0.355273 1.09859
0.0534792 -0.355043 1.09655
0.0549038 -0.354603 1.09383
0.056294 -0.354044 1.09074
0.0576718 -0.353472 1.08761
0.0590982 -0.353153 1.08531
0.0605357 -0.352911 1.08326
0.0619898 -0.352764 1.08152
0.0634539 -0.352678 1.07998
0.0648756 -0.352439 1.07796
0.0662958 -0.352219 1.076
0.0677005 -0.35196 1.07392
0.0691108 -0.351746 1.07199
0.0705108 -0.351514 1.07
0.071962 -0.351489 1.06868
0.0734186 -0.351496 1.06747
0.0749004 -0.351602 1.06657
0.0763997 -0.351776 1.0659
0.0779417 -0.352099 1.06569
0.0794766 -0.352399 1.06541
0.08102 -0.352727 1.06523
0.0825257 -0.352935 1.06466
0.0840162 -0.353098 1.06395
0.0854738 -0.353165 1.06294
0.0869188 -0.353201 1.06183
0.0883527 -0.353212 1.06065
0.0898219 -0.353337 1.05983
0.0913129 -0.353532 1.05923
0.0928166 -0.353767 1.05876
0.0943619 -0.354123 1.05866
0.095919 -0.354511 1.05867
0.0974985 -0.354959 1.05886
0.0990824 -0.355416 1.05908
0.100701 -0.355961 1.05957
0.102314 -0.356487 1.05999
0.103927 -0.35701 1.06041
0.105506 -0.357438 1.06053
0.107036 -0.357736 1.06025
0.108533 -0.357954 1.05973
0.11004 -0.358199 1.05929
0.111576 -0.358517 1.05907
0.113134 -0.35889 1.05902
0.114809 -0.359543 1.05983
0.116502 -0.36023 1.06074
0.118201 -0.360924 1.06167
0.119928 -0.361674 1.06277
0.121671 -0.362452 1.06395
0.123369 -0.363117 1.06479
0.125152 -0.363966 1.06617
0.126962 -0.364864 1.06771
0.128757 -0.365718 1.06911
0.130599 -0.366663 1.07077
0.132483 -0.367685 1.07267
-0.012892 -0.337514 1.09893
-0.0113105 -0.337742 1.09836
-0.00972881 -0.337876 1.09748
-0.00814915 -0.33796 1.09641
-0.00657216 -0.337919 1.09493
-0.00499952 -0.337853 1.09336
-0.00343199 -0.337755 1.09168
-0.00186944 -0.337658 1.09001
-0.000311304 -0.337589 1.08844
0.00124327 -0.337555 1.087
0.00279551 -0.337584 1.08577
0.00434559 -0.337645 1.08465
0.00589607 -0.337786 1.08382
0.00744327 -0.337904 1.0829
0.00898487 -0.337965 1.0818
0.0105247 -0.338047 1.08076
0.0120637 -0.338157 1.07982
0.0136025 -0.338302 1.07901
0.0151358 -0.338402 1.07804
0.016673 -0.338578 1.07733
0.0182103 -0.338774 1.0767
0.0197467 -0.338978 1.07609
0.021283 -0.339193 1.07552
0.02283 -0.339521 1.07532
0.024377 -0.339848 1.07513
0.025924 -0.340176 1.07493
0.0274709 -0.340503 1.07474
0.0290178 -0.34083 1.07454
0.030592 -0.34136 1.07502
0.0322034 -0.342139 1.07633
0.033855 -0.343161 1.07844
0.0355485 -0.34441 1.08129
0.0372799 -0.345836 1.08472
0.0390047 -0.347149 1.08777
0.0407247 -0.348368 1.09049
0.0424487 -0.349554 1.0931
0.044157 -0.3506 1.09525
0.0458636 -0.351596 1.09722
0.047558 -0.352489 1.09884
0.0492206 -0.353187 1.09983
0.0508404 -0.353652 1.10005
0.0524091 -0.353861 1.09943
0.0539005 -0.353711 1.09763
0.055349 -0.353385 1.09527
0.0567673 -0.352955 1.09258
0.0581654 -0.352471 1.08972
0.0595857 -0.352121 1.0873
0.0610304 -0.351904 1.08532
0.0624793 -0.351728 1.08348
0.0639296 -0.35158 1.08173
0.0653448 -0.351313 1.0796
0.0667499 -0.351031 1.07743
0.0681412 -0.35072 1.07517
0.0695503 -0.350502 1.07321
0.0709507 -0.350272 1.07123
0.0724025 -0.350247 1.0699
0.0738544 -0.350235 1.06862
0.0753458 -0.350372 1.06782
0.0768477 -0.350552 1.06715
0.078392 -0.350877 1.06695
0.0799295 -0.351181 1.06668
0.0814829 -0.351536 1.06658
0.0829984 -0.351771 1.0661
0.0844913 -0.351938 1.06539
0.0859501 -0.352005 1.06438
0.0873857 -0.352009 1.06317
0.0888166 -0.35201 1.06195
0.0902568 -0.352047 1.06084
0.0917267 -0.352178 1.06004
0.0932091 -0.352352 1.05937
0.0947637 -0.352732 1.05935
0.0963137 -0.353098 1.05929
0.0979199 -0.353617 1.0597
0.0995401 -0.354168 1.06022
0.101197 -0.354811 1.06101
0.102825 -0.355371 1.06155
0.104465 -0.355953 1.06216
0.106058 -0.356411 1.06237
0.107587 -0.356703 1.06207
0.109088 -0.356924 1.06155
0.110597 -0.357169 1.0611
0.112138 -0.357495 1.06091
0.113711 -0.357896 1.06095
0.115375 -0.358514 1.06165
0.117068 -0.359193 1.06254
0.118769 -0.359882 1.06346
0.120485 -0.360598 1.06446
0.122206 -0.361318 1.06547
0.123918 -0.362008 1.06638
0.125707 -0.362863 1.0678
0.127509 -0.363734 1.06926
0.129339 -0.364654 1.07086
0.131223 -0.365681 1.07279
0.133128 -0.366738 1.0748
-0.0109432 -0.336281 1.09901
-0.00936132 -0.336417 1.09813
-0.00778161 -0.33655 1.09723
-0.00620426 -0.336517 1.09576
-0.00463128 -0.336486 1.0943
-0.0030635 -0.336364 1.09253
-0.00150064 -0.336265 1.09085
5.69904e-05 -0.336162 1.08915
0.00161068 -0.336097 1.08759
0.0031611 -0.336069 1.08616
0.00471075 -0.336126 1.08503
0.00625722 -0.336185 1.0839
0.00780077 -0.336247 1.08279
0.00934139 -0.33631 1.08169
0.0108824 -0.336428 1.08077
0.0124209 -0.336546 1.07986
0.0139638 -0.336754 1.07926
0.015499 -0.336884 1.07839
0.0170359 -0.33706 1.07768
0.0185727 -0.337253 1.07702
0.0201088 -0.337455 1.0764
0.0216446 -0.337668 1.07583
0.0231917 -0.337996 1.07563
0.0247386 -0.338323 1.07544
0.0262856 -0.338651 1.07524
0.0278325 -0.338978 1.07505
0.0293795 -0.339305 1.07485
0.0309575 -0.339861 1.07542
0.0325739 -0.340667 1.07683
0.0342359 -0.341747 1.07914
0.0359407 -0.343052 1.0822
0.0376757 -0.34448 1.08566
0.039398 -0.345757 1.0886
0.0411141 -0.346936 1.09122
0.042829 -0.348056 1.09362
0.0445228 -0.349011 1.09548
0.0462235 -0.349967 1.09733
0.0479173 -0.350851 1.09894
0.0495811 -0.351553 1.09994
0.0512023 -0.352026 1.10019
0.0528093 -0.352423 1.10018
0.0543252 -0.352389 1.09876
0.0557977 -0.352175 1.09676
0.0572372 -0.351839 1.09436
0.0586554 -0.351443 1.09176
0.0600705 -0.351065 1.08924
0.0615244 -0.350882 1.08736
0.0629751 -0.350708 1.0855
0.0644256 -0.350554 1.08373
0.0658401 -0.35028 1.08156
0.0672312 -0.34994 1.07919
0.068614 -0.349596 1.07681
0.0700159 -0.349348 1.07474
0.0714001 -0.349058 1.07255
0.0728442 -0.349004 1.07112
0.0743031 -0.349015 1.06991
0.0758042 -0.349182 1.0692
0.0772922 -0.349309 1.06836
0.0788454 -0.34966 1.06824
0.0803833 -0.34996 1.06796
0.081939 -0.350318 1.06786
0.0834499 -0.350534 1.06731
0.0849717 -0.350787 1.06688
0.0864327 -0.350857 1.06587
0.0878694 -0.350862 1.06466
0.0892922 -0.350836 1.06334
0.0907137 -0.350816 1.06205
0.0921631 -0.350887 1.06105
0.0936327 -0.351022 1.06026
0.0951887 -0.351403 1.06024
0.0967306 -0.351744 1.0601
0.0983612 -0.352325 1.06071
0.100006 -0.352937 1.06142
0.101679 -0.353616 1.06234
0.103323 -0.35421 1.06298
0.104978 -0.354825 1.06369
0.106572 -0.355279 1.06389
0.108115 -0.355602 1.06369
0.109643 -0.355887 1.06336
0.111147 -0.356114 1.06286
0.112702 -0.356468 1.06275
0.114289 -0.356897 1.06287
0.115942 -0.35748 1.06347
0.117614 -0.358101 1.06419
0.119342 -0.358845 1.06528
0.121064 -0.359566 1.0663
0.122789 -0.360286 1.06731
0.124533 -0.361039 1.06843
0.126352 -0.36195 1.07002
0.128145 -0.362791 1.07139
0.129989 -0.363733 1.07307
0.131921 -0.364849 1.07528
0.133885 -0.366018 1.07764
-0.0105744 -0.334752 1.09943
-0.00899276 -0.334899 1.09857
-0.00741352 -0.335081 1.09784
-0.00583606 -0.335088 1.09651
-0.00426259 -0.335093 1.09516
-0.00269415 -0.335003 1.0935
-0.00113145 -0.334874 1.09169
0.000425837 -0.334743 1.08989
0.00197874 -0.334649 1.08822
0.00352816 -0.334593 1.08669
0.00507646 -0.334621 1.08545
0.00662141 -0.334651 1.08422
0.00816147 -0.334656 1.08291
0.00970251 -0.33474 1.08187
0.0112448 -0.334887 1.08105
0.0127854 -0.335041 1.08026
0.0143329 -0.335311 1.07986
0.0158728 -0.335496 1.07917
0.0174103 -0.335672 1.07846
0.0189452 -0.33584 1.07772
0.0204789 -0.336014 1.077
0.022012 -0.336198 1.07632
0.0235562 -0.336497 1.07603
0.0251002 -0.336798 1.07575
0.0266472 -0.337126 1.07555
0.0281941 -0.337453 1.07536
0.0297446 -0.337807 1.07525
0.0313309 -0.338416 1.07601
0.0329571 -0.339281 1.07762
0.0346344 -0.340447 1.08024
0.0363482 -0.341788 1.08343
0.0380866 -0.343212 1.0869
0.0398069 -0.344455 1.08975
0.0415149 -0.345568 1.09215
0.0432108 -0.346565 1.09417
0.0448986 -0.347477 1.09589
0.0465882 -0.348365 1.09753
0.0482766 -0.349217 1.09904
0.0499456 -0.349943 1.10013
0.0515809 -0.350482 1.1006
0.0532153 -0.351009 1.10102
0.0547542 -0.351081 1.09995
0.0562494 -0.35097 1.09827
0.0577102 -0.350727 1.09616
0.0591508 -0.350425 1.09386
0.06057 -0.350061 1.09136
0.0620423 -0.349947 1.0897
0.063496 -0.349777 1.08785
0.0649335 -0.349564 1.08586
0.0663398 -0.349253 1.08356
0.0677221 -0.348877 1.08106
0.0690904 -0.348476 1.07848
0.0704843 -0.348197 1.0763
0.071867 -0.347901 1.07407
0.0733107 -0.347842 1.07262
0.07477 -0.347851 1.07139
0.0762818 -0.348048 1.07077
0.0777774 -0.348197 1.07
0.0793419 -0.348578 1.06998
0.0808723 -0.348846 1.06959
0.0824216 -0.349177 1.0694
0.0839344 -0.349394 1.06885
0.0854608 -0.349655 1.06845
0.0869167 -0.349707 1.06737
0.088365 -0.349744 1.06625
0.0897908 -0.349723 1.06494
0.0911928 -0.349645 1.06346
0.0926415 -0.34971 1.06244
0.0941107 -0.349841 1.06162
0.0956678 -0.35022 1.0616
0.0972128 -0.350565 1.06147
0.098867 -0.351202 1.06226
0.100503 -0.351785 1.06288
0.102178 -0.352461 1.06379
0.103826 -0.353057 1.06445
0.105483 -0.353672 1.06516
0.10707 -0.3541 1.06529
0.108616 -0.354427 1.06509
0.110159 -0.354744 1.06486
0.11168 -0.355009 1.06447
0.11324 -0.355371 1.06439
0.114828 -0.355797 1.0645
0.116482 -0.356374 1.06509
0.118157 -0.356996 1.06581
0.119891 -0.357746 1.06693
0.121648 -0.358539 1.06817
0.123408 -0.359328 1.06941
0.125198 -0.360174 1.07081
0.127036 -0.361113 1.0725
0.128819 -0.36192 1.07377
0.130679 -0.362886 1.07553
0.132651 -0.364074 1.07798
0.13468 -0.365365 1.08072
-0.0102042 -0.333133 1.09952
-0.00862353 -0.333315 1.09879
-0.00704479 -0.333558 1.09827
-0.00546755 -0.333625 1.09714
-0.00389366 -0.333672 1.09593
-0.00232464 -0.333608 1.09435
-0.000761801 -0.33348 1.09254
0.000795766 -0.333353 1.09074
0.00234824 -0.333238 1.08899
0.00389788 -0.333184 1.08745
0.00544512 -0.333183 1.0861
0.00698854 -0.33318 1.08475
0.00852829 -0.333181 1.08342
0.0100706 -0.333288 1.08246
0.0116132 -0.333437 1.08164
0.0131543 -0.333596 1.08086
0.0147023 -0.333866 1.08046
0.0162424 -0.334052 1.07978
0.0177804 -0.334231 1.07907
0.0193134 -0.334377 1.07825
0.0208474 -0.334552 1.07753
0.0223802 -0.334733 1.07684
0.023921 -0.335001 1.07644
0.0254618 -0.335273 1.07606
0.0270088 -0.335601 1.07586
0.0285558 -0.335928 1.07567
0.0301101 -0.336311 1.07566
0.0317054 -0.336978 1.07662
0.0333508 -0.337963 1.07864
0.0350502 -0.339254 1.0817
0.0367782 -0.340659 1.08513
0.0385208 -0.342079 1.08861
0.0402379 -0.343277 1.09132
0.0419317 -0.344287 1.09339
0.0436032 -0.345131 1.0949
0.0452759 -0.34595 1.09633
0.0469479 -0.346738 1.09764
0.0486233 -0.347519 1.09893
0.0502856 -0.34821 1.09991
0.0519335 -0.348812 1.10059
0.0535943 -0.349463 1.10143
0.0551544 -0.349636 1.10069
0.0566709 -0.349621 1.09932
0.0581527 -0.349473 1.09751
0.0596172 -0.349272 1.09553
0.0610403 -0.348922 1.09307
0.0625388 -0.348911 1.09173
0.0640026 -0.348776 1.08998
0.0654413 -0.348562 1.08798
0.0668406 -0.34822 1.08556
0.0682232 -0.347842 1.08303
0.0695767 -0.347384 1.08025
0.0709706 -0.347103 1.07805
0.0723456 -0.346777 1.07572
0.0737899 -0.346717 1.07425
0.0752347 -0.346672 1.07284
0.0767412 -0.346847 1.07214
0.0782471 -0.347026 1.07146
0.0798309 -0.347462 1.07162
0.0813624 -0.347729 1.07122
0.0829253 -0.348095 1.07115
0.0844649 -0.348388 1.07084
0.0859858 -0.348626 1.07036
0.0874347 -0.348651 1.06919
0.0888871 -0.348696 1.06808
0.0903228 -0.3487 1.06685
0.0917167 -0.348595 1.06527
0.0931666 -0.34866 1.06424
0.0946373 -0.34879 1.06342
0.0961884 -0.349145 1.06332
0.0977249 -0.349461 1.06309
0.099358 -0.350034 1.06368
0.100972 -0.350549 1.06409
0.102635 -0.351188 1.06489
0.104272 -0.351753 1.06545
0.105932 -0.352368 1.06617
0.10752 -0.352799 1.0663
0.10909 -0.353179 1.06627
0.110636 -0.353502 1.06606
0.112196 -0.353859 1.06596
0.113762 -0.354228 1.0659
0.115376 -0.35471 1.06619
0.117034 -0.35529 1.06678
0.118736 -0.355966 1.06768
0.12048 -0.356729 1.06884
0.12227 -0.357587 1.0703
0.124054 -0.35842 1.07167
0.125893 -0.359363 1.07339
0.127728 -0.360283 1.07502
0.129504 -0.361066 1.07623
0.131411 -0.362116 1.07826
0.133452 -0.363437 1.08112
0.135531 -0.364815 1.08416
-0.00825452 -0.33176 1.09911
-0.00667613 -0.332038 1.09871
-0.00509886 -0.332158 1.09776
-0.00352455 -0.33224 1.09667
-0.00195498 -0.332206 1.09518
-0.000391201 -0.332107 1.09347
0.00116697 -0.331989 1.09169
0.00271907 -0.331852 1.08985
0.00426898 -0.331799 1.0883
0.00581534 -0.331768 1.08685
0.00735491 -0.331687 1.08521
0.0088909 -0.331629 1.08367
0.0104344 -0.331762 1.08279
0.0119751 -0.331889 1.08189
0.0135166 -0.332057 1.08114
0.0150661 -0.332349 1.08082
0.0166104 -0.332584 1.0803
0.0181486 -0.332766 1.0796
0.0196824 -0.33292 1.0788
0.0212166 -0.333096 1.07808
0.0227488 -0.33327 1.07736
0.0242861 -0.333505 1.07685
0.0258234 -0.333748 1.07636
0.0273704 -0.334076 1.07617
0.0289174 -0.334403 1.07598
0.0304759 -0.334815 1.07607
0.0320695 -0.335465 1.07697
0.0337426 -0.336625 1.07961
0.0354652 -0.338046 1.08313
0.0372087 -0.339521 1.08682
0.0389555 -0.340938 1.0903
0.0406762 -0.342132 1.09302
0.0423359 -0.342927 1.09438
0.0439803 -0.343609 1.09535
0.0456356 -0.344329 1.09645
0.0472888 -0.345015 1.09743
0.0489515 -0.345731 1.09851
0.0506174 -0.346442 1.09956
0.052271 -0.347074 1.10035
0.0539464 -0.347793 1.10143
0.0555211 -0.348035 1.10091
0.0570575 -0.348114 1.09985
0.0585532 -0.348029 1.09824
0.0600403 -0.347926 1.09658
0.061481 -0.347653 1.09435
0.0630043 -0.347739 1.09333
0.0644912 -0.347691 1.09186
0.0659406 -0.347515 1.08997
0.0673481 -0.347201 1.08763
0.0687333 -0.346829 1.08511
0.0700877 -0.346373 1.08231
0.071476 -0.346067 1.08002
0.072859 -0.345768 1.07775
0.0743069 -0.345714 1.0763
0.0757644 -0.345706 1.075
0.0772913 -0.345941 1.07449
0.0788199 -0.346185 1.07402
0.0804197 -0.34666 1.0743
0.0819601 -0.346942 1.07395
0.0835242 -0.3473 1.07385
0.0850658 -0.347588 1.07352
0.0865685 -0.347761 1.07282
0.0880008 -0.347729 1.07146
0.0894444 -0.347742 1.07024
0.0908705 -0.347714 1.06889
0.0922556 -0.347579 1.06721
0.0937084 -0.347647 1.06618
0.0951946 -0.347814 1.06547
0.0967398 -0.348146 1.0653
0.0982661 -0.348427 1.06496
0.0998664 -0.348905 1.06524
0.101466 -0.349376 1.06551
0.103095 -0.349922 1.06602
0.10472 -0.35045 1.06646
0.106381 -0.351062 1.06718
0.107982 -0.351519 1.06739
0.109578 -0.351963 1.06757
0.111161 -0.352371 1.06763
0.112751 -0.352793 1.06773
0.114334 -0.353196 1.06777
0.115966 -0.353715 1.06818
0.117614 -0.354263 1.06868
0.119308 -0.354913 1.06949
0.121068 -0.355704 1.07075
0.122867 -0.35657 1.07224
0.124697 -0.357494 1.07391
0.126588 -0.35854 1.07595
0.128462 -0.359533 1.07782
0.130291 -0.360416 1.07934
0.132264 -0.361592 1.08178
0.134348 -0.362982 1.08487
0.136412 -0.364311 1.08776
-0.00630726 -0.330518 1.09915
-0.00472985 -0.330689 1.09838
-0.00315505 -0.330802 1.09739
-0.00158489 -0.3308 1.09601
-2.01632e-05 -0.330733 1.09439
0.00153846 -0.33062 1.09262
0.00309104 -0.330485 1.09078
0.00464132 -0.330431 1.08923
0.0061867 -0.33037 1.08765
0.00772484 -0.330262 1.08591
0.00926101 -0.330205 1.08436
0.0108053 -0.330345 1.08351
0.0123466 -0.330477 1.08262
0.0138886 -0.330646 1.08186
0.0154386 -0.330936 1.08154
0.016983 -0.331169 1.08101
0.0185219 -0.331353 1.08031
0.0200565 -0.331511 1.07952
0.0215911 -0.331688 1.0788
0.0231204 -0.331832 1.07797
0.0246544 -0.332036 1.07735
0.0261882 -0.332249 1.07676
0.0277321 -0.332551 1.07648
0.029279 -0.332878 1.07629
0.0308379 -0.333291 1.07639
0.0324281 -0.333913 1.0772
0.0341326 -0.33527 1.08053
0.0358839 -0.336852 1.08462
0.0376493 -0.338434 1.0887
0.0394056 -0.339878 1.09229
0.0411361 -0.341101 1.09512
0.0427645 -0.341698 1.09581
0.0443824 -0.342222 1.09626
0.046016 -0.342818 1.09694
0.0476458 -0.343379 1.09751
0.049288 -0.34399 1.09823
0.0509406 -0.344636 1.09908
0.0525824 -0.345215 1.0997
0.0542532 -0.345915 1.10072
0.0558458 -0.346247 1.1005
0.0574014 -0.346418 1.09975
0.0589117 -0.346403 1.09836
0.0604274 -0.346426 1.09712
0.0618975 -0.346278 1.0953
0.0634443 -0.346456 1.09457
0.0649489 -0.346476 1.09332
0.0664233 -0.346394 1.09173
0.067858 -0.34618 1.08971
0.0692624 -0.345875 1.08739
0.0706352 -0.345482 1.08479
0.0720331 -0.345205 1.08258
0.0734282 -0.344941 1.08041
0.0748724 -0.344866 1.07887
0.0763419 -0.344889 1.07767
0.0778647 -0.345099 1.07708
0.079415 -0.345402 1.07679
0.0810314 -0.345916 1.0772
0.0825922 -0.34625 1.07702
0.0841625 -0.346613 1.07693
0.0857162 -0.346925 1.07667
0.0872081 -0.347052 1.07582
0.0886139 -0.346934 1.07416
0.0900455 -0.346904 1.07279
0.0914514 -0.346811 1.07123
0.0928264 -0.346643 1.06942
0.0942844 -0.34672 1.06842
0.0957875 -0.346926 1.06783
0.097314 -0.347199 1.06746
0.0988407 -0.347474 1.0671
0.100416 -0.347878 1.06715
0.101973 -0.348232 1.06704
0.103568 -0.348683 1.06724
0.105192 -0.349202 1.06766
0.106844 -0.349786 1.06829
0.108459 -0.350275 1.06861
0.110096 -0.350812 1.06908
0.111721 -0.351316 1.06945
0.113345 -0.351812 1.06978
0.114957 -0.352278 1.07002
0.116595 -0.3528 1.07044
0.118243 -0.35334 1.07092
0.119929 -0.353961 1.07164
0.121691 -0.354746 1.07289
0.123493 -0.35561 1.07438
0.125369 -0.356624 1.07634
0.127298 -0.357736 1.0786
0.129241 -0.358865 1.08091
0.131127 -0.359856 1.08278
0.133129 -0.361076 1.08536
0.135192 -0.362405 1.08827
0.137229 -0.363661 1.09095
0.139606 -0.367939 1.0978
0.139227 -0.364817 1.09331
-0.00593837 -0.328926 1.09934
-0.00436106 -0.329157 1.09877
-0.0027861 -0.329298 1.09789
-0.00121476 -0.329366 1.09674
0.000350872 -0.329338 1.09526
0.00190988 -0.329226 1.09348
0.00346246 -0.329091 1.09162
0.00501268 -0.329029 1.09003
0.0065558 -0.328917 1.08827
0.0080938 -0.328809 1.08652
0.00963148 -0.328781 1.08506
0.011176 -0.328921 1.0842
0.012718 -0.329057 1.08332
0.0142626 -0.329255 1.08267
0.0158133 -0.329545 1.08234
0.0173586 -0.329779 1.08181
0.0188981 -0.329965 1.08111
0.0204332 -0.330124 1.08033
0.0219685 -0.330302 1.07961
0.0234953 -0.33042 1.07868
0.0250263 -0.330596 1.07796
0.0265569 -0.330781 1.07727
0.028097 -0.331052 1.07688
0.0296406 -0.331353 1.07659
0.0311994 -0.331764 1.07669
0.0327825 -0.332333 1.07733
0.0345251 -0.333926 1.08149
0.036313 -0.335714 1.08632
0.0381124 -0.337472 1.09102
0.0398906 -0.339009 1.09495
0.0416029 -0.340094 1.09733
0.04319 -0.340443 1.09718
0.0447755 -0.340783 1.09699
0.0463801 -0.34122 1.09714
0.0479859 -0.341659 1.09729
0.0496081 -0.342172 1.0977
0.0512579 -0.342809 1.09852
0.0528914 -0.343353 1.09902
0.0545553 -0.344025 1.09996
0.0561589 -0.344413 1.09993
0.0577276 -0.344648 1.09939
0.0592526 -0.344704 1.09824
0.0607913 -0.344829 1.09733
0.0622912 -0.344806 1.09592
0.0638539 -0.345047 1.09541
0.0653839 -0.345166 1.09448
0.066877 -0.345154 1.09312
0.0683408 -0.345047 1.09144
0.0697723 -0.34484 1.08943
0.0711731 -0.344544 1.08714
0.0725826 -0.344302 1.08502
0.0739971 -0.344099 1.08305
0.0754439 -0.344024 1.0815
0.0769172 -0.344051 1.08029
0.0784588 -0.344311 1.07986
0.0800685 -0.344792 1.08016
0.0817147 -0.345382 1.08082
0.0833195 -0.345836 1.08103
0.0849249 -0.346287 1.08123
0.0864934 -0.346625 1.08105
0.0879548 -0.346645 1.07983
0.0893418 -0.346459 1.07794
0.0907328 -0.3463 1.07614
0.0920965 -0.346079 1.07414
0.0934414 -0.34582 1.07203
0.094892 -0.345869 1.07092
0.0964005 -0.346081 1.07035
0.0979205 -0.346328 1.06989
0.0994581 -0.346623 1.06959
0.101011 -0.346959 1.06942
0.102537 -0.347224 1.06902
0.1041 -0.347586 1.06894
0.105714 -0.348075 1.06926
0.107343 -0.348596 1.06969
0.108975 -0.349119 1.07012
0.110634 -0.349703 1.07074
0.112295 -0.350286 1.07136
0.113963 -0.350879 1.07201
0.115606 -0.351408 1.07246
0.117284 -0.352012 1.07314
0.118978 -0.352645 1.07391
0.120693 -0.353322 1.07482
0.122463 -0.35411 1.07607
0.124293 -0.35502 1.07772
0.126191 -0.356066 1.07979
0.128131 -0.357189 1.08209
0.130093 -0.358339 1.08448
0.132004 -0.359365 1.08647
0.134002 -0.360558 1.08897
0.135983 -0.361702 1.09132
0.137936 -0.362768 1.09341
0.139862 -0.363768 1.09529
-0.0055695 -0.327371 1.09966
-0.00399206 -0.327631 1.09919
-0.0024169 -0.327798 1.09839
-0.000844842 -0.32791 1.0974
0.000722373 -0.327938 1.09611
0.00228242 -0.327857 1.09443
0.00383547 -0.327723 1.09257
0.00538487 -0.327634 1.09087
0.006928 -0.32752 1.08909
0.0084662 -0.327412 1.08733
0.0100044 -0.32739 1.08588
0.011548 -0.327509 1.08494
0.0130922 -0.327669 1.08415
0.014637 -0.327862 1.08347
0.0161867 -0.328132 1.08307
0.0177327 -0.328368 1.08254
0.0192728 -0.328557 1.08185
0.020808 -0.328712 1.08105
0.0223437 -0.32889 1.08033
0.0238711 -0.329013 1.07941
0.0253995 -0.329162 1.07859
0.0269298 -0.329343 1.07789
0.028466 -0.329583 1.07738
0.030006 -0.329855 1.077
0.0315572 -0.330212 1.0769
0.0331285 -0.3307 1.07727
0.0349176 -0.332577 1.08245
0.0367487 -0.334605 1.08813
0.0385616 -0.336409 1.09302
0.0403678 -0.338077 1.09743
0.0420569 -0.339002 1.09926
0.0436077 -0.339138 1.09838
0.0451759 -0.339378 1.09785
0.0467515 -0.339662 1.09747
0.0483323 -0.339974 1.09719
0.0499344 -0.340391 1.09727
0.0515754 -0.340988 1.09797
0.0531947 -0.341471 1.09827
0.0548483 -0.342101 1.09907
0.056461 -0.342537 1.09921
0.0580621 -0.342919 1.09916
0.0596264 -0.343146 1.09859
0.061192 -0.343382 1.09805
0.0627234 -0.343487 1.09707
0.064294 -0.343755 1.09664
0.0658256 -0.343876 1.09571
0.0673307 -0.343907 1.09449
0.0688301 -0.343929 1.09323
0.070292 -0.343828 1.09157
0.0717384 -0.343689 1.08979
0.0731683 -0.343511 1.08787
0.0745957 -0.343343 1.086
0.0760608 -0.343319 1.08461
0.0775636 -0.343431 1.08368
0.0791211 -0.343728 1.08336
0.0807665 -0.344304 1.08398
0.0824398 -0.344959 1.08485
0.084064 -0.345453 1.08519
0.0856872 -0.345938 1.0855
0.0872723 -0.346306 1.08542
0.0887316 -0.346305 1.08412
0.0901318 -0.346144 1.08229
0.0914964 -0.345896 1.08018
0.0928075 -0.345515 1.07765
0.0941071 -0.345124 1.07508
0.0955235 -0.34507 1.07363
0.0970031 -0.345196 1.07277
0.0984978 -0.345368 1.07206
0.100047 -0.345687 1.07183
0.101593 -0.345996 1.07157
0.103119 -0.346256 1.07115
0.104663 -0.346562 1.07088
0.1063 -0.3471 1.07137
0.107932 -0.34762 1.07179
0.109594 -0.348207 1.07243
0.111284 -0.348855 1.07327
0.112994 -0.349541 1.07422
0.114682 -0.350171 1.07499
0.116346 -0.350735 1.07555
0.118067 -0.351427 1.07651
0.119786 -0.352103 1.07742
0.121528 -0.352824 1.07847
0.123322 -0.353651 1.07986
0.125186 -0.354619 1.08169
0.127081 -0.355641 1.08369
0.129019 -0.356739 1.08593
0.130976 -0.35786 1.08823
0.132892 -0.358882 1.09021
0.13485 -0.359975 1.09242
0.136753 -0.360941 1.09421
0.138637 -0.361855 1.09583
0.140512 -0.362742 1.09736
-0.00362309 -0.326107 1.09962
-0.00204787 -0.32628 1.09884
-0.000475295 -0.326418 1.09793
0.00109288 -0.326484 1.09677
0.00265476 -0.32646 1.09529
0.00420793 -0.326327 1.09342
0.0057577 -0.326241 1.09172
0.00730117 -0.326131 1.08994
0.00883955 -0.326025 1.08818
0.0103768 -0.325983 1.08665
0.0119205 -0.326098 1.08569
0.013463 -0.326231 1.0848
0.0150079 -0.326422 1.08411
0.0165582 -0.326693 1.08371
0.0181074 -0.32696 1.08329
0.0196456 -0.327123 1.08251
0.0211835 -0.327302 1.08178
0.0227194 -0.327479 1.08105
0.0242475 -0.327605 1.08014
0.0257736 -0.327734 1.07925
0.0273036 -0.32791 1.07852
0.0288357 -0.328117 1.0779
0.0303719 -0.328361 1.07742
0.0319151 -0.32866 1.07712
0.0334684 -0.329028 1.07707
0.0352721 -0.330981 1.08255
0.0390207 -0.335391 1.0952
0.0408289 -0.337034 1.09955
0.0424944 -0.337805 1.10086
0.0440319 -0.337861 1.09969
0.0455825 -0.338002 1.09881
0.0471335 -0.338157 1.09799
0.0486955 -0.338376 1.09739
0.0502784 -0.338701 1.09715
0.0519061 -0.339235 1.09764
0.0535109 -0.339655 1.09773
0.0551488 -0.340218 1.09831
0.0567715 -0.340704 1.09862
0.0584065 -0.341235 1.09909
0.0600124 -0.341637 1.09911
0.0616276 -0.342074 1.09925
0.0632063 -0.342362 1.09889
0.0647861 -0.342657 1.09854
0.0663173 -0.342769 1.09758
0.0678537 -0.34291 1.09672
0.0693758 -0.343007 1.09571
0.0708693 -0.343011 1.09439
0.072355 -0.343 1.09302
0.073807 -0.342887 1.09132
0.0752211 -0.342662 1.08924
0.0766984 -0.342667 1.08793
0.0782321 -0.342866 1.08728
0.0798274 -0.343266 1.08731
0.0814956 -0.343893 1.0881
0.0831803 -0.344562 1.08902
0.0847974 -0.345014 1.08921
0.0864066 -0.345438 1.08931
0.0879724 -0.345732 1.08898
0.0894387 -0.34574 1.0877
0.0908474 -0.345592 1.0859
0.0921989 -0.345298 1.08363
0.0934642 -0.344784 1.08063
0.0947042 -0.344225 1.07749
0.0960877 -0.344077 1.07572
0.0975993 -0.344282 1.07511
0.0991017 -0.344467 1.07444
0.100648 -0.344768 1.07415
0.102225 -0.345151 1.07413
0.103756 -0.345413 1.07372
0.105293 -0.345696 1.07337
0.106948 -0.346266 1.07396
0.108606 -0.346839 1.07456
0.110298 -0.347486 1.07539
0.112007 -0.348166 1.07633
0.113737 -0.348889 1.07741
0.115417 -0.349483 1.07807
0.117133 -0.350157 1.07898
0.118882 -0.350897 1.0801
0.120633 -0.35163 1.0812
0.122423 -0.352442 1.08254
0.124265 -0.353356 1.08421
0.1261 -0.354244 1.0858
0.127974 -0.355202 1.0876
0.129893 -0.356241 1.08966
0.131823 -0.35729 1.09174
0.133721 -0.358258 1.09355
0.135601 -0.359176 1.09521
0.137456 -0.360032 1.09666
0.139326 -0.360907 1.09816
0.141175 -0.361731 1.0995
-0.00325374 -0.324594 1.10009
-0.00167939 -0.324718 1.09913
-0.000107435 -0.324844 1.09817
0.0014601 -0.324911 1.09701
0.00302298 -0.324935 1.09569
0.0045775 -0.324848 1.09398
0.00612852 -0.324795 1.09239
0.00767329 -0.324713 1.0907
0.00921491 -0.324662 1.08913
0.0107542 -0.324646 1.08769
0.0122992 -0.324768 1.08674
0.0138442 -0.324922 1.08592
0.0153924 -0.325138 1.08531
0.0169439 -0.325408 1.0849
0.0184926 -0.325655 1.08441
0.0200315 -0.325815 1.08362
0.0215677 -0.325969 1.0828
0.0231039 -0.326142 1.08205
0.0246303 -0.326247 1.08106
0.0261573 -0.326378 1.08017
0.0276882 -0.326557 1.07944
0.0292204 -0.326758 1.0788
0.0307521 -0.326965 1.07818
0.0322875 -0.327208 1.07769
0.0356353 -0.329441 1.08284
0.0395155 -0.334567 1.09808
0.0413084 -0.336082 1.10201
0.0429299 -0.336587 1.10239
0.0444666 -0.336632 1.10118
0.0460006 -0.336681 1.09998
0.0475335 -0.33674 1.09881
0.0490771 -0.336867 1.09789
0.0506414 -0.337103 1.09735
0.0522501 -0.337548 1.09753
0.0538406 -0.337906 1.09741
0.0554636 -0.338406 1.09777
0.0570988 -0.33895 1.09829
0.0587508 -0.339554 1.09901
0.0603904 -0.340095 1.09952
0.0620496 -0.340705 1.10025
0.0636619 -0.341121 1.10032
0.0652567 -0.341466 1.10015
0.0668009 -0.341622 1.09933
0.0683775 -0.341904 1.09895
0.0699215 -0.342071 1.09817
0.0714714 -0.342265 1.09748
0.0730137 -0.342438 1.09673
0.0745224 -0.342503 1.09561
0.0759505 -0.34231 1.09362
0.077453 -0.342379 1.09252
0.0789868 -0.342558 1.0918
0.0805688 -0.342894 1.0916
0.082218 -0.34344 1.09211
0.0838778 -0.34401 1.09271
0.0854956 -0.344447 1.09285
0.0871065 -0.34486 1.09291
0.0886775 -0.345155 1.09257
0.0901501 -0.345168 1.0913
0.091588 -0.345093 1.08973
0.092927 -0.344755 1.08729
0.0941192 -0.344033 1.08358
0.0952548 -0.343188 1.07947
0.0965991 -0.342933 1.07733
0.098109 -0.34313 1.07669
0.0996282 -0.343354 1.07615
0.101216 -0.343756 1.07619
0.102828 -0.344219 1.07643
0.104399 -0.344575 1.07632
0.105989 -0.344978 1.07636
0.107688 -0.345645 1.07727
0.109404 -0.346344 1.07828
0.111157 -0.347119 1.07954
0.112914 -0.347896 1.0808
0.11465 -0.348611 1.08185
0.116345 -0.349226 1.08258
0.118067 -0.349895 1.08347
0.119817 -0.350617 1.08454
0.12157 -0.351338 1.0856
0.123372 -0.352159 1.08698
0.125208 -0.353042 1.08855
0.127037 -0.353898 1.09004
0.128875 -0.354762 1.09154
0.130757 -0.355707 1.09331
0.132639 -0.356638 1.09502
0.134479 -0.357473 1.09641
0.13627 -0.358199 1.09745
0.138097 -0.358987 1.09869
0.139972 -0.359863 1.1002
0.141835 -0.360704 1.10161
0.144172 -0.364803 1.10797
0.143751 -0.36164 1.1033
0.0002597 -0.323247 1.09833
0.00182773 -0.323353 1.0973
0.00339205 -0.323429 1.09617
0.00494883 -0.323405 1.09467
0.00650153 -0.323388 1.0932
0.00804815 -0.323337 1.09162
0.00959068 -0.323295 1.09007
0.0111305 -0.32328 1.08862
0.0126763 -0.323405 1.08768
0.0142221 -0.323559 1.08685
0.0157714 -0.32378 1.08626
0.0173239 -0.32405 1.08585
0.018876 -0.324323 1.08545
0.020416 -0.324485 1.08466
0.0219529 -0.324637 1.08382
0.0234898 -0.324808 1.08307
0.02502 -0.32494 1.08216
0.0265452 -0.32505 1.08119
0.0280772 -0.325231 1.08047
0.0296104 -0.325432 1.07982
0.03114 -0.325619 1.07913
0.0326699 -0.325819 1.07848
0.041782 -0.33508 1.10432
0.0433375 -0.335209 1.10338
0.0448691 -0.335226 1.10206
0.0464029 -0.335273 1.10085
0.047919 -0.335248 1.09939
0.0494494 -0.335312 1.09824
0.0510063 -0.335515 1.09757
0.0526074 -0.335925 1.09763
0.0541963 -0.336277 1.09749
0.0558259 -0.336805 1.09796
0.057476 -0.33741 1.09869
0.0591455 -0.338083 1.09966
0.0608104 -0.338722 1.10051
0.0624952 -0.339425 1.10157
0.0641332 -0.339933 1.10196
0.0657352 -0.340298 1.10185
0.0672966 -0.340511 1.10122
0.0689088 -0.340913 1.10125
0.0704829 -0.341177 1.10079
0.0720858 -0.341545 1.1007
0.0736858 -0.341901 1.10056
0.075238 -0.342097 1.09988
0.0766896 -0.341965 1.09808
0.0782256 -0.342124 1.09727
0.0797751 -0.342331 1.09664
0.0813714 -0.34269 1.09651
0.0830161 -0.343197 1.09689
0.084658 -0.34369 1.09722
0.0862564 -0.344048 1.09709
0.0878503 -0.344392 1.09692
0.0893979 -0.344603 1.09629
0.0908716 -0.344607 1.09497
0.0923505 -0.344636 1.09374
0.0937017 -0.344321 1.09136
0.0971497 -0.341886 1.07928
0.100145 -0.342208 1.07776
0.101912 -0.343061 1.0793
0.103668 -0.34387 1.08069
0.105336 -0.344453 1.08133
0.107021 -0.345068 1.08207
0.108796 -0.345893 1.0835
0.110479 -0.346487 1.08416
0.112184 -0.347128 1.08498
0.113922 -0.347838 1.08601
0.115627 -0.34846 1.08677
0.117287 -0.348976 1.08716
0.118986 -0.349576 1.08783
0.120729 -0.350267 1.0888
0.122494 -0.350997 1.08989
0.124295 -0.351797 1.0912
0.126118 -0.352636 1.09264
0.12792 -0.353417 1.09389
0.129707 -0.354158 1.095
0.131545 -0.354998 1.09642
0.133356 -0.355769 1.09762
0.135136 -0.356471 1.09859
0.136885 -0.357101 1.09933
0.138705 -0.357868 1.10051
0.140591 -0.358758 1.10208
0.142496 -0.359672 1.10372
0.144417 -0.360607 1.10542
0.00219542 -0.321795 1.09759
0.00376131 -0.321923 1.09664
0.00532048 -0.321963 1.09537
0.00687355 -0.321952 1.09392
0.00842199 -0.321932 1.09244
0.00996644 -0.32192 1.09098
0.0115072 -0.321911 1.08955
0.0130539 -0.32204 1.08862
0.0146008 -0.322199 1.0878
0.0161508 -0.322419 1.08721
0.0177024 -0.322669 1.08672
0.0192579 -0.322968 1.08641
0.0208016 -0.323158 1.08571
0.0223394 -0.323311 1.08488
0.0238776 -0.323485 1.08413
0.0254112 -0.323637 1.08329
0.0269377 -0.323751 1.08233
0.0284712 -0.323934 1.08161
0.0300063 -0.324142 1.08098
0.0315421 -0.324364 1.08041
0.0330715 -0.324552 1.07972
0.0421628 -0.333554 1.10479
0.0437175 -0.33368 1.10385
0.0452543 -0.333726 1.10262
0.0467925 -0.333796 1.10148
0.0483096 -0.333779 1.10004
0.0498334 -0.333813 1.09878
0.051384 -0.333986 1.09801
0.0529722 -0.334337 1.09786
0.0545666 -0.334713 1.09781
0.0562164 -0.335325 1.09857
0.0578904 -0.336025 1.09964
0.0595846 -0.33679 1.10094
0.0612779 -0.337533 1.10215
0.0629848 -0.33831 1.10348
0.0646349 -0.338853 1.10398
0.0662428 -0.339229 1.10391
0.0678283 -0.339521 1.10355
0.0694727 -0.340027 1.10393
0.0710714 -0.340365 1.10373
0.0727094 -0.340839 1.10399
0.0743521 -0.341323 1.1043
0.0759419 -0.341627 1.10397
0.0774306 -0.341602 1.10253
0.0790022 -0.341855 1.10204
0.0805748 -0.342115 1.10157
0.0821622 -0.342423 1.10126
0.0837888 -0.342851 1.10137
0.0853943 -0.343213 1.10125
0.0869576 -0.34345 1.10071
0.088517 -0.343679 1.10014
0.0900489 -0.343833 1.09931
0.0915294 -0.343847 1.09802
0.0930617 -0.344015 1.09725
0.102918 -0.343129 1.085
0.104775 -0.344164 1.08714
0.106506 -0.344873 1.08819
0.108252 -0.345609 1.08933
0.109957 -0.346237 1.09011
0.111609 -0.346733 1.09044
0.113261 -0.347226 1.09077
0.114971 -0.347848 1.09151
0.11663 -0.348345 1.09185
0.118254 -0.348762 1.09192
0.11992 -0.34927 1.09228
0.121629 -0.349868 1.09294
0.12335 -0.350488 1.09367
0.12512 -0.351207 1.09473
0.126901 -0.351939 1.09582
0.128633 -0.35256 1.09654
0.130379 -0.353206 1.09735
0.132172 -0.353942 1.09844
0.133939 -0.354615 1.09933
0.135703 -0.355278 1.10018
0.137442 -0.355882 1.10084
0.139283 -0.356683 1.10213
0.141189 -0.357602 1.1038
0.143114 -0.358547 1.10555
0.145037 -0.359478 1.10725
0.1473 -0.363378 1.11301
0.146851 -0.360189 1.10823
0.00256086 -0.320172 1.09764
0.00412733 -0.320338 1.09683
0.00568869 -0.320438 1.09577
0.00724346 -0.320466 1.09445
0.0087934 -0.320478 1.09308
0.0103397 -0.320494 1.09172
0.0118845 -0.320544 1.0905
0.0134339 -0.320697 1.08965
0.0149841 -0.320886 1.08893
0.0165376 -0.321132 1.08843
0.0180932 -0.321409 1.08804
0.0196479 -0.321684 1.08764
0.0211932 -0.321879 1.08696
0.0227327 -0.322036 1.08613
0.0242722 -0.322211 1.08538
0.0258076 -0.322368 1.08456
0.0273386 -0.322507 1.08367
0.0288739 -0.322693 1.08297
0.0304102 -0.3229 1.08233
0.0319477 -0.323123 1.08176
0.0334829 -0.32334 1.08116
0.0441059 -0.332193 1.10446
0.0456451 -0.332254 1.10328
0.0471809 -0.332313 1.1021
0.048699 -0.332302 1.10067
0.0502161 -0.332306 1.09929
0.05176 -0.332449 1.09841
0.0533435 -0.332777 1.09819
0.0549519 -0.333214 1.09835
0.0566303 -0.333942 1.09953
0.0583366 -0.334767 1.10104
0.0600434 -0.335571 1.10248
0.0617533 -0.336367 1.10388
0.0634805 -0.33721 1.10545
0.0651486 -0.337807 1.10615
0.0667785 -0.338253 1.10632
0.068412 -0.338707 1.10652
0.070086 -0.339301 1.1072
0.0717013 -0.339681 1.10714
0.073344 -0.340152 1.1074
0.0750066 -0.340685 1.10787
0.0766126 -0.341025 1.10766
0.0781367 -0.341101 1.10655
0.0797071 -0.341333 1.10598
0.0812865 -0.341596 1.10551
0.0828694 -0.341873 1.1051
0.0844724 -0.342212 1.1049
0.0860434 -0.342457 1.10437
0.0875992 -0.34266 1.1037
0.0891419 -0.342829 1.10293
0.0906548 -0.34292 1.10188
0.0921778 -0.343046 1.10095
0.0937616 -0.343345 1.10062
0.107735 -0.345404 1.09552
0.109466 -0.346074 1.09643
0.111083 -0.346467 1.09641
0.112668 -0.346782 1.09614
0.114269 -0.347136 1.09599
0.115937 -0.34764 1.09635
0.117547 -0.348011 1.09626
0.119145 -0.348354 1.09608
0.120801 -0.348826 1.09632
0.122461 -0.349303 1.09658
0.124142 -0.349823 1.09698
0.125871 -0.350439 1.0977
0.127596 -0.351044 1.09838
0.12926 -0.351515 1.09861
0.130978 -0.352092 1.09919
0.132741 -0.352758 1.10006
0.134493 -0.353396 1.10084
0.136247 -0.35403 1.1016
0.138004 -0.354664 1.10236
0.139861 -0.355491 1.10374
0.14177 -0.356408 1.10541
0.143696 -0.357347 1.10716
0.145605 -0.358241 1.10874
0.14739 -0.358891 1.10954
0.00293254 -0.318729 1.09835
0.00449918 -0.31889 1.09752
0.00606255 -0.319029 1.0966
0.00761936 -0.319089 1.09539
0.00917145 -0.319128 1.09411
0.0107169 -0.319121 1.09266
0.0122644 -0.319201 1.09154
0.013815 -0.319359 1.0907
0.0153682 -0.319572 1.09007
0.0169231 -0.319819 1.08957
0.0184824 -0.320121 1.08927
0.0200388 -0.3204 1.08888
0.0215911 -0.320646 1.08838
0.0231326 -0.320809 1.08757
0.0246744 -0.320989 1.08683
0.0262114 -0.321147 1.08601
0.027747 -0.32131 1.08521
0.0292809 -0.321475 1.08441
0.0308193 -0.321684 1.08378
0.0323594 -0.321913 1.08323
0.0338966 -0.322133 1.08263
0.0460187 -0.330692 1.10362
0.0475518 -0.330741 1.1024
0.0490751 -0.33076 1.10107
0.0505965 -0.330787 1.09977
0.0521592 -0.331016 1.09919
0.0537531 -0.331387 1.09912
0.0553835 -0.331913 1.09959
0.0570937 -0.332762 1.10121
0.0588216 -0.33366 1.10299
0.0605301 -0.334455 1.1044
0.0622509 -0.335279 1.10591
0.0639741 -0.336089 1.10737
0.0656375 -0.336657 1.10797
0.0672876 -0.337166 1.10837
0.0689508 -0.337716 1.1089
0.0706296 -0.338312 1.10959
0.0722625 -0.338741 1.1097
0.0739115 -0.33922 1.10998
0.075584 -0.339772 1.11052
0.0772111 -0.340169 1.11051
0.0787946 -0.340424 1.11001
0.0803821 -0.340695 1.10956
0.0819696 -0.340968 1.10913
0.0835502 -0.341222 1.10863
0.0851406 -0.341509 1.10824
0.086689 -0.341674 1.10743
0.0882475 -0.341873 1.10675
0.0897919 -0.342037 1.10594
0.0912927 -0.342084 1.10474
0.0928411 -0.342271 1.10402
0.0944327 -0.342581 1.10371
0.107466 -0.345815 1.10386
0.109004 -0.345993 1.10311
0.110614 -0.346346 1.10296
0.112167 -0.346565 1.10235
0.113702 -0.346744 1.10161
0.115263 -0.346986 1.10108
0.116875 -0.347348 1.10096
0.118443 -0.347609 1.1005
0.120005 -0.34786 1.1
0.121603 -0.348191 1.09977
0.123226 -0.348577 1.09973
0.124882 -0.34903 1.0999
0.12656 -0.34953 1.10024
0.128235 -0.350018 1.10053
0.129886 -0.350455 1.10065
0.131586 -0.35099 1.1011
0.133323 -0.351596 1.10177
0.135065 -0.352205 1.10246
0.136822 -0.35284 1.10322
0.138583 -0.353476 1.10399
0.140414 -0.354244 1.10519
0.142307 -0.355121 1.10674
0.144247 -0.356078 1.10855
0.146144 -0.356944 1.11006
0.147951 -0.357629 1.11097
0.00487395 -0.317502 1.09844
0.00643864 -0.317653 1.09756
0.00799682 -0.317727 1.0964
0.00955196 -0.317805 1.09525
0.0110983 -0.317801 1.09381
0.0126489 -0.317909 1.09278
0.014201 -0.318072 1.09196
0.0157583 -0.318315 1.09143
0.0173125 -0.318539 1.09084
0.0188708 -0.318816 1.09045
0.0204282 -0.319091 1.09004
0.0219818 -0.319338 1.08954
0.0235246 -0.319502 1.08873
0.0250678 -0.319686 1.088
0.0266093 -0.31987 1.08727
0.0281465 -0.320036 1.08647
0.0296814 -0.3202 1.08567
0.0312182 -0.32039 1.08496
0.0327619 -0.320634 1.08446
0.0342979 -0.320838 1.08381
0.0463708 -0.329023 1.10359
0.0479179 -0.329146 1.10262
0.0494549 -0.329234 1.10153
0.0509948 -0.329348 1.10053
0.0525992 -0.329761 1.10061
0.0542211 -0.330245 1.10094
0.055881 -0.330883 1.10181
0.0576176 -0.331823 1.10376
0.0593596 -0.332757 1.10568
0.0610682 -0.333532 1.10703
0.062795 -0.334358 1.10855
0.0645158 -0.33514 1.10992
0.0661761 -0.335681 1.11043
0.0678324 -0.336198 1.11085
0.0695003 -0.336751 1.11139
0.0711595 -0.337263 1.1118
0.0727973 -0.337697 1.11192
0.0744274 -0.338102 1.11194
0.0760836 -0.33859 1.11225
0.0776943 -0.338926 1.11203
0.0792973 -0.339238 1.11173
0.0808888 -0.339514 1.1113
0.0825084 -0.33988 1.11118
0.0841222 -0.340226 1.111
0.0857478 -0.340608 1.11094
0.0873295 -0.34086 1.11043
0.088912 -0.341118 1.10993
0.0904716 -0.341313 1.10923
0.0919752 -0.341358 1.10801
0.0935157 -0.341512 1.10716
0.0950971 -0.341782 1.10672
0.0966319 -0.34193 1.10586
0.108748 -0.346421 1.11162
0.110223 -0.346422 1.11026
0.111693 -0.34642 1.10889
0.113173 -0.346449 1.10763
0.11463 -0.346434 1.10622
0.116108 -0.346475 1.10501
0.11763 -0.346621 1.10415
0.119144 -0.346754 1.10325
0.120645 -0.346863 1.10227
0.122216 -0.34713 1.10183
0.123842 -0.347514 1.10178
0.125512 -0.347992 1.10204
0.127195 -0.348495 1.10238
0.128861 -0.348957 1.10259
0.130511 -0.349386 1.10268
0.132183 -0.349857 1.10292
0.133907 -0.350429 1.10348
0.135638 -0.351012 1.10408
0.137401 -0.351652 1.10487
0.13918 -0.352317 1.10574
0.140998 -0.35305 1.10683
0.142878 -0.353896 1.10829
0.144821 -0.354851 1.1101
0.146739 -0.355747 1.11171
0.148568 -0.356468 1.11274
0.0052454 -0.316028 1.09905
0.00680987 -0.316173 1.09814
0.00837018 -0.316284 1.09711
0.009929 -0.316417 1.09616
0.0114809 -0.316486 1.09498
0.0130348 -0.316623 1.09406
0.0145903 -0.316811 1.09332
0.0161492 -0.317057 1.09281
0.0177053 -0.317282 1.09221
0.0192652 -0.317559 1.09181
0.020824 -0.317832 1.0914
0.022379 -0.318078 1.09089
0.0239233 -0.318245 1.09009
0.0254681 -0.31843 1.08935
0.0270074 -0.318587 1.08851
0.0285454 -0.31875 1.0877
0.0300817 -0.318915 1.0869
0.0316201 -0.319108 1.0862
0.0331633 -0.319341 1.08565
0.0347042 -0.319568 1.08508
0.0514899 -0.328343 1.10286
0.0531362 -0.328924 1.10354
0.0547808 -0.329486 1.10415
0.0564636 -0.330196 1.10529
0.0581917 -0.331073 1.10702
0.0599114 -0.331893 1.10854
0.0616149 -0.332627 1.10975
0.0633368 -0.333414 1.11114
0.0650474 -0.334139 1.11231
0.0666957 -0.334622 1.11262
0.0683619 -0.335163 1.11312
0.0700253 -0.335685 1.11356
0.0716633 -0.336113 1.11367
0.0732843 -0.336482 1.11356
0.0748976 -0.336823 1.11336
0.0765363 -0.337246 1.11344
0.0781418 -0.337561 1.11315
0.0797648 -0.337932 1.11305
0.0813777 -0.338271 1.11283
0.0830285 -0.338724 1.11302
0.0846663 -0.339135 1.11306
0.0863158 -0.339578 1.11321
0.0879229 -0.339896 1.11293
0.089543 -0.340251 1.11277
0.0911519 -0.340575 1.1125
0.0926891 -0.340702 1.11155
0.0942439 -0.340883 1.11079
0.107682 -0.344906 1.1136
0.109231 -0.345078 1.11281
0.110763 -0.345215 1.1119
0.112274 -0.345305 1.11084
0.113789 -0.345413 1.10984
0.115283 -0.345476 1.10869
0.116802 -0.345605 1.10776
0.118325 -0.345747 1.10688
0.119828 -0.34585 1.10587
0.121329 -0.345952 1.10486
0.122889 -0.346188 1.10431
