ply
format ascii 1.0
element vertex 1620
property float x
property float y
property float z
end_header
-0.0328645 0.0149403 0.674877
-0.0315183 0.0151231 0.675955
-0.0301699 0.015307 0.677076
-0.028822 0.0154934 0.678371
-0.0274696 0.01568 0.679646
-0.0261114 0.015866 0.680835
-0.0247463 0.0160504 0.681858
-0.0233731 0.0162317 0.682591
-0.0219926 0.0164086 0.682998
-0.0206124 0.0165873 0.683516
-0.0192272 0.016762 0.683731
-0.0178391 0.0169338 0.683735
-0.0164512 0.0171055 0.683722
-0.0150639 0.0172778 0.683765
-0.0136771 0.0174512 0.683884
-0.0122906 0.0176265 0.684119
-0.010904 0.0178053 0.6846
-0.00951612 0.0179834 0.685016
-0.00812678 0.0181636 0.685559
-0.00673591 0.018344 0.686104
-0.00534242 0.0185285 0.686898
-0.00394601 0.0187141 0.687742
-0.0025466 0.0189011 0.688651
-0.00114312 0.0190905 0.68969
0.000264148 0.0192813 0.690787
0.00167454 0.0194718 0.691851
0.00309088 0.019666 0.6931
0.00451729 0.0198671 0.694729
0.00594909 0.0200691 0.696369
0.00738532 0.0202711 0.697966
0.00882483 0.0204722 0.69948
0.0102705 0.0206748 0.701053
0.0117152 0.0208736 0.70238
0.0131665 0.0210747 0.703798
0.0146157 0.021272 0.704985
0.0160756 0.0214742 0.706408
0.0175425 0.0216785 0.70791
0.0190207 0.0218872 0.709612
0.0205085 0.0220988 0.711432
0.0220083 0.0223146 0.713427
0.0235079 0.0225276 0.715244
-0.0880966 0.0102401 0.718896
-0.0866237 0.0104195 0.718727
-0.0851284 0.0105973 0.718294
-0.0836177 0.0107735 0.717662
-0.0820603 0.0109458 0.716449
-0.0804266 0.0111111 0.71426
-0.0786929 0.0112666 0.710742
-0.0769614 0.0114196 0.7071
-0.075244 0.0115712 0.703478
-0.0735608 0.0117236 0.700145
-0.0719389 0.0118796 0.697483
-0.0703896 0.0120412 0.695696
-0.0688305 0.0122002 0.693682
-0.0672736 0.0123578 0.6916
-0.0657342 0.012516 0.68967
-0.0642038 0.0126735 0.687776
-0.0627011 0.0128331 0.686208
-0.061219 0.0129942 0.684886
-0.0597696 0.0131591 0.684024
-0.0583213 0.0133231 0.683127
-0.0568683 0.0134856 0.682092
-0.0553993 0.0136439 0.680703
-0.0539362 0.013802 0.679336
-0.0524745 0.0139587 0.677902
-0.0510291 0.0141172 0.67669
-0.0496048 0.0142788 0.675823
-0.0481873 0.0144409 0.675032
-0.0467715 0.0146024 0.674215
-0.0453611 0.0147639 0.673453
-0.0439584 0.0149266 0.672809
-0.0425657 0.0150913 0.672349
-0.041195 0.0152619 0.672412
-0.0398275 0.0154335 0.672556
-0.0384598 0.0156051 0.672705
-0.0371015 0.0157805 0.673137
-0.0357428 0.0159561 0.673593
-0.0343812 0.0161315 0.674002
-0.0330295 0.0163118 0.674782
-0.0316836 0.0164965 0.675869
-0.0303374 0.0166834 0.677079
-0.0289899 0.0168721 0.678388
-0.0276376 0.0170608 0.67967
-0.0262773 0.0172474 0.680763
-0.0249077 0.0174299 0.681542
-0.0235305 0.0176085 0.682027
-0.022147 0.0177824 0.682195
-0.0207648 0.0179582 0.682475
-0.0193789 0.0181303 0.682519
-0.0179925 0.0183017 0.682515
-0.0166056 0.0184718 0.682427
-0.0152208 0.018645 0.682546
-0.0138358 0.0188186 0.682674
-0.012451 0.0189939 0.682913
-0.0110663 0.0191732 0.683393
-0.00968029 0.0193541 0.683959
-0.00829256 0.0195351 0.684512
-0.00690279 0.0197187 0.685209
-0.00551 0.0199069 0.686151
-0.00411431 0.0200949 0.687069
-0.00271589 0.0202833 0.687987
-0.00131359 0.020474 0.689014
9.1895e-05 0.0206652 0.690039
0.00150017 0.020856 0.69103
0.00291409 0.0210506 0.692203
0.00433769 0.0212526 0.69375
0.00576795 0.0214572 0.695396
0.0072039 0.0216628 0.697065
0.00864375 0.0218678 0.698666
0.0100881 0.022073 0.700244
0.0115314 0.0222738 0.701568
0.0129808 0.0224764 0.702967
0.0144264 0.0226738 0.704069
0.0158847 0.0228779 0.705483
0.0173525 0.0230861 0.707065
0.0188292 0.0232973 0.708765
0.0203153 0.0235115 0.710579
0.0218158 0.0237318 0.712636
0.023314 0.0239477 0.714454
0.0250031 0.0227363 0.716805
0.0248083 0.0241588 0.716024
-0.0897007 0.0115064 0.718443
-0.0882269 0.0116853 0.718267
-0.086739 0.011863 0.717923
-0.085215 0.0120371 0.717153
-0.0836877 0.0122103 0.71631
-0.0821091 0.0123781 0.714827
-0.0804516 0.0125368 0.712326
-0.0787374 0.0126877 0.709021
-0.0770278 0.0128364 0.705632
-0.0753339 0.0129841 0.702295
-0.0736743 0.0131333 0.699259
-0.0720767 0.0132874 0.696914
-0.0705277 0.0134458 0.695128
-0.0689744 0.0136022 0.693191
-0.0674333 0.0137584 0.691337
-0.0659051 0.0139148 0.689577
-0.0643897 0.0140714 0.687916
-0.0628917 0.0142293 0.686436
-0.0614137 0.0143891 0.685194
-0.0599599 0.0145518 0.684274
-0.0585104 0.0147144 0.683372
-0.0570601 0.0148757 0.682399
-0.0555941 0.0150326 0.681086
-0.0541302 0.0151885 0.679725
-0.0526673 0.0153428 0.678291
-0.051217 0.0154985 0.677007
-0.0497881 0.0156576 0.676064
-0.0483667 0.0158176 0.67521
-0.0469501 0.0159776 0.674392
-0.0455386 0.0161379 0.673624
-0.0441376 0.0163002 0.673035
-0.0427466 0.0164649 0.672638
-0.0413756 0.0166356 0.67271
-0.0400077 0.0168076 0.672866
-0.0386395 0.0169796 0.673021
-0.0372781 0.0171546 0.673381
-0.0359137 0.0173289 0.673685
-0.0345494 0.0175037 0.674013
-0.0331948 0.0176839 0.674702
-0.0318487 0.0178701 0.675781
-0.0305049 0.0180601 0.677072
-0.0291558 0.01825 0.67832
-0.0278019 0.0184396 0.679527
-0.0264398 0.0186264 0.680523
-0.0250658 0.0188062 0.681061
-0.0236849 0.0189813 0.681299
-0.0223009 0.0191537 0.681371
-0.0209174 0.0193269 0.681487
-0.0195311 0.0194964 0.681387
-0.0181462 0.0196675 0.681373
-0.0167611 0.0198372 0.681294
-0.0153785 0.0200119 0.6815
-0.0139954 0.0201869 0.681717
-0.0126124 0.0203637 0.682034
-0.0112293 0.0205451 0.682594
-0.00984436 0.0207279 0.683228
-0.0084577 0.0209097 0.683789
-0.0070691 0.0210944 0.684491
-0.0056773 0.021284 0.685438
-0.00428325 0.0214717 0.68627
-0.00288597 0.0216612 0.687182
-0.00148561 0.0218519 0.688135
-8.07682e-05 0.0220459 0.689231
0.00132619 0.0222381 0.690218
0.00273879 0.0224341 0.691384
0.00415974 0.022637 0.692853
0.00558954 0.0228454 0.694565
0.00702415 0.0230536 0.696235
0.00846427 0.0232627 0.697919
0.00990739 0.0234702 0.699493
0.0113494 0.023673 0.700816
0.0127933 0.0238742 0.702047
0.0142352 0.0240713 0.703067
0.0156895 0.0242757 0.704405
0.0171558 0.0244865 0.705997
0.0186309 0.0247003 0.707702
0.0201149 0.0249172 0.709508
0.0216127 0.0251398 0.711539
0.0231089 0.0253583 0.713354
0.0246039 0.0255733 0.714989
-0.089762 0.0129442 0.717083
-0.0882799 0.0131215 0.716794
-0.0867798 0.0132967 0.716291
-0.0852397 0.0134673 0.715312
-0.0836964 0.0136366 0.714255
-0.0821195 0.0138013 0.712757
-0.0804707 0.0139559 0.71033
-0.0787842 0.0141039 0.707337
-0.077105 0.0142504 0.704307
-0.0754351 0.0143952 0.701261
-0.0737969 0.0145418 0.698495
-0.0722069 0.0146929 0.696246
-0.0706639 0.0148491 0.694535
-0.0691169 0.0150029 0.692684
-0.0675825 0.0151568 0.690921
-0.0660649 0.015312 0.689316
-0.0645641 0.0154684 0.687879
-0.0630654 0.0156237 0.686398
-0.0615921 0.0157822 0.685237
-0.0601422 0.0159443 0.684391
-0.0586888 0.0161046 0.683434
-0.0572383 0.0162643 0.682469
-0.0557848 0.0164221 0.68139
-0.0543294 0.0165781 0.680205
-0.052871 0.0167316 0.678884
-0.0514232 0.0168861 0.677678
-0.0499912 0.0170435 0.676707
-0.0485602 0.0171996 0.675682
-0.0471355 0.0173561 0.674715
-0.0457202 0.0175142 0.673883
-0.0443178 0.0176753 0.673281
-0.042926 0.0178392 0.672882
-0.0415543 0.0180101 0.672953
-0.0401862 0.0181826 0.673123
-0.0388176 0.0183549 0.673286
-0.0374533 0.0185295 0.67358
-0.0360857 0.0187028 0.6738
-0.0347178 0.0188764 0.674029
-0.0333604 0.0190562 0.674628
-0.0320121 0.0192429 0.675627
-0.0306683 0.0194348 0.676911
-0.0293177 0.0196254 0.678082
-0.0279622 0.0198153 0.679204
-0.0265971 0.0200009 0.680039
-0.0252204 0.0201783 0.680409
-0.0238375 0.0203507 0.680482
-0.022452 0.0205202 0.680399
-0.0210676 0.0206903 0.680357
-0.0196827 0.0208592 0.680243
-0.0182996 0.0210299 0.680235
-0.0169162 0.0211996 0.680178
-0.0155359 0.021376 0.68047
-0.0141554 0.0215539 0.680836
-0.012774 0.0217327 0.681238
-0.0113921 0.0219163 0.681875
-0.0100084 0.0221018 0.682591
-0.00862255 0.0222858 0.683231
-0.00723488 0.0224699 0.68386
-0.00584404 0.0226606 0.684793
-0.0044514 0.0228478 0.685546
-0.0030559 0.0230371 0.686381
-0.0016567 0.023229 0.687328
-0.000253218 0.0234244 0.688419
0.00115148 0.0236161 0.689322
0.00256349 0.0238154 0.690552
0.00398295 0.0240203 0.692018
0.00541 0.0242295 0.693649
0.00684286 0.0244401 0.695313
0.0082829 0.0246533 0.697065
0.00972308 0.0248618 0.698575
0.0111654 0.025068 0.699972
0.0126077 0.0252708 0.701193
0.0140478 0.0254689 0.702194
0.0155004 0.0256753 0.703526
0.0169679 0.0258903 0.705201
0.0184423 0.0261073 0.706927
0.0199251 0.026327 0.708738
0.0214207 0.0265524 0.71075
0.0229147 0.0267731 0.712541
0.0244086 0.0269907 0.714183
0.0261038 0.0257888 0.716618
0.0259112 0.0272112 0.71591
-0.089804 0.0143761 0.715522
-0.088304 0.0145501 0.715012
-0.0867869 0.0147217 0.714292
-0.0852187 0.0148862 0.712963
-0.0836764 0.015053 0.711877
-0.0821083 0.0152152 0.710442
-0.0804777 0.0153675 0.708199
-0.0788308 0.0155153 0.705659
-0.0771832 0.0156605 0.702999
-0.0755373 0.0158035 0.700245
-0.073919 0.0159484 0.697727
-0.0723409 0.0160974 0.695632
-0.0707985 0.0162505 0.693924
-0.0692581 0.016402 0.692161
-0.0677262 0.0165535 0.69043
-0.0662051 0.0167049 0.68877
-0.0647046 0.0168588 0.687334
-0.0632102 0.0170122 0.685913
-0.0617374 0.0171688 0.684758
-0.060293 0.0173304 0.683995
-0.058849 0.0174912 0.683192
-0.0574073 0.0176514 0.68238
-0.0559678 0.0178112 0.681553
-0.0545263 0.0179691 0.680638
-0.0530771 0.0181233 0.679514
-0.0516346 0.0182782 0.678442
-0.0502032 0.0184347 0.677518
-0.0487614 0.0185862 0.676309
-0.0473309 0.0187397 0.675251
-0.0459142 0.0188963 0.674416
-0.0445083 0.0190556 0.673763
-0.0431126 0.0192178 0.673298
-0.0417393 0.0193886 0.673353
-0.0403673 0.0195599 0.673443
-0.0389952 0.0197313 0.673532
-0.0376301 0.0199062 0.673822
-0.0362592 0.0200785 0.673963
-0.0348881 0.0202508 0.674106
-0.0335258 0.0204288 0.674548
-0.0321732 0.0206141 0.67539
-0.0308257 0.0208052 0.676519
-0.0294717 0.0209945 0.677532
-0.0281134 0.021183 0.678491
-0.0267459 0.0213665 0.679157
-0.0253673 0.0215413 0.679365
-0.0239832 0.0217106 0.679293
-0.0225992 0.0218794 0.679195
-0.0212155 0.0220476 0.67908
-0.0198333 0.0222175 0.679042
-0.0184535 0.0223908 0.679179
-0.0170731 0.0225633 0.679271
-0.0156947 0.0227418 0.679655
-0.0143168 0.022925 0.680256
-0.0129366 0.023106 0.680738
-0.0115556 0.0232921 0.681455
-0.0101725 0.0234804 0.682254
-0.00878708 0.0236672 0.682973
-0.00739977 0.0238506 0.683533
-0.0060095 0.0240423 0.68445
-0.00461779 0.0242284 0.685102
-0.00322351 0.0244169 0.685851
-0.00182578 0.0246086 0.686726
-0.000423844 0.0248041 0.68775
0.00097966 0.0249969 0.688646
0.00238946 0.0251962 0.689797
0.00380632 0.0254012 0.691173
0.00523065 0.025611 0.692728
0.00666044 0.0258221 0.694311
0.00809706 0.026036 0.695982
0.00953544 0.0262465 0.697487
0.0109758 0.0264548 0.698881
0.0124163 0.0266593 0.700103
0.0138566 0.0268606 0.701176
0.0153073 0.0270685 0.702493
0.0167731 0.0272862 0.704171
0.0182458 0.0275057 0.705897
0.0197243 0.0277262 0.707634
0.0212154 0.0279526 0.70957
0.0227063 0.0281754 0.711336
0.0241983 0.0283953 0.712979
0.0257024 0.0286209 0.714797
-0.0898509 0.0158038 0.714019
-0.0882409 0.0159618 0.71229
-0.0867321 0.0161321 0.711616
-0.0851686 0.0162939 0.710295
-0.0836299 0.0164581 0.709207
-0.0820762 0.016619 0.707896
-0.0804733 0.0167707 0.70594
-0.0788607 0.0169189 0.703784
-0.0772459 0.0170645 0.701505
-0.0756237 0.0172064 0.699032
-0.0740249 0.0173499 0.696753
-0.0724587 0.0174973 0.694803
-0.0709172 0.0176473 0.693097
-0.0693891 0.0177981 0.691497
-0.0678693 0.0179487 0.689933
-0.0663547 0.0180987 0.688364
-0.0648546 0.0182501 0.686934
-0.0633604 0.0184011 0.685514
-0.061887 0.0185553 0.684345
-0.0604434 0.0187156 0.683591
-0.0590047 0.0188764 0.682874
-0.0575725 0.0190377 0.682223
-0.0561498 0.0192008 0.6817
-0.0547218 0.0193616 0.681041
-0.0532852 0.0195184 0.680177
-0.0518503 0.0196745 0.679284
-0.0504198 0.0198305 0.678415
-0.0489708 0.0199783 0.677098
-0.0475342 0.0201285 0.675948
-0.0461126 0.0202825 0.67504
-0.0447025 0.0204395 0.674324
-0.0433022 0.0205995 0.673782
-0.0419247 0.0207689 0.673757
-0.0405479 0.0209386 0.673746
-0.0391718 0.0211084 0.673748
-0.0378034 0.0212822 0.67396
-0.0364296 0.0214533 0.674025
-0.0350535 0.021623 0.674022
-0.0336863 0.0217983 0.674307
-0.0323277 0.0219805 0.67492
-0.0309747 0.0221684 0.675814
-0.0296158 0.0223542 0.676584
-0.0282549 0.0225405 0.677367
-0.0268857 0.0227215 0.677879
-0.0255075 0.0228947 0.678008
-0.0241251 0.0230632 0.677926
-0.0227433 0.0232316 0.677837
-0.0213617 0.0233996 0.677729
-0.0199815 0.0235689 0.677688
-0.0186045 0.0237437 0.677901
-0.0172269 0.0239182 0.678087
-0.0158517 0.0241005 0.678628
-0.0144763 0.0242882 0.67939
-0.013098 0.0244732 0.680025
-0.0117183 0.0246624 0.680833
-0.0103364 0.0248553 0.68178
-0.00895168 0.0250434 0.682512
-0.00756497 0.0252275 0.683067
-0.00617569 0.0254186 0.683901
-0.00478526 0.0256032 0.684459
-0.00339245 0.0257906 0.685116
-0.00199653 0.0259816 0.685917
-0.000596663 0.0261767 0.686862
0.000806449 0.0263726 0.687833
0.00221477 0.0265732 0.688974
0.00362935 0.0267786 0.690282
0.00505061 0.0269885 0.691749
0.00647831 0.0272013 0.693303
0.00791134 0.0274152 0.694884
0.00934929 0.0276298 0.69646
0.0107886 0.0278407 0.697875
0.0122277 0.0280472 0.699106
0.0136663 0.0282499 0.700177
0.0151151 0.0284594 0.70148
0.0165763 0.028677 0.703067
0.0180497 0.0289014 0.704874
0.0195263 0.0291244 0.706607
0.0210153 0.0293534 0.708534
0.0225041 0.0295785 0.710289
0.0239941 0.029801 0.71193
0.0254938 0.0300271 0.713676
0.027213 0.0288473 0.716626
0.0270122 0.0302632 0.715744
-0.0882767 0.0173801 0.710654
-0.0866757 0.017534 0.708934
-0.085126 0.0176946 0.707725
-0.0835938 0.0178568 0.706666
-0.08206 0.0180176 0.705546
-0.0804847 0.0181699 0.703882
-0.0789111 0.0183206 0.702168
-0.0773277 0.0184676 0.700256
-0.0757269 0.018609 0.698039
-0.0741357 0.0187498 0.695847
-0.0725706 0.0188938 0.693901
-0.0710301 0.0190407 0.692198
-0.0695093 0.01919 0.690685
-0.067996 0.0193392 0.689204
-0.0664932 0.019489 0.6878
-0.0649984 0.0196391 0.686441
-0.0635086 0.0197886 0.685086
-0.0620361 0.0199409 0.683927
-0.0605934 0.0201 0.683185
-0.0591554 0.0202594 0.682475
-0.0577323 0.0204223 0.681976
-0.0563186 0.0205873 0.681608
-0.0549037 0.0207513 0.681194
-0.0534795 0.0209112 0.680574
-0.0520523 0.0210691 0.679851
-0.0506249 0.0212254 0.679073
-0.0491715 0.0213699 0.677699
-0.0477328 0.0215179 0.676537
-0.0463088 0.0216701 0.675609
-0.0448941 0.0218246 0.67482
-0.0434891 0.0219821 0.674194
-0.0421068 0.0221495 0.674074
-0.0407228 0.0223156 0.673896
-0.0393405 0.0224821 0.67374
-0.0379689 0.0226546 0.673871
-0.0365926 0.0228241 0.673865
-0.0352141 0.022992 0.673785
-0.0338446 0.0231659 0.673984
-0.0324815 0.0233452 0.674429
-0.0311223 0.0235289 0.675068
-0.0297567 0.0237088 0.675521
-0.0283935 0.0238924 0.676137
-0.0270227 0.0240702 0.676483
-0.025645 0.0242414 0.67654
-0.024265 0.0244097 0.676464
-0.0228876 0.0245809 0.676521
-0.0215092 0.0247504 0.676498
-0.020131 0.0249198 0.676479
-0.0187568 0.0250965 0.67677
-0.0173822 0.0252743 0.677098
-0.0160093 0.0254596 0.677735
-0.0146364 0.0256525 0.678668
-0.0132603 0.0258442 0.679543
-0.0118817 0.0260368 0.680434
-0.0105003 0.026231 0.681384
-0.00911607 0.02642 0.682111
-0.00773012 0.0266013 0.68252
-0.0063421 0.0267897 0.683201
-0.00495307 0.0269729 0.683675
-0.00356211 0.0271587 0.684244
-0.00216762 0.0273507 0.685035
-0.000769077 0.0275469 0.685978
0.000632724 0.0277443 0.686956
0.00204057 0.0279486 0.688166
0.0034538 0.0281558 0.689471
0.00487226 0.0283653 0.690849
0.00629814 0.0285802 0.692392
0.00772777 0.0287938 0.693876
0.00916227 0.0290084 0.695369
0.0106014 0.0292234 0.696858
0.0120395 0.0294325 0.698114
0.0134788 0.029639 0.699265
0.0149281 0.0298527 0.700649
0.0163876 0.0300722 0.702219
0.0178566 0.0302966 0.703935
0.0193311 0.0305219 0.705655
0.0208157 0.0307515 0.7075
0.0223026 0.0309791 0.709252
0.0237906 0.0312037 0.710883
0.0252878 0.0314321 0.712617
0.0268075 0.0316733 0.714755
0.0285273 0.0304933 0.71758
0.0283244 0.031909 0.716677
-0.0902055 0.0186891 0.713807
-0.0883308 0.0187965 0.709222
-0.0866356 0.0189305 0.706443
-0.0851193 0.0190939 0.705568
-0.0836065 0.0192568 0.704697
-0.0820906 0.0194181 0.703754
-0.0805391 0.0195714 0.702345
-0.0789877 0.019723 0.700877
-0.0774138 0.0198682 0.699066
-0.0758217 0.0200072 0.696944
-0.0742439 0.020147 0.694911
-0.0726861 0.0202887 0.69305
-0.0711476 0.0204329 0.691363
-0.0696339 0.0205809 0.689938
-0.0681268 0.0207289 0.688535
-0.06663 0.0208776 0.687211
-0.0651367 0.0210255 0.685868
-0.0636577 0.0211754 0.684673
-0.06219 0.0213271 0.683587
-0.0607521 0.0214864 0.68292
-0.0593145 0.0216445 0.682217
-0.057896 0.021808 0.681796
-0.0564825 0.0219723 0.681433
-0.055072 0.0221371 0.681097
-0.0536521 0.0222977 0.680562
-0.0522293 0.022456 0.679933
-0.0508066 0.0226132 0.67926
-0.0493568 0.0227573 0.677977
-0.0479174 0.0229036 0.676822
-0.0464922 0.0230541 0.67589
-0.0450756 0.0232067 0.675076
-0.0436662 0.0233613 0.674365
-0.0422798 0.0235265 0.67416
-0.0408921 0.0236904 0.673897
-0.0395063 0.0238547 0.673658
-0.0381321 0.0240257 0.673716
-0.0367556 0.0241949 0.673705
-0.0353746 0.0243609 0.673548
-0.0340027 0.024533 0.67366
-0.0326349 0.0247087 0.67393
-0.0312682 0.024886 0.674259
-0.0298969 0.0250601 0.674449
-0.0285312 0.0252401 0.674887
-0.0271589 0.0254146 0.675086
-0.0257837 0.025586 0.675154
-0.0244085 0.0257574 0.675228
-0.0230344 0.0259306 0.675374
-0.0216589 0.0261017 0.675434
-0.0202832 0.0262727 0.675492
-0.0189105 0.0264499 0.675789
-0.0175381 0.0266299 0.676191
-0.0161665 0.0268164 0.676842
-0.0147957 0.0270128 0.677863
-0.0134215 0.0272084 0.678838
-0.012044 0.0274041 0.679806
-0.0106638 0.0276 0.680758
-0.0092804 0.0277914 0.681538
-0.0078951 0.027973 0.681944
-0.00650824 0.0281602 0.682547
-0.00512016 0.0283437 0.683014
-0.00373059 0.028528 0.683497
-0.00233792 0.0287188 0.68421
-0.000941292 0.0289144 0.685084
0.000459804 0.0291151 0.686125
0.00186645 0.0293214 0.687348
0.00327844 0.0295307 0.688661
0.00469561 0.0297424 0.690036
0.00611846 0.0299569 0.691491
0.00754467 0.0301699 0.692876
0.00897747 0.0303867 0.694368
0.0104168 0.0306063 0.695937
0.0118556 0.0308198 0.697281
0.0132958 0.0310304 0.698515
0.0147438 0.0312459 0.699892
0.0161996 0.0314656 0.701387
0.0176644 0.0316899 0.703014
0.0191372 0.0319176 0.704728
0.0206226 0.0321521 0.706644
0.0221083 0.0323826 0.708402
0.0235945 0.0326094 0.710024
0.0250894 0.0328398 0.711739
0.0266035 0.0330813 0.71378
0.0281188 0.0333198 0.7157
-0.0995056 0.0180795 0.733725
-0.101235 0.0193825 0.734201
-0.0996408 0.0195489 0.733159
-0.097956 0.0182536 0.733094
-0.0980887 0.0197212 0.732499
-0.096447 0.0184329 0.732848
-0.0965768 0.0198993 0.732218
-0.0943659 0.0185242 0.726718
-0.0945913 0.0199964 0.727072
-0.0925058 0.020071 0.720701
-0.0904352 0.0201414 0.714257
-0.0884659 0.020224 0.708671
-0.0866794 0.0203356 0.704887
-0.0851771 0.0204995 0.704146
-0.0836734 0.020662 0.703357
-0.08216 0.0208216 0.702423
-0.0806218 0.0209747 0.701153
-0.0790716 0.0211234 0.699682
-0.0774996 0.0212654 0.697878
-0.0759156 0.0214021 0.695842
-0.0743455 0.0215397 0.693895
-0.072795 0.0216797 0.692117
-0.0712588 0.0218211 0.690448
-0.0697516 0.0219681 0.689099
-0.0682515 0.0221152 0.687784
-0.066761 0.0222631 0.68654
-0.0652695 0.0224089 0.685218
-0.0638023 0.0225602 0.684192
-0.0623358 0.0227102 0.683121
-0.0608985 0.0228682 0.682458
-0.0594645 0.0230261 0.681809
-0.0580506 0.0231902 0.681459
-0.0566343 0.0233527 0.681044
-0.055224 0.0235168 0.680708
-0.0538037 0.023676 0.680162
-0.0523844 0.0238345 0.679594
-0.0509657 0.0239921 0.678998
-0.0495243 0.0241379 0.677889
-0.0480922 0.0242858 0.676897
-0.0466731 0.0244381 0.67611
-0.0452525 0.0245877 0.675224
-0.0438392 0.0247391 0.674437
-0.0424491 0.0249021 0.67415
-0.0410584 0.0250639 0.673819
-0.0396695 0.0252259 0.673502
-0.0382927 0.025395 0.673488
-0.0369137 0.0255622 0.673399
-0.0355302 0.0257257 0.673159
-0.0341541 0.0258941 0.673123
-0.0327806 0.0260645 0.673168
-0.0314102 0.0262378 0.673325
-0.0300359 0.0264074 0.67334
-0.0286679 0.0265837 0.673614
-0.0272972 0.0267578 0.673798
-0.0259256 0.0269311 0.673954
-0.024554 0.027105 0.674126
-0.0231842 0.0272823 0.674428
-0.0218122 0.0274573 0.67464
-0.0204378 0.0276284 0.674705
-0.019066 0.0278057 0.674996
-0.0176954 0.0279877 0.675457
-0.016325 0.028175 0.676106
-0.0149549 0.0283712 0.677065
-0.0135818 0.0285681 0.678041
-0.0122057 0.0287651 0.679006
-0.0108264 0.02896 0.679878
-0.00944444 0.0291504 0.680581
-0.00806045 0.0293341 0.681047
-0.00667487 0.0295219 0.681646
-0.0052881 0.0297061 0.682113
-0.00389948 0.0298929 0.682671
-0.00250786 0.0300846 0.683381
-0.00111272 0.0302814 0.684251
0.000288803 0.030488 0.685443
0.00169552 0.0306985 0.686744
0.00310662 0.0309102 0.688069
0.00452414 0.0311266 0.689529
0.00594463 0.0313406 0.690897
0.00736684 0.0315511 0.692132
0.00879811 0.0317696 0.693607
0.0102362 0.0319914 0.695172
0.0116738 0.0322072 0.696526
0.0131171 0.032425 0.697925
0.0145643 0.0326428 0.699307
0.0160168 0.032862 0.70072
0.0174775 0.0330857 0.702251
0.0189487 0.0333157 0.703955
0.0204302 0.033551 0.705801
0.021915 0.0337847 0.707577
0.0233999 0.0340139 0.709197
0.0248928 0.0342464 0.710897
0.0264047 0.0344906 0.712922
0.0279151 0.0347292 0.714762
0.029634 0.0335543 0.717479
0.0294321 0.0349692 0.716618
-0.109086 0.0185199 0.737836
-0.110592 0.0183373 0.737934
-0.110858 0.0198337 0.73854
-0.109341 0.020015 0.738363
-0.107586 0.0187032 0.737794
-0.107833 0.0201972 0.738253
-0.10606 0.0188829 0.7375
-0.106289 0.0203738 0.737815
-0.104451 0.0190505 0.736437
-0.10466 0.0205364 0.736563
-0.102849 0.0192179 0.735396
-0.103025 0.0206969 0.735219
-0.101391 0.020856 0.733838
-0.0997806 0.0210179 0.732641
-0.0982257 0.0211883 0.731948
-0.0967122 0.0213653 0.731645
-0.0947318 0.0214547 0.726557
-0.0927113 0.0215308 0.72087
-0.0906576 0.0215943 0.714627
-0.0886574 0.0216616 0.70873
-0.0867994 0.0217522 0.704175
-0.0852944 0.0219138 0.703395
-0.0837856 0.0220734 0.702539
-0.0822652 0.0222294 0.701512
-0.0807129 0.0223766 0.700065
-0.0791502 0.0225192 0.698428
-0.0775673 0.0226546 0.69647
-0.0759854 0.0227878 0.694441
-0.0744233 0.0229234 0.692576
-0.0728811 0.023062 0.690886
-0.0713587 0.0232038 0.689385
-0.0698646 0.0233517 0.6882
-0.068376 0.0234995 0.687035
-0.0669027 0.0236504 0.686029
-0.0654229 0.0237975 0.684874
-0.063962 0.0239491 0.683945
-0.062496 0.0240972 0.682883
-0.0610582 0.0242538 0.682212
-0.0596154 0.0244073 0.681417
-0.0581972 0.0245689 0.680991
-0.0567766 0.0247286 0.680493
-0.0553626 0.0248901 0.680081
-0.053942 0.0250477 0.679515
-0.0525259 0.0252063 0.678996
-0.0511079 0.0253627 0.678402
-0.0496709 0.0255084 0.677372
-0.0482434 0.0256566 0.67647
-0.0468257 0.025808 0.675707
-0.0454057 0.0259561 0.674831
-0.0439959 0.0261081 0.674121
-0.0426033 0.0262689 0.673769
-0.0412154 0.0264314 0.673501
-0.0398269 0.0265929 0.67319
-0.0384476 0.0267598 0.673098
-0.0370662 0.0269248 0.672932
-0.0356829 0.0270874 0.672681
-0.0343049 0.0272536 0.67257
-0.0329279 0.02742 0.672471
-0.0315523 0.0275873 0.672403
-0.0301767 0.0277541 0.672321
-0.028808 0.0279279 0.672501
-0.0274379 0.0281006 0.672635
-0.0260697 0.0282764 0.672875
-0.0247026 0.0284545 0.673207
-0.0233355 0.0286344 0.67359
-0.0219661 0.0288118 0.673885
-0.0205937 0.028985 0.674028
-0.0192228 0.0291625 0.674316
-0.0178537 0.0293468 0.674837
-0.016484 0.0295343 0.675465
-0.0151143 0.0297296 0.676346
-0.0137418 0.0299252 0.677225
-0.012367 0.0301232 0.678173
-0.0109888 0.0303166 0.678958
-0.00960803 0.0305058 0.679597
-0.00822554 0.0306902 0.680069
-0.0068417 0.0308767 0.680602
-0.00545646 0.0310611 0.681065
-0.00406936 0.0312488 0.681622
-0.0026793 0.0314417 0.682343
-0.0012851 0.0316419 0.683287
0.000117354 0.0318573 0.6847
0.001525 0.0320753 0.686174
0.00293656 0.0322918 0.687589
0.00435454 0.0325129 0.689127
0.00577541 0.0327311 0.690555
0.0071955 0.0329408 0.691708
0.00862416 0.0331587 0.693095
0.0100632 0.0333858 0.694741
0.0115003 0.0336036 0.696097
0.0129432 0.033824 0.69751
0.0143897 0.034044 0.698892
0.015841 0.0342648 0.700285
0.0172981 0.0344877 0.701724
0.0187705 0.0347226 0.703495
0.020252 0.0349615 0.705362
0.0217365 0.0351986 0.707152
0.0232179 0.0354278 0.708701
0.0247062 0.0356595 0.710303
0.02621 0.0359008 0.71216
0.027712 0.0361363 0.713832
0.0292233 0.0363759 0.715596
-0.10964 0.0215193 0.739271
-0.10809 0.0216948 0.7388
-0.10649 0.0218614 0.737857
-0.104825 0.0220159 0.736289
-0.103169 0.0221703 0.734751
-0.101527 0.0223254 0.733288
-0.0999129 0.0224843 0.732051
-0.0983362 0.0226489 0.731137
-0.0968001 0.0228207 0.7306
-0.094854 0.022908 0.725857
-0.0928655 0.0229813 0.720505
-0.0908502 0.0230426 0.714679
-0.0888887 0.023109 0.709216
-0.086967 0.0231778 0.703987
-0.0854614 0.0233377 0.703201
-0.0839456 0.0234943 0.702268
-0.0824046 0.0236434 0.701004
-0.0808315 0.0237824 0.699305
-0.0792544 0.0239182 0.697487
-0.0776584 0.0240463 0.695359
-0.076072 0.0241741 0.693258
-0.0745124 0.0243067 0.691409
-0.0729784 0.0244441 0.689809
-0.0714685 0.0245866 0.688459
-0.0699723 0.0247313 0.687232
-0.068486 0.0248773 0.686083
-0.0670195 0.025028 0.68516
-0.0655464 0.025175 0.68409
-0.0640877 0.0253253 0.683181
-0.0626321 0.0254751 0.682269
-0.0611991 0.0256319 0.681665
-0.0597558 0.0257835 0.680856
-0.0583378 0.025944 0.680422
-0.0569135 0.0261008 0.679851
-0.0554953 0.0262592 0.67935
-0.0540665 0.0264115 0.67862
-0.0526474 0.026567 0.678022
-0.0512266 0.0267201 0.677349
-0.0497949 0.0268659 0.676403
-0.0483729 0.0270147 0.675589
-0.0469633 0.0271686 0.674981
-0.0455509 0.0273192 0.67426
-0.0441453 0.027472 0.673636
-0.0427533 0.0276321 0.673289
-0.041366 0.0277942 0.673023
-0.0399778 0.0279548 0.672707
-0.0385962 0.0281193 0.67254
-0.0372153 0.0282836 0.672367
-0.0358347 0.0284474 0.67218
-0.0344572 0.0286133 0.672068
-0.0330809 0.0287795 0.671974
-0.0317052 0.0289458 0.671887
-0.0303284 0.0291102 0.671731
-0.0289587 0.0292822 0.671843
-0.0275896 0.0294551 0.671986
-0.0262225 0.0296312 0.672236
-0.0248564 0.0298102 0.672576
-0.0234927 0.0299947 0.673099
-0.0221251 0.0301749 0.673477
-0.0207544 0.0303509 0.673709
-0.0193841 0.0305289 0.674005
-0.018016 0.030716 0.674593
-0.0166457 0.030902 0.67514
-0.0152752 0.0310936 0.675861
-0.0139025 0.031285 0.67657
-0.0125282 0.0314811 0.677413
-0.0111507 0.0316706 0.67804
-0.00977134 0.0318584 0.67861
-0.00839043 0.0320437 0.679092
-0.00700789 0.0322309 0.679627
-0.00562374 0.0324184 0.680167
-0.00423791 0.0326067 0.680728
-0.00284879 0.032803 0.681521
-0.00145562 0.0330051 0.682482
-5.35771e-05 0.0332256 0.683985
0.00135409 0.0334489 0.685552
0.00276591 0.0336709 0.687064
0.00418418 0.0338969 0.688676
0.00560685 0.0341221 0.690246
0.00702639 0.0343333 0.691392
0.00845295 0.0345509 0.692705
0.00989278 0.0347827 0.694416
0.0113294 0.0350027 0.695771
0.012772 0.0352258 0.697195
0.014218 0.0354479 0.698577
0.0156685 0.0356706 0.699963
0.0171221 0.0358923 0.701305
0.0185935 0.0361298 0.703068
0.0200718 0.0363692 0.704866
0.0215557 0.036609 0.706659
0.023036 0.0368403 0.7082
0.0245227 0.0370739 0.709785
0.0260186 0.0373119 0.711472
0.0275153 0.0375464 0.713048
0.0290175 0.0377819 0.714634
0.0307648 0.0366352 0.717895
0.0305487 0.0380378 0.716745
-0.109975 0.0230334 0.74049
-0.108372 0.0231994 0.739572
-0.106722 0.0233557 0.73819
-0.104997 0.0234964 0.736074
-0.10331 0.023642 0.734245
-0.101634 0.0237878 0.73246
-0.100012 0.0239426 0.731141
-0.0984123 0.0241004 0.729993
-0.0968586 0.0242668 0.729262
-0.0949277 0.024349 0.724664
-0.0929588 0.0244173 0.719511
-0.0909717 0.024475 0.713981
-0.0890386 0.0245388 0.708827
-0.0871383 0.0246043 0.70384
-0.0856119 0.0247576 0.702824
-0.08408 0.0249082 0.701707
-0.0825115 0.0250474 0.700119
-0.0809235 0.0251791 0.698235
-0.0793326 0.0253072 0.696239
-0.0777305 0.0254293 0.694019
-0.0761398 0.0255516 0.691846
-0.0745882 0.0256825 0.690076
-0.0730572 0.0258174 0.688495
-0.0715509 0.0259579 0.687172
-0.0700616 0.026102 0.686016
-0.0685881 0.0262497 0.685026
-0.0671242 0.0263991 0.684122
-0.0656628 0.0265479 0.683207
-0.0642149 0.0267001 0.682445
-0.0627698 0.026852 0.681684
-0.0613382 0.0270081 0.681093
-0.0598956 0.0271581 0.680286
-0.0584731 0.0273155 0.679769
-0.0570398 0.0274667 0.679029
-0.0556097 0.0276179 0.678299
-0.0541779 0.0277666 0.67749
-0.0527602 0.0279206 0.67689
-0.0513417 0.0280727 0.676233
-0.049919 0.0282209 0.675441
-0.0485049 0.028372 0.674769
-0.0470967 0.0285248 0.674171
-0.0456888 0.0286762 0.673528
-0.0442842 0.028828 0.67291
-0.0428936 0.0289876 0.672573
-0.0415072 0.0291491 0.67231
-0.0401222 0.0293107 0.672056
-0.0387417 0.029475 0.671895
-0.0373637 0.0296407 0.671788
-0.0359865 0.0298064 0.671684
-0.0346099 0.0299722 0.671583
-0.0332322 0.0301362 0.671424
-0.031855 0.0302999 0.671259
-0.0304783 0.030463 0.67108
-0.0291061 0.0306308 0.671055
-0.0277382 0.030804 0.671207
-0.0263737 0.0309826 0.67153
-0.0250097 0.0311635 0.671924
-0.0236482 0.0313509 0.672522
-0.0222838 0.0315365 0.673051
-0.020915 0.0317158 0.673383
-0.0195451 0.0318948 0.673696
-0.0181774 0.0320828 0.674286
-0.0168062 0.0322648 0.674684
-0.0154351 0.0324521 0.675247
-0.0140619 0.0326372 0.675728
-0.0126884 0.032831 0.676471
-0.0113122 0.0330185 0.677014
-0.00993428 0.0332067 0.677577
-0.00855488 0.0333927 0.678064
-0.00717368 0.0335828 0.678667
-0.00579078 0.0337732 0.679273
-0.00440591 0.0339647 0.679909
-0.00301783 0.0341626 0.680719
-0.00162528 0.0343687 0.681751
-0.000222768 0.0345969 0.683412
0.00118404 0.0348231 0.684993
0.00259629 0.0350506 0.686594
0.00401598 0.0352846 0.688355
0.00543968 0.0355153 0.690013
0.00685904 0.0357288 0.691169
0.00828702 0.0359513 0.692564
0.00972624 0.0361855 0.694265
0.0111625 0.0364076 0.695615
0.0126048 0.0366328 0.697036
0.0140486 0.0368543 0.698346
0.0154944 0.0370735 0.699578
0.0169445 0.0372938 0.700828
0.0184122 0.0375307 0.702504
0.0198867 0.0377697 0.704217
0.0213695 0.0380124 0.706012
0.0228509 0.0382486 0.707616
0.0243361 0.0384841 0.709186
0.0258239 0.0387178 0.710696
0.0273117 0.0389477 0.712093
0.028804 0.0391783 0.713491
0.0303254 0.0394306 0.71543
-0.111762 0.0243583 0.741267
-0.110112 0.0245147 0.739963
-0.108467 0.0246707 0.738664
-0.106794 0.0248198 0.737073
-0.105068 0.0249562 0.73494
-0.103376 0.0250971 0.733048
-0.101713 0.0252422 0.731379
-0.100096 0.0253951 0.73009
-0.0984789 0.0255466 0.728758
-0.0968741 0.0256992 0.7275
-0.0949628 0.0257776 0.723086
-0.0930303 0.0258453 0.718296
-0.0910877 0.0259044 0.713227
-0.0891998 0.025971 0.708558
-0.0873359 0.0260377 0.703979
-0.0857682 0.0261783 0.702513
-0.0841983 0.0263163 0.700965
-0.0826007 0.0264442 0.699035
-0.0809939 0.0265665 0.696918
-0.0793971 0.0266888 0.694832
-0.0778019 0.0268083 0.692676
-0.076213 0.0269266 0.690506
-0.0746646 0.0270549 0.688757
-0.0731353 0.0271869 0.68718
-0.0716357 0.0273265 0.685921
-0.0701483 0.0274684 0.684772
-0.0686824 0.0276163 0.683865
-0.0672244 0.0277657 0.683024
-0.0657705 0.0279151 0.6822
-0.0643243 0.0280659 0.681445
-0.0628818 0.0282169 0.680704
-0.0614521 0.0283719 0.680124
-0.0600116 0.0285207 0.679332
-0.0585858 0.0286748 0.678739
-0.0571486 0.028822 0.67791
-0.0557187 0.028971 0.677159
-0.054288 0.0291178 0.676343
-0.0528766 0.0292731 0.675833
-0.0514639 0.0294264 0.675263
-0.0500466 0.0295754 0.674557
-0.0486343 0.0297255 0.673898
-0.0472269 0.0298771 0.673295
-0.04582 0.0300271 0.672653
-0.0444196 0.0301798 0.672107
-0.0430332 0.0303409 0.671848
-0.0416504 0.0305039 0.671654
-0.0402693 0.0306674 0.671482
-0.0388868 0.030829 0.67125
-0.0375101 0.0309946 0.671155
-0.0361363 0.0311625 0.671132
-0.0347609 0.0313285 0.671049
-0.033382 0.0314902 0.670831
-0.0320072 0.0316552 0.670724
-0.0306306 0.0318175 0.670535
-0.0292573 0.0319826 0.670432
-0.0278898 0.0321554 0.670569
-0.0265277 0.0323367 0.670963
-0.0251643 0.0325179 0.671356
-0.0238051 0.0327089 0.672033
-0.0224426 0.0328978 0.672644
-0.0210756 0.0330806 0.673063
-0.0197072 0.0332628 0.67346
-0.0183396 0.0334515 0.674049
-0.0169678 0.0336312 0.674364
-0.0155965 0.0338166 0.674843
-0.0142227 0.0339968 0.675171
-0.0128491 0.034184 0.675691
-0.0114735 0.0343666 0.676074
-0.0100969 0.034552 0.676542
-0.00871903 0.0347359 0.676954
-0.00733962 0.0349269 0.677564
-0.00595805 0.0351209 0.678251
-0.00457428 0.035316 0.67896
-0.00318715 0.0355177 0.679846
-0.00179531 0.0357279 0.680954
-0.000392661 0.0359639 0.682756
0.00101386 0.036195 0.684403
0.00242707 0.0364306 0.686154
0.00384757 0.0366706 0.688008
0.00527339 0.0369105 0.689835
0.00669302 0.0371267 0.691015
0.00812248 0.0373545 0.692493
0.00956145 0.0375913 0.694188
0.0109974 0.0378151 0.69553
0.0124375 0.0380395 0.696872
0.0138811 0.0382632 0.698182
0.0153243 0.0384812 0.699333
0.0167713 0.0387 0.700493
0.0182331 0.0389328 0.701998
0.0197032 0.0391705 0.703613
0.021182 0.0394128 0.705325
0.0226622 0.0396513 0.706925
0.0241468 0.0398897 0.70851
0.0256331 0.0401253 0.71001
0.0271124 0.0403502 0.711232
0.0285982 0.0405782 0.712516
0.0301132 0.0408292 0.71435
0.0318349 0.0396686 0.716989
0.031614 0.0410635 0.715762
-0.110169 0.0259787 0.738741
-0.108505 0.026128 0.737258
-0.106838 0.0262747 0.735701
-0.10513 0.0264108 0.733718
-0.103461 0.0265532 0.732034
-0.10182 0.0266997 0.730555
-0.100205 0.0268507 0.729286
-0.0985522 0.0269908 0.727592
-0.0968775 0.0271234 0.725626
-0.0949778 0.0271964 0.721309
-0.0930666 0.0272607 0.716721
-0.0911688 0.0273225 0.71211
-0.0893362 0.0273959 0.708027
-0.0875251 0.0274697 0.704024
-0.085922 0.0275979 0.702175
-0.0843185 0.0277231 0.700248
-0.0826898 0.0278379 0.697954
-0.0810586 0.0279485 0.695537
-0.0794584 0.0280653 0.693392
-0.0778672 0.0281816 0.691266
-0.0762808 0.0282962 0.689106
-0.0747398 0.0284232 0.68743
-0.0732124 0.0285522 0.685855
-0.07172 0.0286914 0.684673
-0.0702385 0.0288328 0.683582
-0.0687798 0.0289811 0.682754
-0.067325 0.0291293 0.681938
-0.0658781 0.0292794 0.681196
-0.064433 0.0294287 0.680439
-0.0629973 0.0295806 0.679785
-0.0615697 0.0297349 0.67922
-0.0601267 0.0298804 0.678369
-0.058697 0.0300307 0.677691
-0.0572599 0.0301756 0.676843
-0.055827 0.0303207 0.676014
-0.0544023 0.0304683 0.675279
-0.0529972 0.0306253 0.674863
-0.0515906 0.0307803 0.674386
-0.0501748 0.0309281 0.673689
-0.0487634 0.0310769 0.673029
-0.0473537 0.0312248 0.672355
-0.0459511 0.0313757 0.67178
-0.0445516 0.031527 0.671231
-0.0431696 0.03169 0.67105
-0.0417912 0.0318551 0.670942
-0.0404142 0.0320208 0.670854
-0.0390327 0.0321822 0.670632
-0.0376594 0.03235 0.670611
-0.0362862 0.0325177 0.67059
-0.0349117 0.0326837 0.670515
-0.0335312 0.0328424 0.670227
-0.0321551 0.0330047 0.670047
-0.0307789 0.0331657 0.669836
-0.0294061 0.03333 0.669722
-0.0280382 0.0335007 0.669798
-0.0266785 0.0336846 0.670259
-0.0253178 0.0338692 0.670733
-0.0239609 0.0340639 0.671492
-0.0226007 0.0342567 0.672191
-0.0212363 0.0344452 0.672757
-0.0198691 0.0346306 0.67323
-0.0185018 0.0348199 0.673811
-0.0171293 0.0349968 0.674037
-0.0157581 0.0351821 0.674494
-0.0143843 0.0353599 0.674744
-0.0130105 0.0355427 0.675124
-0.0116353 0.035722 0.675412
-0.0102596 0.0359051 0.675793
-0.00888279 0.0360833 0.676043
-0.00750487 0.0362726 0.676585
-0.00612443 0.0364705 0.677353
-0.00474201 0.0366673 0.678084
-0.00335568 0.036873 0.679043
-0.0019644 0.0370875 0.680223
-0.000562388 0.0373288 0.68209
0.000843882 0.0375656 0.683819
0.00225819 0.0378099 0.685722
0.00367902 0.0380562 0.687659
0.00510587 0.0383025 0.68958
0.00652667 0.0385238 0.690844
0.00795603 0.0387543 0.692329
0.00939467 0.0389937 0.694024
0.0108304 0.0392198 0.695366
0.0122682 0.0394431 0.696627
0.0137112 0.0396685 0.697929
0.0151515 0.0398846 0.698991
0.0165953 0.0401016 0.700062
0.0180506 0.0403293 0.701387
0.0195164 0.0405655 0.702904
0.0209908 0.0408067 0.704526
0.0224703 0.0410483 0.706145
0.0239545 0.0412901 0.707752
0.02544 0.0415287 0.709266
0.0269174 0.0417546 0.71047
0.0283974 0.0419798 0.711646
0.0299064 0.0422296 0.713383
0.0314097 0.0424697 0.714882
0.033133 0.04131 0.717455
0.0329277 0.0427192 0.716584
-0.10853 0.0275782 0.735738
-0.106856 0.0277201 0.734102
-0.105179 0.0278591 0.732384
-0.10354 0.028005 0.730965
-0.101913 0.0281519 0.729606
-0.100298 0.0283003 0.728328
-0.0986094 0.0284278 0.726274
-0.0968706 0.0285394 0.723655
-0.0949967 0.0286111 0.719579
-0.0931194 0.0286762 0.715323
-0.0912761 0.028745 0.711271
-0.0894989 0.0288274 0.707775
-0.0877324 0.0289078 0.704266
-0.0860825 0.0290188 0.701911
-0.0844441 0.0291299 0.699595
-0.0827857 0.0292309 0.696957
-0.0811416 0.0293326 0.694377
-0.0795453 0.0294464 0.692265
-0.0779634 0.0295617 0.690237
-0.0763791 0.0296727 0.688092
-0.0748343 0.0297948 0.686356
-0.0733071 0.0299205 0.684768
-0.071816 0.0300575 0.683586
-0.0703322 0.0301953 0.682445
-0.0688759 0.0303423 0.68163
-0.067428 0.0304912 0.680892
-0.0659824 0.0306398 0.680151
-0.0645395 0.0307878 0.679407
-0.063109 0.0309402 0.678811
-0.0616824 0.0310931 0.678242
-0.0602447 0.031239 0.677459
-0.0588164 0.0313881 0.676787
-0.0573806 0.0315315 0.675942
-0.0559526 0.031677 0.67518
-0.0545341 0.0318263 0.674542
-0.0531272 0.0319806 0.674075
-0.0517257 0.0321372 0.673678
-0.0503139 0.0322858 0.673045
-0.0489026 0.0324328 0.672373
-0.0474935 0.0325794 0.671697
-0.0460917 0.0327291 0.671126
-0.0446902 0.0328774 0.670514
-0.0433091 0.0330397 0.670335
-0.0419292 0.0332024 0.670168
-0.0405565 0.0333707 0.670163
-0.0391787 0.0335341 0.670019
-0.0378086 0.0337041 0.670069
-0.0364355 0.033871 0.670032
-0.0350637 0.0340389 0.670022
-0.0336835 0.0341966 0.669725
-0.0323098 0.0343609 0.669614
-0.0309342 0.0345217 0.669411
-0.0295618 0.0346857 0.6693
-0.028196 0.0348589 0.669446
-0.0268369 0.0350438 0.669917
-0.025477 0.0352297 0.67041
-0.0241207 0.0354259 0.671178
-0.0227621 0.0356225 0.67195
-0.0213981 0.035812 0.67252
-0.0200311 0.035998 0.672995
-0.0186632 0.0361856 0.673505
-0.0172908 0.0363621 0.673716
-0.0159192 0.0365448 0.67409
-0.0145453 0.0367199 0.674259
-0.0131714 0.0368975 0.674492
-0.0117968 0.0370738 0.674691
-0.010422 0.0372535 0.674974
-0.00904628 0.0374285 0.675137
-0.00766968 0.0376186 0.675686
-0.00629052 0.0378178 0.676463
-0.0049091 0.0380185 0.677265
-0.00352357 0.0382286 0.6783
-0.0021328 0.038448 0.679559
-0.000731782 0.0386931 0.681449
0.000675261 0.0389389 0.683334
0.00208988 0.0391896 0.685325
0.00351118 0.0394423 0.687346
0.00493741 0.0396918 0.689265
0.00635893 0.0399177 0.690594
0.00778768 0.0401504 0.692074
0.00922594 0.0403927 0.693773
0.0106615 0.0406212 0.695123
0.0120988 0.0408463 0.69638
0.0135412 0.0410731 0.69767
0.0149785 0.0412871 0.69864
0.0164194 0.0415023 0.699633
0.0178687 0.0417251 0.700791
0.0193304 0.0419595 0.702213
0.0208001 0.0421987 0.703732
0.0222787 0.0424433 0.705362
0.023762 0.0426882 0.706983
0.0252503 0.0429334 0.708597
0.0267266 0.043161 0.7098
0.0282053 0.043388 0.710974
0.0297092 0.0436364 0.712622
0.0312109 0.0438785 0.714112
0.0327233 0.0441265 0.715726
-0.108379 0.0289823 0.732656
-0.106821 0.0291477 0.732025
-0.105214 0.0293 0.730921
-0.103613 0.0294523 0.729837
-0.101997 0.0295992 0.728573
-0.100372 0.0297422 0.727188
-0.0986651 0.0298607 0.724947
-0.0968827 0.029955 0.721882
-0.0950232 0.0300229 0.717932
-0.0931722 0.0300877 0.713931
-0.0913539 0.0301565 0.710128
-0.0896077 0.030242 0.706953
-0.0878816 0.0303289 0.703876
-0.0862094 0.0304287 0.701278
-0.0845481 0.030528 0.698701
-0.0828811 0.0306212 0.695957
-0.0812304 0.0307155 0.693291
-0.0796431 0.0308282 0.691272
-0.0780698 0.0309428 0.689339
-0.0764929 0.0310525 0.687276
-0.0749476 0.0311709 0.685522
-0.0734161 0.0312916 0.683869
-0.0719212 0.0314245 0.682624
-0.0704448 0.0315626 0.681568
-0.0689954 0.0317107 0.680835
-0.0675545 0.0318609 0.680184
-0.0661147 0.0320102 0.679515
-0.0646723 0.0321568 0.678771
-0.0632369 0.0323053 0.678092
-0.0618057 0.0324541 0.677436
-0.0603681 0.0325982 0.676642
-0.0589367 0.0327435 0.675899
-0.0575068 0.032888 0.67514
-0.0560852 0.0330354 0.674475
-0.0546762 0.0331886 0.673993
-0.0532703 0.0333423 0.673535
-0.0518729 0.0335003 0.673207
-0.0504605 0.033647 0.672554
-0.049046 0.0337901 0.671808
-0.0476307 0.0339304 0.670989
-0.0462264 0.0340766 0.670346
-0.0448256 0.0342233 0.669729
-0.0434456 0.0343852 0.669552
-0.0420695 0.0345498 0.669452
-0.0407007 0.0347207 0.66953
-0.0393266 0.0348864 0.669462
-0.0379571 0.0350564 0.669513
-0.0365845 0.0352229 0.66947
-0.0352129 0.03539 0.669445
-0.0338332 0.0355469 0.669144
-0.0324603 0.0357109 0.669039
-0.0310894 0.0358768 0.668987
-0.0297197 0.036044 0.66897
-0.0283565 0.0362207 0.669209
-0.0269994 0.0364094 0.669756
-0.0256407 0.0365983 0.670309
-0.0242818 0.0367903 0.670938
-0.0229233 0.0369877 0.671704
-0.0215596 0.037178 0.672272
-0.0201929 0.0373648 0.67275
-0.0188244 0.0375507 0.673198
-0.0174523 0.0377274 0.67341
-0.0160804 0.0379074 0.6737
-0.0147064 0.0380794 0.67379
-0.0133326 0.0382541 0.673944
-0.0119581 0.0384246 0.673997
-0.010584 0.0386008 0.674188
-0.00920945 0.0387724 0.674266
-0.00783418 0.0389597 0.674727
-0.00645713 0.0391545 0.67537
-0.00507694 0.0393587 0.676234
-0.00369257 0.0395733 0.677342
-0.00230271 0.0397982 0.67869
-0.000901557 0.0400532 0.680747
0.000507079 0.0403122 0.682876
0.00192287 0.0405728 0.685027
0.00334492 0.0408324 0.687134
0.00477044 0.0410842 0.689034
0.00619127 0.0413115 0.690346
0.00761922 0.0415455 0.691806
0.00905564 0.0417879 0.693444
0.0104908 0.0420187 0.694798
0.0119277 0.0422457 0.696053
0.0133673 0.0424711 0.697262
0.0148018 0.0426829 0.698153
0.0162418 0.0428995 0.699141
0.0176855 0.0431171 0.700145
0.0191457 0.0433532 0.701554
0.0206137 0.043594 0.703057
0.0220905 0.0438403 0.70467
0.0235729 0.0440879 0.706297
0.0250602 0.0443358 0.707918
0.0265357 0.0445656 0.709124
0.0280169 0.0447981 0.710382
0.0295202 0.0450493 0.712037
0.0310173 0.0452901 0.71345
0.0325234 0.0455356 0.714956
-0.106795 0.0305715 0.730041
-0.105266 0.0307413 0.729623
-0.103691 0.0308979 0.728765
-0.102092 0.031047 0.727657
-0.100451 0.0311823 0.7261
-0.098736 0.0312941 0.723771
-0.0969315 0.0313762 0.720478
-0.0950887 0.0314417 0.716684
-0.0932584 0.0315057 0.712887
-0.0914598 0.0315739 0.709282
-0.089739 0.0316617 0.70637
-0.0880349 0.0317507 0.703532
-0.086356 0.0318438 0.700863
-0.0846817 0.0319339 0.698142
-0.0830146 0.0320223 0.695395
-0.0813575 0.0321096 0.692655
-0.079777 0.0322212 0.690713
-0.0782106 0.0323349 0.68886
-0.0766462 0.032446 0.686952
-0.0750949 0.0325588 0.685124
-0.0735681 0.0326786 0.68353
-0.072067 0.0328065 0.682202
-0.0705858 0.0329405 0.681081
-0.0691319 0.0330849 0.68028
-0.0676961 0.033236 0.679694
-0.0662525 0.033382 0.678964
-0.0648106 0.0335272 0.67822
-0.063371 0.0336717 0.677467
-0.0619392 0.0338188 0.676795
-0.0605062 0.0339634 0.676062
-0.0590765 0.0341081 0.675341
-0.057653 0.0342545 0.674681
-0.0562402 0.0344058 0.674164
-0.0548355 0.0345607 0.673758
-0.0534258 0.0347111 0.673228
-0.0520281 0.034868 0.672892
-0.0506118 0.0350107 0.67216
-0.0491903 0.035147 0.671265
-0.0477717 0.0352829 0.670366
-0.0463676 0.0354273 0.669715
-0.0449672 0.0355725 0.669091
-0.0435876 0.0357337 0.668905
-0.0422152 0.0359006 0.668878
-0.0408468 0.0360712 0.668948
-0.0394736 0.0362367 0.668887
-0.0381053 0.0364072 0.668951
-0.0367336 0.0365736 0.668915
-0.0353626 0.0367405 0.668889
-0.0339858 0.0368996 0.668663
-0.0326157 0.0370665 0.668641
-0.031248 0.0372362 0.668691
-0.0298809 0.0374066 0.668765
-0.0285195 0.0375866 0.669077
-0.0271622 0.0377758 0.669622
-0.0258036 0.0379655 0.670174
-0.0244431 0.0381548 0.67071
-0.0230846 0.0383528 0.671459
-0.0217209 0.0385432 0.672012
-0.0203545 0.0387312 0.672502
-0.0189865 0.0389182 0.672961
-0.0176153 0.0390982 0.673249
-0.0162427 0.0392754 0.673462
-0.0148683 0.0394441 0.673471
-0.0134944 0.0396153 0.673539
-0.0121198 0.0397798 0.673449
-0.0107461 0.0399528 0.67356
-0.00937236 0.040124 0.673631
-0.00799814 0.0403086 0.674014
-0.0066226 0.0404973 0.674493
-0.00524409 0.040699 0.675274
-0.00386136 0.0409145 0.676366
-0.00247303 0.0411423 0.677732
-0.00107191 0.0414078 0.679958
0.000338861 0.0416839 0.682408
0.00175675 0.0419584 0.684795
0.00317959 0.0422252 0.686987
0.00460462 0.0424796 0.688879
0.00602497 0.0427081 0.690173
0.00744947 0.0429377 0.691477
0.00888367 0.043179 0.693033
0.0103179 0.0434118 0.694385
0.0117543 0.0436407 0.695642
0.0131913 0.0438647 0.696776
0.0146271 0.044081 0.697737
0.0160689 0.0443026 0.698803
0.01751 0.0445188 0.699742
0.0189694 0.0447568 0.701147
0.0204338 0.0449961 0.702566
0.0219062 0.0452404 0.704082
0.0233842 0.0454862 0.705617
0.0248698 0.0457358 0.70722
0.0263475 0.0459713 0.708511
0.0278319 0.0462101 0.709862
0.0293312 0.0464609 0.711451
0.030827 0.0467033 0.712854
0.0323274 0.0469466 0.714265
-0.108318 0.0318264 0.728668
-0.106824 0.0320045 0.728559
-0.105308 0.0321762 0.728243
-0.103758 0.0323375 0.727595
-0.102151 0.0324814 0.72639
-0.100502 0.0326111 0.724746
-0.0987811 0.0327165 0.72235
-0.09699 0.0327964 0.719177
-0.0951691 0.0328619 0.715591
-0.0933576 0.0329249 0.711977
-0.0915754 0.0329922 0.708539
-0.0898616 0.0330773 0.705699
-0.0881633 0.0331632 0.70292
-0.0864931 0.0332545 0.700345
-0.0848276 0.0333433 0.697722
-0.0831689 0.0334301 0.695074
-0.081525 0.0335179 0.692491
-0.0799508 0.0336288 0.690628
-0.078385 0.0337397 0.688789
-0.0768328 0.0338529 0.687039
-0.0752869 0.0339653 0.685289
-0.0737591 0.0340823 0.683695
-0.0722446 0.0342022 0.682203
-0.0707551 0.0343307 0.680976
-0.0692889 0.0344677 0.680009
-0.067848 0.0346152 0.679352
-0.0664052 0.0347602 0.678632
-0.0649691 0.0349068 0.677969
-0.0635295 0.0350501 0.677217
-0.0620922 0.0351928 0.676461
-0.0606598 0.0353363 0.675736
-0.0592307 0.03548 0.675022
-0.0578083 0.0356258 0.674378
-0.0564001 0.035779 0.67394
-0.0549954 0.0359329 0.673532
-0.0535813 0.0360793 0.672922
-0.0521834 0.0362353 0.672578
-0.0507671 0.0363764 0.671845
-0.0493422 0.0365086 0.670882
-0.0479233 0.0366423 0.669971
-0.0465183 0.0367846 0.669293
-0.0451147 0.0369256 0.668592
-0.0437329 0.0370838 0.668343
-0.0423614 0.0372507 0.668323
-0.0409937 0.0374212 0.668391
-0.0396238 0.0375892 0.6684
-0.0382561 0.0377595 0.668465
-0.0368855 0.0379266 0.668448
-0.0355152 0.0380935 0.66843
-0.0341412 0.0382553 0.668282
-0.0327719 0.0384223 0.668273
-0.0314087 0.0385983 0.668477
-0.0300456 0.0387751 0.668705
-0.0286862 0.038959 0.669105
-0.0273287 0.0391488 0.669644
-0.0259694 0.0393387 0.670176
-0.0246058 0.0395222 0.670555
-0.023246 0.0397178 0.671221
-0.0218823 0.0399086 0.671764
-0.0205163 0.0400976 0.672259
-0.0191477 0.0402825 0.672655
-0.0177769 0.0404629 0.672944
-0.0164031 0.0406337 0.673002
-0.0150285 0.0407984 0.672923
-0.0136548 0.0409661 0.672912
-0.012281 0.0411302 0.672818
-0.010908 0.0413002 0.672864
-0.00953512 0.0414708 0.672922
-0.00816187 0.0416556 0.673302
-0.00678753 0.0418411 0.673694
-0.00541076 0.04204 0.674386
-0.00402949 0.0422562 0.675461
-0.002641 0.0424952 0.677033
-0.00124024 0.042769 0.679366
0.000172112 0.0430602 0.68206
0.0015916 0.0433467 0.684628
0.00301622 0.0436238 0.686967
0.00443876 0.0438749 0.688721
0.00585864 0.044105 0.690004
0.00727995 0.0443295 0.691153
0.00871162 0.0445691 0.69262
0.0101451 0.0448035 0.693962
0.0115824 0.0450374 0.695284
0.0130172 0.0452602 0.696357
0.0144546 0.0454818 0.697397
0.0158979 0.0457084 0.698533
0.0173391 0.0459265 0.699484
0.018796 0.0461636 0.700824
0.0202624 0.0464085 0.702313
0.0217312 0.046651 0.703741
0.0232051 0.0468948 0.705186
0.0246864 0.0471426 0.706699
0.026166 0.0473833 0.708057
0.0276465 0.0476205 0.709332
0.0291419 0.0478705 0.710855
0.0306363 0.0481144 0.712247
0.0321352 0.0483593 0.713644
0.0339425 0.0472974 0.717889
0.0336285 0.0485947 0.714842
-0.108348 0.0332566 0.727216
-0.106856 0.0334339 0.727101
-0.105341 0.0336044 0.726778
-0.103796 0.0337654 0.726163
-0.102191 0.0339068 0.72496
-0.100544 0.0340333 0.723316
-0.098834 0.0341372 0.721009
-0.0970782 0.0342227 0.718171
-0.0952862 0.0342912 0.714869
-0.0935038 0.034358 0.711551
-0.0917221 0.0344195 0.708121
-0.0900058 0.0344988 0.705257
-0.0882977 0.0345764 0.702375
-0.0866275 0.0346632 0.699799
-0.0849655 0.0347488 0.697215
-0.0833289 0.0348396 0.694818
-0.0817056 0.0349316 0.692479
-0.0801383 0.0350423 0.690706
-0.0785792 0.0351534 0.688958
-0.0770402 0.0352697 0.68738
-0.0754949 0.03538 0.685654
-0.0739606 0.0354919 0.683992
-0.0724367 0.0356053 0.682391
-0.0709328 0.035725 0.680982
-0.0694526 0.0358535 0.679831
-0.0680061 0.035997 0.679095
-0.0665637 0.0361408 0.678381
-0.065128 0.0362867 0.677726
-0.063689 0.0364288 0.676984
-0.0622521 0.0365704 0.676233
