ply
format ascii 1.0
element vertex 1582
property float x
property float y
property float z
end_header
0.0585185 -0.0265572 0.737966
0.0600473 -0.026054 0.737796
0.061577 -0.0256102 0.737352
0.0631047 -0.0251244 0.737104
0.0646319 -0.0246573 0.736771
0.066158 -0.0242137 0.736332
0.0676825 -0.0238169 0.735682
0.0692062 -0.0233438 0.735382
0.0707299 -0.022838 0.735232
0.0722543 -0.0222969 0.735242
0.0737807 -0.0217118 0.735452
0.0753094 -0.0210919 0.735816
0.0768358 -0.0205393 0.735877
0.0783612 -0.0200086 0.735838
0.0798896 -0.0194351 0.735991
0.0814188 -0.0188572 0.736162
0.0829505 -0.0182564 0.736435
0.0844854 -0.017631 0.736815
0.0860153 -0.0170728 0.736895
0.0875498 -0.016473 0.737159
0.0890872 -0.0158541 0.737504
0.0906271 -0.015224 0.737898
0.0921742 -0.0145474 0.738492
0.0937439 -0.0137125 0.739776
0.0953134 -0.0129087 0.740917
0.0968906 -0.012076 0.742178
0.0984849 -0.0111573 0.743806
0.100088 -0.0102114 0.745543
0.1017 -0.00925137 0.747333
0.103338 -0.00816688 0.749649
0.104989 -0.0070485 0.752099
0.106632 -0.00601933 0.754155
0.10827 -0.0050437 0.755971
-0.0395664 -0.0533325 0.765882
-0.0379261 -0.0529055 0.765188
-0.0362876 -0.0524798 0.764491
-0.0346205 -0.0521093 0.763497
-0.0329205 -0.0518045 0.762152
-0.0312652 -0.051427 0.761209
-0.029628 -0.0510223 0.760419
-0.0279947 -0.0506152 0.759645
-0.0263636 -0.0502097 0.758868
-0.0247497 -0.0497758 0.758247
-0.0231393 -0.0493387 0.757647
-0.0215429 -0.0488776 0.757179
-0.0199505 -0.0484112 0.75674
-0.018366 -0.0479309 0.756377
-0.0167723 -0.0474738 0.755895
-0.0151444 -0.0470971 0.754992
-0.0135184 -0.0467238 0.754077
-0.0119103 -0.046316 0.753347
-0.0103002 -0.0459193 0.752564
-0.00870188 -0.0455002 0.751902
-0.00713603 -0.0450047 0.751638
-0.00555674 -0.0445461 0.751185
-0.00398581 -0.0440693 0.750829
-0.00244458 -0.043515 0.750872
-0.000905411 -0.0429537 0.75095
0.000619296 -0.0423499 0.751245
0.00210504 -0.0416277 0.75214
0.00355852 -0.040797 0.75358
0.00499178 -0.0398868 0.755413
0.00642166 -0.0389443 0.757399
0.00784152 -0.0379443 0.759662
0.00926538 -0.03693 0.761983
0.0107001 -0.0359242 0.764249
0.0121819 -0.0350597 0.765796
0.0136618 -0.0341667 0.767477
0.0249381 -0.031551 0.761253
0.0265288 -0.031135 0.760588
0.0281142 -0.0307022 0.760008
0.0297192 -0.030388 0.758858
0.031332 -0.0301407 0.757392
0.0329574 -0.0300011 0.755415
0.0345679 -0.0298068 0.753712
0.0361785 -0.0296537 0.751821
0.037785 -0.0295155 0.749869
0.0393855 -0.0293806 0.747912
0.040975 -0.0292092 0.746138
0.0425605 -0.0290547 0.744294
0.0441353 -0.0288571 0.742663
0.045696 -0.0285709 0.741457
0.0472523 -0.0282802 0.740278
0.0487993 -0.027925 0.739408
0.0503389 -0.0275072 0.738833
0.0518735 -0.0270433 0.738476
0.0534026 -0.0265078 0.738453
0.0549306 -0.025949 0.738539
0.05646 -0.0254125 0.738519
0.0579908 -0.024907 0.738358
0.0595217 -0.0244272 0.738079
0.0610535 -0.0240113 0.737509
0.0625831 -0.02357 0.737058
0.0641111 -0.0231082 0.736701
0.0656382 -0.0226683 0.736248
0.0671635 -0.022273 0.735594
0.0686882 -0.0217973 0.735307
0.0702129 -0.0212702 0.735253
0.0717389 -0.0207078 0.735358
0.073266 -0.0201207 0.735573
0.0747964 -0.0194793 0.736029
0.0763239 -0.0189269 0.736086
0.0778503 -0.0183967 0.736043
0.0793783 -0.0178432 0.736104
0.0809084 -0.0172632 0.736282
0.0824398 -0.0166767 0.736487
0.0839754 -0.0160497 0.73687
0.0855059 -0.0154923 0.736944
0.0870405 -0.0148972 0.737183
0.0885783 -0.0142808 0.737515
0.0901188 -0.0136492 0.73791
0.0916669 -0.012967 0.738523
0.0932398 -0.0121044 0.739916
0.0948131 -0.0112724 0.741169
0.0963915 -0.0104323 0.742451
0.0979863 -0.00950879 0.744086
0.0995906 -0.00855661 0.745836
0.101203 -0.00758975 0.747639
0.102838 -0.00651851 0.74988
0.104489 -0.00539714 0.752324
0.106127 -0.00439082 0.754265
0.107763 -0.00342218 0.756038
-0.0401665 -0.0517211 0.765991
-0.0385294 -0.0512871 0.765339
-0.0368785 -0.0508813 0.764538
-0.0351925 -0.0505428 0.763377
-0.0334789 -0.0502621 0.761913
-0.0318109 -0.0499076 0.760854
-0.0301517 -0.0495439 0.759849
-0.0285057 -0.049162 0.758948
-0.0268722 -0.0487622 0.758148
-0.0252582 -0.0483295 0.757527
-0.0236496 -0.04789 0.756945
-0.0220637 -0.0474079 0.756591
-0.0204711 -0.0469425 0.756151
-0.0188678 -0.0465037 0.755575
-0.0172536 -0.0460931 0.754854
-0.0156162 -0.0457408 0.753833
-0.0139822 -0.0453891 0.752815
-0.0123686 -0.0449978 0.752008
-0.0107599 -0.0446017 0.75123
-0.00916251 -0.0441842 0.750567
-0.00758999 -0.0437096 0.750201
-0.00601189 -0.0432526 0.749747
-0.00444253 -0.0427766 0.749391
-0.00290159 -0.042226 0.749418
-0.00136314 -0.0416679 0.749481
0.000166508 -0.0410833 0.749679
0.00166353 -0.0404 0.750373
0.0031216 -0.0395906 0.751698
0.00455235 -0.0386808 0.753517
0.00597921 -0.0377371 0.755496
0.0073832 -0.0366939 0.75796
0.00879637 -0.0356513 0.760406
0.0102153 -0.0345979 0.762892
0.011676 -0.0336634 0.764775
0.0131342 -0.0326934 0.766823
0.0146154 -0.0317843 0.768559
0.0243656 -0.0298642 0.761681
0.0259905 -0.0296117 0.760231
0.0275776 -0.0291856 0.759623
0.0291836 -0.0288744 0.758467
0.0307938 -0.0286093 0.757097
0.0324165 -0.0284473 0.755242
0.0340203 -0.0282053 0.753778
0.0356288 -0.0280267 0.752021
0.0372319 -0.0278509 0.75026
0.0388319 -0.0276969 0.748405
0.0404213 -0.0275064 0.746733
0.0420094 -0.027353 0.744894
0.0435869 -0.0271577 0.743262
0.0451524 -0.0268967 0.741944
0.0467132 -0.0266319 0.740652
0.0482642 -0.0263031 0.739663
0.0498068 -0.0259054 0.738998
0.0513411 -0.02542 0.738741
0.0528701 -0.0248617 0.738821
0.0543981 -0.0242783 0.739016
0.0559298 -0.023758 0.73892
0.0574621 -0.0232551 0.738746
0.0589955 -0.0227995 0.738356
0.0605292 -0.0224048 0.737691
0.0620609 -0.0220075 0.737042
0.0635902 -0.0215735 0.736561
0.0651181 -0.0211587 0.735997
0.0666441 -0.020766 0.735336
0.0681692 -0.020287 0.735064
0.0696948 -0.0197391 0.735103
0.0712217 -0.0191543 0.735306
0.0727501 -0.0185482 0.735602
0.074281 -0.0179052 0.736061
0.0758092 -0.0173518 0.73612
0.0773365 -0.0168215 0.736076
0.0788651 -0.0162689 0.736131
0.0803959 -0.015689 0.736305
0.081928 -0.0151033 0.736504
0.0834624 -0.0144946 0.736802
0.0849935 -0.0139371 0.736876
0.0865263 -0.0133666 0.737005
0.0880646 -0.0127463 0.737349
0.0896081 -0.0120898 0.737849
0.0911647 -0.0113354 0.738768
0.0927419 -0.0104394 0.740293
0.0943189 -0.00958029 0.741651
0.0959009 -0.00871772 0.743018
0.0974933 -0.00781316 0.744557
0.0990945 -0.00688208 0.746201
0.100707 -0.00591106 0.748007
0.102343 -0.00483512 0.75025
0.103986 -0.00375362 0.752505
0.105619 -0.00277141 0.754329
0.107596 6.7395e-05 0.763968
-0.0407774 -0.0500908 0.766191
-0.0391383 -0.0496583 0.765534
-0.0374857 -0.0492536 0.764731
-0.0357963 -0.0489193 0.763556
-0.0340685 -0.0486629 0.761973
-0.0323792 -0.0483462 0.760719
-0.0307045 -0.0480109 0.759572
-0.0290367 -0.0476705 0.758458
-0.0273902 -0.0472963 0.757529
-0.0257772 -0.0468624 0.75692
-0.0241695 -0.046422 0.756348
-0.0225852 -0.0459371 0.756012
-0.0209919 -0.045474 0.755564
-0.0193699 -0.0450761 0.754779
-0.0177361 -0.0447104 0.753833
-0.0160888 -0.044383 0.752693
-0.0144468 -0.0440527 0.751575
-0.0128285 -0.0436762 0.750701
-0.0112285 -0.0432628 0.75002
-0.00963852 -0.0428304 0.749441
-0.00806517 -0.042361 0.749052
-0.00648773 -0.0419056 0.748595
-0.00492639 -0.0414113 0.748338
-0.00338055 -0.0408771 0.748282
-0.00183593 -0.0403397 0.748243
-0.00029976 -0.0397779 0.748326
0.00120279 -0.0391156 0.748912
0.00267125 -0.0383432 0.750043
0.00410091 -0.0374371 0.751833
0.00551931 -0.0364735 0.753897
0.00691328 -0.0354046 0.756471
0.00830467 -0.0342952 0.759229
0.0097091 -0.0331959 0.761922
0.0111466 -0.0321814 0.764184
0.0125824 -0.03113 0.766613
0.0140373 -0.0301185 0.768833
0.0155077 -0.0291366 0.770897
0.023695 -0.0277094 0.76434
0.0253699 -0.0276767 0.761841
0.0269994 -0.0274524 0.760269
0.0286279 -0.0272515 0.758595
0.0302441 -0.0270126 0.757109
0.0318678 -0.0268491 0.755275
0.0334689 -0.0265807 0.753945
0.0350723 -0.0263577 0.752409
0.0366741 -0.0261586 0.750768
0.0382743 -0.0259887 0.748999
0.0398661 -0.0257986 0.747334
0.0414568 -0.0256459 0.745504
0.043039 -0.025471 0.743786
0.0446097 -0.0252403 0.742335
0.0461734 -0.0249833 0.741014
0.0477265 -0.0246576 0.740016
0.049271 -0.0242627 0.73934
0.0508051 -0.0237554 0.739183
0.0523355 -0.0231965 0.739263
0.0538647 -0.0226087 0.739473
0.0553991 -0.0221112 0.739272
0.0569337 -0.0216272 0.739011
0.0584693 -0.0211967 0.738509
0.0600044 -0.0208033 0.737841
0.0615383 -0.0204488 0.737002
0.0630686 -0.0200155 0.73652
0.0645973 -0.0195849 0.736029
0.0661245 -0.01917 0.73547
0.0676508 -0.0186875 0.735216
0.0691778 -0.0181146 0.735363
0.0707057 -0.0175319 0.735552
0.0722344 -0.0169465 0.735753
0.0737654 -0.0163202 0.736133
0.0752945 -0.0157663 0.736192
0.0768226 -0.0152341 0.736155
0.078352 -0.0146849 0.736194
0.0798833 -0.0141074 0.736354
0.0814159 -0.0135233 0.736543
0.0829488 -0.0129415 0.736721
0.0844806 -0.0123822 0.7368
0.0860123 -0.0118295 0.736851
0.0875533 -0.0111838 0.737301
0.0891 -0.0105005 0.73791
0.090663 -0.00969105 0.739057
0.0922436 -0.0087655 0.740696
0.0938276 -0.00785564 0.742258
0.0954103 -0.00699185 0.743617
0.0970026 -0.00609071 0.745128
0.0986039 -0.00516155 0.74675
0.100213 -0.00421283 0.748446
0.101845 -0.00315903 0.750577
0.103484 -0.00209848 0.752725
0.105113 -0.00113692 0.754448
-0.0413615 -0.0485049 0.76614
-0.0397258 -0.0480653 0.765525
-0.0380572 -0.0476875 0.764585
-0.0363661 -0.0473558 0.763405
-0.0346268 -0.0471199 0.761725
-0.0329351 -0.0468075 0.760459
-0.0312386 -0.0465129 0.759106
-0.0295682 -0.046178 0.757973
-0.0279109 -0.0458255 0.756938
-0.026298 -0.045392 0.756332
-0.0246908 -0.0449512 0.755767
-0.0231155 -0.0444481 0.755528
-0.0215132 -0.0440039 0.754986
-0.0198809 -0.0436293 0.754088
-0.0182365 -0.0432883 0.753022
-0.0165869 -0.0429677 0.751859
-0.0149464 -0.0426359 0.750759
-0.0133291 -0.0422587 0.749896
-0.0117294 -0.0418462 0.749217
-0.0101375 -0.0414201 0.748611
-0.00855643 -0.040972 0.748119
-0.00697248 -0.0405356 0.747571
-0.00541305 -0.0400389 0.747329
-0.0038685 -0.0395039 0.747279
-0.00232472 -0.0389669 0.74724
-0.000788729 -0.0384071 0.747313
0.000719892 -0.0377659 0.74779
0.00220162 -0.0370374 0.748697
0.00363641 -0.036152 0.750372
0.00505266 -0.0351877 0.752425
0.00644306 -0.0341136 0.755006
0.00781742 -0.032953 0.757994
0.00920067 -0.031786 0.760998
0.0106093 -0.0306712 0.76373
0.0120251 -0.029546 0.766497
0.0134603 -0.0284576 0.76907
0.0149247 -0.0274483 0.771248
0.0164039 -0.026468 0.773274
0.0230378 -0.0256248 0.766616
0.0247417 -0.0257097 0.763571
0.0264069 -0.0256484 0.761233
0.0280568 -0.0255472 0.759097
0.0296762 -0.0253145 0.757591
0.0312999 -0.0251369 0.755833
0.0329027 -0.0248661 0.754523
0.0345048 -0.0246196 0.753104
0.0361095 -0.0244241 0.751457
0.0377129 -0.0242576 0.749682
0.0393099 -0.024089 0.747927
0.0409037 -0.0239411 0.746086
0.0424888 -0.0237699 0.744361
0.0440621 -0.0235414 0.742908
0.0456304 -0.0233101 0.741476
0.0471878 -0.0230085 0.740372
0.0487357 -0.0226363 0.739596
0.050271 -0.0221269 0.739448
0.0518041 -0.02159 0.739425
0.0533341 -0.0210021 0.739632
0.0548699 -0.0205082 0.739414
0.0564057 -0.0200276 0.739137
0.0579434 -0.0196205 0.738532
0.0594798 -0.0192275 0.737866
0.0610149 -0.0188748 0.737024
0.0625461 -0.0184397 0.736552
0.0640758 -0.017987 0.736161
0.0656044 -0.0175468 0.735717
0.0671319 -0.01706 0.73548
0.0686601 -0.0164835 0.735641
0.070189 -0.0159022 0.735821
0.0717181 -0.0153365 0.735931
0.0732499 -0.0147119 0.736299
0.074781 -0.0141325 0.736467
0.0763116 -0.0135777 0.736527
0.0778424 -0.0130241 0.736582
0.0793735 -0.0124704 0.736636
0.0809036 -0.011937 0.736602
0.0824352 -0.0113805 0.736667
0.0839675 -0.0108238 0.736734
0.0854999 -0.0102675 0.736798
0.087046 -0.00957221 0.737456
0.0886007 -0.00881851 0.738359
0.0901677 -0.00797757 0.73963
0.0917503 -0.00704011 0.741304
0.093338 -0.00610269 0.74297
0.0949184 -0.00526363 0.744211
0.096505 -0.00440707 0.74552
0.0981031 -0.00349983 0.747036
0.0997083 -0.0025776 0.748607
0.101336 -0.00154512 0.750632
0.102974 -0.000483498 0.752769
0.104603 0.000478969 0.754482
-0.0419366 -0.0469336 0.766005
-0.0403066 -0.0464834 0.76545
-0.0386275 -0.046123 0.764424
-0.0369341 -0.0457951 0.763233
-0.0351928 -0.0455626 0.761549
-0.0334891 -0.0452721 0.760178
-0.0317815 -0.0449983 0.758727
-0.03011 -0.0446658 0.757591
-0.0284436 -0.0443312 0.756471
-0.0268292 -0.0439007 0.755854
-0.0252125 -0.0434797 0.755192
-0.0236272 -0.0429977 0.754846
-0.0220241 -0.0425566 0.754293
-0.0203824 -0.0422032 0.753294
-0.018721 -0.0419015 0.752038
-0.0170707 -0.0415852 0.750863
-0.0154299 -0.0412567 0.749757
-0.013805 -0.0408999 0.7488
-0.0122067 -0.0404867 0.748132
-0.0106229 -0.0400434 0.747619
-0.00904272 -0.0395956 0.747131
-0.00746695 -0.0391406 0.746681
-0.00591635 -0.0386224 0.746548
-0.00437304 -0.0380855 0.746509
-0.00282964 -0.0375486 0.74647
-0.00129297 -0.0369927 0.746525
0.000229237 -0.036393 0.746794
0.00172409 -0.035707 0.747485
0.00315836 -0.0348247 0.749133
0.00456682 -0.0338402 0.751271
0.00594638 -0.032735 0.753982
0.00730389 -0.0315217 0.757204
0.0086774 -0.0303238 0.760334
0.0100773 -0.0291799 0.763185
0.0114764 -0.0279948 0.766217
0.0129035 -0.0268751 0.76892
0.0143626 -0.0258439 0.771184
0.0158409 -0.0248583 0.773217
0.0179076 -0.0255611 0.774934
0.0173611 -0.0240198 0.774538
0.0195847 -0.025394 0.773049
0.0189863 -0.0236217 0.773763
0.0206961 -0.0236222 0.771104
0.0223996 -0.023636 0.768396
0.0241191 -0.0237757 0.76511
0.0258101 -0.0238258 0.762262
0.0274781 -0.023805 0.759761
0.0291087 -0.0236221 0.758031
0.0307352 -0.0234484 0.756266
0.0323409 -0.0231832 0.754936
0.0339422 -0.0229188 0.75361
0.0355524 -0.0227447 0.751872
0.0371557 -0.0225632 0.750178
0.0387563 -0.0224041 0.74839
0.0403527 -0.0222594 0.746546
0.0419425 -0.0221106 0.744728
0.043516 -0.0218639 0.743367
0.0450865 -0.0216344 0.741935
0.0466458 -0.0213322 0.74084
0.0481955 -0.020958 0.740075
0.049731 -0.0204292 0.740013
0.0512671 -0.0199123 0.739897
0.0527991 -0.0193304 0.740073
0.0543377 -0.0188601 0.739749
0.0558761 -0.0184035 0.739365
0.0574161 -0.0180194 0.738659
0.0589538 -0.0176294 0.737983
0.0604909 -0.0172981 0.73705
0.0620232 -0.0168621 0.736585
0.0635539 -0.0164055 0.736212
0.0650835 -0.0159387 0.735887
0.0666122 -0.0154472 0.73567
0.0681413 -0.0148693 0.735834
0.0696711 -0.0142911 0.735997
0.0712016 -0.0137095 0.736174
0.0727343 -0.013084 0.736541
0.0742674 -0.0124784 0.736819
0.0758016 -0.0118752 0.737086
0.0773354 -0.0112942 0.737255
0.0788672 -0.0107607 0.737219
0.0803956 -0.0102754 0.736976
0.0819264 -0.00974904 0.73691
0.0834593 -0.00919616 0.736957
0.0849933 -0.00863431 0.737042
0.086545 -0.00788727 0.737913
0.0881056 -0.00708054 0.739033
0.0896765 -0.00621221 0.740407
0.0912575 -0.00529422 0.741984
0.0928434 -0.00437721 0.743549
0.094422 -0.00355706 0.744699
0.0960094 -0.00269907 0.746003
0.0976082 -0.00178836 0.74752
0.0992114 -0.000881735 0.749012
0.100842 0.000175737 0.751124
0.102481 0.0012375 0.753244
0.104106 0.00218093 0.754864
-0.0441434 -0.0458134 0.766412
-0.0425241 -0.0453409 0.765975
-0.0408844 -0.0449063 0.765342
-0.0391956 -0.0445623 0.764238
-0.0374918 -0.0442526 0.762961
-0.0357486 -0.0440234 0.761273
-0.0340329 -0.043755 0.759797
-0.0323241 -0.0434842 0.758344
-0.0306421 -0.0431718 0.757112
-0.0289743 -0.0428406 0.755985
-0.0273511 -0.0424283 0.755279
-0.0257236 -0.0420299 0.754507
-0.0241271 -0.0415723 0.75404
-0.022514 -0.0411537 0.753378
-0.0208638 -0.040821 0.752284
-0.0192113 -0.0405025 0.751124
-0.0175699 -0.0401679 0.750053
-0.0159376 -0.0398213 0.749047
-0.0143129 -0.0394653 0.748094
-0.0127222 -0.0390348 0.747518
-0.0111394 -0.0385902 0.747016
-0.00956021 -0.0381404 0.746542
-0.00798556 -0.0376829 0.746108
-0.00644215 -0.037146 0.746068
-0.00489885 -0.0366091 0.746029
-0.00335545 -0.0360721 0.74599
-0.00181214 -0.0355352 0.745951
-0.000282414 -0.0349584 0.746107
0.00121334 -0.0342764 0.746774
0.0026538 -0.0334148 0.748308
0.00405968 -0.0324244 0.750457
0.00542374 -0.0312711 0.753381
0.00676513 -0.0300053 0.75683
0.00813499 -0.0287947 0.759994
0.00952716 -0.0276234 0.762953
0.010919 -0.0264112 0.76609
0.0123418 -0.0252746 0.76885
0.0138006 -0.0242406 0.771108
0.0152808 -0.0232611 0.773095
0.0168058 -0.022441 0.774318
0.0184041 -0.0219228 0.774111
0.0200789 -0.0217545 0.772265
0.0217691 -0.0216892 0.769944
0.0234876 -0.0218021 0.766803
0.0251926 -0.0219015 0.763741
0.026878 -0.0219517 0.760923
0.0285207 -0.0218171 0.758978
0.0301544 -0.0216692 0.757104
0.0317672 -0.0214315 0.755654
0.0333747 -0.0211904 0.754226
0.0349886 -0.0210253 0.752458
0.0365977 -0.0208679 0.750664
0.0382043 -0.0207371 0.748757
0.0398032 -0.0205959 0.746908
0.0413958 -0.0204525 0.745078
0.0429705 -0.0202005 0.743749
0.0445388 -0.0199276 0.74252
0.0460962 -0.0195821 0.741625
0.0476465 -0.0191867 0.740959
0.0491841 -0.018656 0.740901
0.0507227 -0.0181401 0.740777
0.0522581 -0.0175805 0.74085
0.0538005 -0.0171348 0.740415
0.055342 -0.016701 0.739929
0.056885 -0.0163372 0.739136
0.0584262 -0.0159954 0.738249
0.0599656 -0.0156915 0.737201
0.0614996 -0.01528 0.73663
0.0630315 -0.0148417 0.736178
0.064562 -0.0143748 0.735854
0.0660916 -0.0138402 0.735826
0.0676219 -0.0132409 0.736078
0.0691531 -0.0126404 0.736335
0.0706858 -0.0120148 0.736699
0.0722206 -0.0113639 0.737169
0.0737571 -0.0107101 0.73765
0.0752946 -0.0100735 0.738055
0.0768309 -0.00948614 0.738246
0.0783638 -0.00897369 0.738117
0.0798941 -0.00849568 0.737841
0.0814234 -0.00802025 0.737555
0.0829562 -0.00749008 0.737503
0.0844923 -0.0069219 0.737611
0.0860458 -0.00616682 0.738507
0.0876079 -0.00535395 0.739642
0.0891795 -0.00448636 0.741001
0.0907585 -0.00359017 0.742472
0.0923443 -0.00267734 0.744006
0.0939235 -0.00185666 0.745148
0.0955181 -0.000946354 0.746658
0.0971226 1.07623e-06 0.748313
0.0987311 0.000940393 0.749927
0.10036 0.00198227 0.751957
0.101992 0.00300062 0.753879
0.103927 0.00584829 0.763307
-0.0447077 -0.0442601 0.766168
-0.0430963 -0.0437736 0.765806
-0.0414487 -0.0433519 0.765109
-0.0397676 -0.0429942 0.764085
-0.038051 -0.042707 0.762701
-0.0363163 -0.0424625 0.761105
-0.0345888 -0.0422155 0.759531
-0.0328777 -0.041949 0.758067
-0.0311837 -0.0416598 0.756726
-0.0295151 -0.0413305 0.755598
-0.0278712 -0.0409594 0.754688
-0.0262321 -0.0405854 0.753798
-0.0246244 -0.0401525 0.753211
-0.0230086 -0.0397413 0.752518
-0.0213592 -0.039409 0.751432
-0.0197179 -0.0390672 0.750399
-0.0180867 -0.0387108 0.749445
-0.0164622 -0.0383471 0.748534
-0.0148374 -0.0379915 0.747586
-0.0132468 -0.0375612 0.747013
-0.0116649 -0.0371142 0.746527
-0.010086 -0.0366639 0.746059
-0.00851136 -0.0362065 0.745628
-0.00696796 -0.0356695 0.745589
-0.00542465 -0.0351326 0.74555
-0.00388125 -0.0345956 0.745511
-0.00233794 -0.0340587 0.745472
-0.000801183 -0.0335025 0.745526
0.000694191 -0.0328201 0.746189
0.00213376 -0.0319567 0.74772
0.00353138 -0.0309411 0.749974
0.00488596 -0.0297574 0.753019
0.00621246 -0.0284416 0.756679
0.00757457 -0.0272031 0.75995
0.00896088 -0.0260093 0.76299
0.0103526 -0.0247951 0.766111
0.0117807 -0.0236766 0.768762
0.0132394 -0.0226407 0.771009
0.0147197 -0.0216603 0.772983
0.0162467 -0.0208467 0.774165
0.017822 -0.0202247 0.774447
0.0194645 -0.0199028 0.773323
0.0211429 -0.0197665 0.771348
0.0228459 -0.0197841 0.768667
0.0245574 -0.0198916 0.765585
0.0262605 -0.0200107 0.762466
0.0279196 -0.0199447 0.760214
0.0295615 -0.0198234 0.758228
0.0311854 -0.0196336 0.756564
0.0327967 -0.0193991 0.755114
0.0344202 -0.0192787 0.753152
0.0360352 -0.0191459 0.751256
0.037648 -0.0190427 0.749236
0.0392501 -0.0189078 0.747369
0.0408476 -0.0187868 0.745449
0.0424218 -0.0185129 0.744226
0.0439897 -0.0182159 0.743112
0.0455468 -0.0178449 0.742334
0.047097 -0.0174235 0.741785
0.0486366 -0.0168904 0.741735
0.0501775 -0.016375 0.741607
0.0517166 -0.0158382 0.741574
0.0532611 -0.0153924 0.741139
0.0548059 -0.0149801 0.740558
0.0563521 -0.0146415 0.739658
0.0578964 -0.0143266 0.738657
0.059438 -0.0140311 0.737577
0.0609744 -0.0136493 0.736878
0.0625079 -0.0132155 0.736409
0.0640396 -0.0127509 0.736074
0.0655704 -0.0121947 0.736138
0.0671016 -0.0116139 0.736307
0.0686341 -0.010987 0.736674
0.0701681 -0.0103531 0.737067
0.0717053 -0.00965131 0.737751
0.0732443 -0.00896389 0.738369
0.0747855 -0.00827874 0.738974
0.0763252 -0.0076657 0.739269
0.0778605 -0.00715249 0.73914
0.0793918 -0.00670121 0.738749
0.0809233 -0.00622952 0.738446
0.0824581 -0.00570094 0.738384
0.0839965 -0.00512992 0.7385
0.0855543 -0.00434293 0.73952
0.0871182 -0.00352802 0.740651
0.0886862 -0.0027064 0.741804
0.0902629 -0.00184134 0.743133
0.0918464 -0.000953551 0.744549
0.093424 -0.000152608 0.745599
0.0950233 0.00079211 0.747237
0.096633 0.00177647 0.749031
0.0982438 0.00272717 0.750678
0.0998704 0.00375004 0.752612
0.101513 0.00483506 0.754791
-0.0452758 -0.0427003 0.765952
-0.0436567 -0.0422262 0.765528
-0.0420015 -0.0418176 0.764769
-0.0403287 -0.0414451 0.763828
-0.0386108 -0.0411602 0.762444
-0.036888 -0.0408936 0.760973
-0.0351582 -0.0406508 0.75939
-0.0334343 -0.040408 0.757816
-0.0317258 -0.0401467 0.756344
-0.0300347 -0.0398616 0.755001
-0.0283704 -0.0395328 0.753886
-0.0267209 -0.039182 0.752887
-0.0251019 -0.0387748 0.752177
-0.0234773 -0.0383849 0.751385
-0.0218372 -0.0380351 0.750396
-0.0202067 -0.0376719 0.74948
-0.0185881 -0.0372887 0.748667
-0.0169831 -0.0368812 0.74798
-0.0153665 -0.0365067 0.747133
-0.0137753 -0.0360779 0.746558
-0.0121919 -0.0356346 0.746056
-0.0106123 -0.0351862 0.745582
-0.00903717 -0.03473 0.745149
-0.00749376 -0.0341931 0.74511
-0.00595046 -0.0336561 0.745071
-0.00440706 -0.0331192 0.745031
-0.00286375 -0.0325823 0.744992
-0.00132044 -0.0320454 0.744953
0.000174306 -0.0313616 0.745618
0.00161259 -0.0304949 0.747152
0.00300092 -0.0294506 0.749524
0.00434673 -0.028239 0.752678
0.00566496 -0.0268952 0.75644
0.00702012 -0.0256329 0.759797
0.00840609 -0.0244368 0.762823
0.00980896 -0.023263 0.765728
0.0112489 -0.0221901 0.768145
0.0127067 -0.0211533 0.770379
0.0141908 -0.0201907 0.772255
0.0157157 -0.0193709 0.773456
0.0172846 -0.018723 0.773855
0.0188967 -0.018264 0.773376
0.0205649 -0.0180736 0.771663
0.0222541 -0.018014 0.769356
0.0239511 -0.0180336 0.766697
0.0256467 -0.0180944 0.763863
0.0273149 -0.0180576 0.761491
0.0289579 -0.0179222 0.759578
0.0305896 -0.0177573 0.75781
0.0322123 -0.0175731 0.756138
0.033843 -0.0174791 0.754067
0.0354684 -0.0173973 0.751952
0.0370899 -0.0173382 0.749745
0.0386952 -0.0172113 0.747853
0.0402955 -0.0170941 0.745928
0.0418721 -0.016823 0.744699
0.0434437 -0.0165424 0.743517
0.0450006 -0.0161499 0.742838
0.0465524 -0.0157256 0.742303
0.0480936 -0.0151907 0.742259
0.0496359 -0.0146722 0.742142
0.0511752 -0.0141142 0.7422
0.0527204 -0.0136484 0.741853
0.0542675 -0.0132349 0.741279
0.0558163 -0.0128981 0.740373
0.0573639 -0.0126093 0.739263
0.0589083 -0.0123247 0.738141
0.0604484 -0.0120124 0.737143
0.061984 -0.011628 0.736462
0.0635173 -0.011212 0.735919
0.0650484 -0.0106363 0.736065
0.0665803 -0.0100719 0.736161
0.0681136 -0.0093892 0.736763
0.0696496 -0.00868072 0.73747
0.0711898 -0.00790095 0.738477
0.0727313 -0.00718494 0.739209
0.074276 -0.00645073 0.740014
0.075819 -0.00581325 0.740406
0.0773567 -0.00530468 0.740254
0.0788909 -0.00485143 0.73987
0.080425 -0.00438008 0.739563
0.081963 -0.00384535 0.739524
0.0835055 -0.00325141 0.73973
0.0850633 -0.002488 0.74064
0.0866287 -0.00167501 0.741751
0.0881984 -0.000854534 0.742889
0.0897742 -1.16038e-05 0.744112
0.0913543 0.000835302 0.745347
0.0929358 0.00165853 0.746478
0.0945371 0.00261371 0.748144
0.0961457 0.00358249 0.749858
0.0977651 0.00459057 0.751723
0.0994027 0.00568484 0.753931
0.101051 0.00680422 0.756231
-0.0442327 -0.0406518 0.765385
-0.0425768 -0.0402437 0.764629
-0.0409219 -0.0398385 0.763861
-0.0392044 -0.0395518 0.762495
-0.0374926 -0.0392642 0.761142
-0.0357509 -0.0390418 0.759466
-0.0340233 -0.0388048 0.757874
-0.0322998 -0.0385713 0.756273
-0.0305954 -0.0383119 0.754811
-0.0289092 -0.0380265 0.753487
-0.027257 -0.0376812 0.752469
-0.025609 -0.037335 0.751461
-0.0239654 -0.0369873 0.750466
-0.0223255 -0.036639 0.749479
-0.0207064 -0.0362522 0.748687
-0.0190903 -0.0358656 0.747899
-0.0175045 -0.0354142 0.747432
-0.0158964 -0.03502 0.746689
-0.0143046 -0.0345927 0.74611
-0.0127197 -0.0341531 0.745595
-0.0111389 -0.0337075 0.74511
-0.00956297 -0.0332535 0.744669
-0.00801957 -0.0327166 0.74463
-0.00647626 -0.0321797 0.744591
-0.00493286 -0.0316427 0.744552
-0.00338956 -0.0311058 0.744513
-0.00184625 -0.0305689 0.744474
-0.00035854 -0.0298641 0.745233
0.00107211 -0.0289731 0.746869
0.00244509 -0.0278795 0.749455
0.00377589 -0.026617 0.752823
0.00509142 -0.0252617 0.756607
0.00645217 -0.024016 0.759858
0.00784465 -0.022841 0.762761
0.00925906 -0.0217081 0.765451
0.0107152 -0.0206966 0.767562
0.0121785 -0.0196833 0.76967
0.0136621 -0.0187216 0.771527
0.0151849 -0.0178955 0.772748
0.0167517 -0.017241 0.773175
0.0183328 -0.016643 0.77334
0.0199841 -0.0163689 0.77202
0.0216591 -0.0162311 0.770084
0.023346 -0.0161861 0.767736
0.0250339 -0.0161888 0.765184
0.0267107 -0.0161781 0.762705
0.0283536 -0.0160222 0.760895
0.0299895 -0.0158606 0.759121
0.0316171 -0.0156844 0.75742
0.0332529 -0.0156006 0.755314
0.034889 -0.0155679 0.75299
0.0365181 -0.0155403 0.750656
0.03813 -0.0154404 0.748654
0.0397394 -0.0153739 0.746515
0.0413211 -0.0151281 0.745179
0.0428932 -0.0148334 0.744067
0.04445 -0.0144196 0.743484
0.0460077 -0.014036 0.74277
0.0475488 -0.0134813 0.74281
0.049093 -0.0129658 0.742679
0.0506339 -0.0124054 0.742743
0.052182 -0.0119549 0.74233
0.0537271 -0.0114754 0.742043
0.0552784 -0.0111381 0.741143
0.0568287 -0.0108517 0.740028
0.0583765 -0.0105904 0.738809
0.0599202 -0.0103246 0.737616
0.0614587 -0.00998924 0.736727
0.0629939 -0.00960419 0.736054
0.0645259 -0.00902719 0.736203
0.0660585 -0.00848188 0.736215
0.0675929 -0.00774847 0.737026
0.0691304 -0.00698968 0.737939
0.0706722 -0.00617823 0.73907
0.0722158 -0.00543357 0.739914
0.0737629 -0.00467094 0.740829
0.0753077 -0.00403469 0.741211
0.0768488 -0.00350125 0.74116
0.078388 -0.002999 0.74098
0.0799241 -0.00254145 0.740614
0.081466 -0.00198368 0.740665
0.0830127 -0.0013674 0.740959
0.0845706 -0.000627809 0.74176
0.0861339 0.000142635 0.742685
0.0877096 0.00101064 0.744005
0.0892878 0.00186157 0.745249
0.09087 0.00271257 0.746488
0.0924594 0.00359028 0.747829
0.0940683 0.00459516 0.749682
0.0956763 0.00554553 0.751304
0.0973004 0.00657677 0.753246
0.0989504 0.00774993 0.755753
0.100615 0.00896618 0.758422
-0.044781 -0.0391245 0.764996
-0.0431285 -0.0387105 0.764276
-0.0414923 -0.0382722 0.763682
-0.039789 -0.0379593 0.762458
-0.0380887 -0.0376494 0.761227
-0.0363562 -0.0374087 0.759655
-0.0346142 -0.0371975 0.757944
-0.0328775 -0.0369884 0.756233
-0.0311604 -0.0367533 0.754661
-0.0294618 -0.0364921 0.753226
-0.027798 -0.0361704 0.752099
-0.0261387 -0.0358477 0.750982
-0.0244746 -0.0355442 0.749778
-0.022841 -0.0351834 0.74886
-0.0212309 -0.0347775 0.748169
-0.0196255 -0.0343665 0.747506
-0.0180586 -0.033871 0.747256
-0.0164664 -0.0334379 0.746706
-0.0148733 -0.0330115 0.746126
-0.0132794 -0.0325919 0.745516
-0.0116895 -0.0321679 0.744931
-0.0101044 -0.0317364 0.744385
-0.00855277 -0.0312205 0.744244
-0.00700207 -0.0307032 0.744112
-0.00545867 -0.0301663 0.744072
-0.00391536 -0.0296294 0.744033
-0.00237879 -0.0290726 0.744088
-0.000904993 -0.0283252 0.745041
0.000510344 -0.0273859 0.746892
0.00186147 -0.0262203 0.749793
0.0031825 -0.0249217 0.7533
0.00449681 -0.0235579 0.757093
0.00586377 -0.0223284 0.760239
0.00726908 -0.021195 0.762924
0.00870753 -0.0201473 0.765197
0.0101706 -0.0191618 0.767171
0.0116453 -0.0181936 0.769055
0.0131334 -0.017252 0.770806
0.0146504 -0.0164047 0.772117
0.0162047 -0.0156975 0.772779
0.0177638 -0.0150008 0.773391
0.0193994 -0.0146482 0.772435
0.0210613 -0.0144373 0.770843
0.022738 -0.0143274 0.768803
0.0244166 -0.0142643 0.766563
0.0260966 -0.0142501 0.764113
0.0277347 -0.0140453 0.762531
0.029375 -0.0138847 0.760759
0.0310145 -0.0137577 0.758846
0.0326595 -0.0137077 0.7566
0.0343045 -0.0137093 0.754137
0.035944 -0.0137311 0.751596
0.0375628 -0.0136604 0.749477
0.0391764 -0.0136043 0.747304
0.0407616 -0.0133655 0.745944
0.0423366 -0.0130748 0.744818
0.0438934 -0.0126379 0.744336
0.0454522 -0.0122395 0.74369
0.0469935 -0.0116609 0.74383
0.0485423 -0.0111697 0.74359
0.0500869 -0.0106301 0.743559
0.0516372 -0.0101793 0.743146
0.0531844 -0.00969365 0.742885
0.054739 -0.00937306 0.741916
0.0562912 -0.00906468 0.7409
0.0578416 -0.00880153 0.739695
0.0593895 -0.00858495 0.738297
0.0609306 -0.00825548 0.737386
0.0624679 -0.00787511 0.736695
0.0640018 -0.00729925 0.736834
0.0655362 -0.00675031 0.736859
0.0670722 -0.0059691 0.737862
0.068611 -0.00523153 0.738676
0.0701541 -0.00441844 0.739803
0.0716992 -0.00366864 0.740659
0.0732478 -0.00290324 0.741577
0.0747935 -0.00228585 0.741874
0.0763366 -0.00174932 0.741834
0.0778793 -0.00122093 0.741759
0.0794193 -0.000733814 0.741515
0.0809638 -0.00016998 0.741588
0.0825125 0.000446557 0.741876
0.0840719 0.00118364 0.742658
0.0856369 0.00195765 0.743587
0.0872147 0.00283541 0.744935
0.0888003 0.0037477 0.746417
0.0903906 0.00465859 0.747886
0.0919908 0.00561566 0.749535
0.0936053 0.00664941 0.751487
0.0952129 0.00757793 0.753004
0.0968421 0.008635 0.755032
0.0985029 0.00987466 0.757783
0.100184 0.0111985 0.760859
-0.0452921 -0.0376616 0.764281
-0.0436535 -0.0372243 0.763684
-0.0420418 -0.0367426 0.763313
-0.0403605 -0.0363899 0.762298
-0.0386749 -0.0360523 0.761213
-0.03695 -0.0357963 0.759729
-0.0352054 -0.035589 0.758011
-0.0334672 -0.0353816 0.756304
-0.0317397 -0.0351658 0.754647
-0.0300394 -0.0349069 0.753211
-0.0283634 -0.0346092 0.751974
-0.0266904 -0.0343143 0.75073
-0.0250233 -0.0340166 0.749505
-0.0233963 -0.033641 0.748666
-0.0217856 -0.0332351 0.747979
-0.0201807 -0.032822 0.74733
-0.0186132 -0.0323266 0.747081
-0.0170201 -0.0318944 0.74653
-0.0154265 -0.0314677 0.745955
-0.0138253 -0.0310652 0.745267
-0.0122346 -0.0306418 0.744682
-0.0106476 -0.0302145 0.74412
-0.00908662 -0.0297227 0.743866
-0.00752787 -0.0292268 0.743632
-0.00598447 -0.0286898 0.743593
-0.00444117 -0.0281529 0.743554
-0.00291198 -0.0275745 0.74371
-0.00145362 -0.02678 0.744875
-6.87011e-05 -0.025745 0.747156
0.00125079 -0.0244753 0.750517
0.00255558 -0.0231179 0.754267
0.00386989 -0.0217462 0.758062
0.0052463 -0.0205416 0.761066
0.00667357 -0.0194788 0.7634
0.00814352 -0.0185413 0.765147
0.00962441 -0.0176212 0.766805
0.0111174 -0.0167243 0.768348
0.012617 -0.015832 0.769862
0.0141386 -0.0150076 0.771058
0.0156801 -0.0142505 0.771943
0.0172166 -0.0134561 0.772994
0.0188365 -0.0130295 0.772379
0.0204846 -0.0127476 0.771116
0.0221496 -0.0125705 0.76939
0.0238167 -0.0124347 0.767488
0.0254988 -0.0124152 0.765077
0.0271265 -0.012135 0.763838
0.0287663 -0.0119512 0.762177
0.0304108 -0.01183 0.760248
0.0320642 -0.0118099 0.757882
0.0337142 -0.011819 0.755398
0.0353646 -0.0118919 0.752647
0.0369878 -0.0118285 0.750507
0.0386082 -0.0118008 0.748222
0.0401968 -0.0115666 0.746848
0.0417796 -0.0113205 0.745533
0.0433405 -0.0109025 0.74497
0.0448993 -0.0104819 0.74442
0.0464386 -0.00985833 0.74475
0.0479899 -0.00936908 0.7445
0.0495348 -0.00880074 0.74459
0.0510839 -0.00829007 0.744432
0.0526352 -0.00782357 0.744086
0.0541944 -0.00752607 0.743022
0.0557493 -0.00721349 0.742026
0.0573023 -0.00693336 0.740897
0.0588545 -0.00674161 0.7394
0.0603986 -0.00641496 0.738479
0.0619391 -0.00603672 0.73778
0.0634755 -0.00547849 0.73784
0.0650124 -0.0049523 0.737766
0.0665498 -0.00421939 0.738556
0.0680896 -0.00353255 0.73915
0.069633 -0.00274622 0.740155
0.0711785 -0.00201899 0.740909
0.0727278 -0.00125051 0.741831
0.0742746 -0.000629852 0.742137
0.0758208 -5.01328e-05 0.742273
0.0773652 0.000483229 0.742217
0.078911 0.0010443 0.742276
0.0804579 0.00161518 0.742374
0.0820117 0.0022781 0.742847
0.0835731 0.00302029 0.74364
0.0851439 0.00384202 0.744753
0.0867247 0.00473443 0.746147
0.0883175 0.00570536 0.747851
0.0899138 0.00665637 0.749467
0.0915252 0.00769855 0.751443
0.093141 0.00872321 0.753339
0.0947492 0.00963634 0.754779
0.0963901 0.0107694 0.757091
0.0980686 0.0121265 0.760286
0.0997637 0.0135322 0.763659
-0.04419 -0.0357177 0.763196
-0.0425924 -0.0352112 0.762951
-0.0409314 -0.0348217 0.762126
-0.039258 -0.0344607 0.761165
-0.0375424 -0.0341864 0.759781
-0.0358062 -0.0339615 0.758162
-0.0340683 -0.0337517 0.756478
-0.0323293 -0.033557 0.75473
-0.0306269 -0.0333011 0.75329
-0.0289377 -0.0330288 0.751936
-0.0272352 -0.0327951 0.750404
-0.0255457 -0.0325455 0.748956
-0.0239268 -0.0321526 0.748207
-0.0223082 -0.0317648 0.747438
-0.0207054 -0.031347 0.746817
-0.0191448 -0.0308359 0.746645
-0.0175668 -0.0303673 0.746271
-0.0159733 -0.0299396 0.745704
-0.0143733 -0.0295333 0.74504
-0.0127819 -0.0291106 0.744455
-0.0111917 -0.0286901 0.743863
-0.00962087 -0.0282234 0.743492
-0.00805368 -0.0277503 0.743153
-0.00651028 -0.0272133 0.743114
-0.00496697 -0.0266764 0.743074
-0.00344557 -0.026075 0.743335
-0.0019837 -0.0252908 0.744444
-0.000644628 -0.0241142 0.747362
0.000641411 -0.0227353 0.751199
0.00192837 -0.0213133 0.755214
0.00324214 -0.0199325 0.759018
0.00461916 -0.018722 0.762022
0.00609356 -0.0178183 0.763608
0.00759736 -0.0170008 0.764793
0.00909749 -0.016153 0.766108
0.0106089 -0.0153302 0.767304
0.012119 -0.0144845 0.768597
0.0136344 -0.0136416 0.76987
0.0151686 -0.0128591 0.770865
0.0166912 -0.0120088 0.772159
0.018299 -0.0115287 0.771787
0.0199328 -0.0111779 0.770842
0.0215894 -0.0109555 0.76933
0.0232437 -0.0107476 0.76776
0.0249181 -0.0106754 0.765599
0.0265344 -0.0103213 0.764692
0.028166 -0.0100727 0.763326
0.0298098 -0.0099267 0.761515
0.0314646 -0.00989048 0.759232
0.0331187 -0.00990125 0.756754
0.034774 -0.0099802 0.753992
0.0364043 -0.00994122 0.751756
0.0380266 -0.00989899 0.749546
0.0396186 -0.00966287 0.748186
0.041202 -0.00939033 0.746989
0.0427615 -0.00892572 0.746626
0.0443193 -0.00845428 0.746294
0.0458595 -0.00779807 0.746755
0.0474139 -0.00729546 0.746557
0.0489634 -0.00673281 0.746616
0.050517 -0.00622596 0.746436
0.0520759 -0.00581196 0.745864
0.0536418 -0.00556225 0.744599
0.0552019 -0.00527764 0.743487
0.0567599 -0.00502678 0.742238
0.0583167 -0.00486191 0.740633
0.0598642 -0.0045349 0.739716
0.0614072 -0.00412779 0.739138
0.0629467 -0.00358775 0.739118
0.0644866 -0.00308895 0.738925
0.0660263 -0.00243087 0.739394
0.0675674 -0.00177745 0.739842
0.0691112 -0.00106371 0.740537
0.070657 -0.00036352 0.741173
0.0722068 0.000405013 0.742086
0.0737555 0.00104868 0.742483
0.0753051 0.00168068 0.742829
0.0768545 0.00228451 0.743059
0.0784054 0.00289923 0.743332
0.0799564 0.00349916 0.743544
0.0815146 0.00419359 0.744137
0.0830766 0.00491307 0.744829
0.0846478 0.00571636 0.745856
0.0862325 0.00663626 0.747347
0.0878278 0.00761957 0.749085
0.0894337 0.00865128 0.75101
0.0910566 0.00978481 0.753332
0.0926821 0.0108759 0.755475
0.0943039 0.0118773 0.75725
0.0959617 0.0131232 0.759987
0.0976517 0.0145473 0.763418
0.0993457 0.0159231 0.766642
-0.0431438 -0.0336781 0.762595
-0.0415022 -0.0332529 0.761952
-0.0398397 -0.0328711 0.761099
-0.0381341 -0.0325769 0.759823
-0.0364078 -0.0323319 0.758314
-0.034669 -0.0321223 0.75664
-0.0329277 -0.0319304 0.75489
-0.0312222 -0.0316787 0.753439
-0.0295193 -0.0314328 0.751967
-0.0278045 -0.0312241 0.750325
-0.0261132 -0.0309772 0.748874
-0.0244952 -0.0305805 0.748148
-0.0228765 -0.0301916 0.747389
-0.0212727 -0.0297744 0.746768
-0.0197108 -0.0292645 0.746591
-0.0181307 -0.0287992 0.746203
-0.0165366 -0.0283711 0.74564
-0.0149364 -0.0279632 0.744987
-0.013344 -0.0275415 0.744401
-0.0117438 -0.0271449 0.743701
-0.0101631 -0.0267031 0.743215
-0.00858685 -0.0262537 0.742767
-0.00703608 -0.0257369 0.742634
-0.00549278 -0.0252 0.742595
-0.00397209 -0.0245966 0.742863
-0.00250417 -0.0238309 0.743877
-0.00121744 -0.0224931 0.747514
2.67105e-05 -0.0209782 0.751942
0.00128602 -0.0194604 0.756361
0.00259295 -0.0180479 0.760276
0.00396353 -0.0168056 0.763396
0.00548336 -0.0160515 0.764287
0.00702181 -0.0153534 0.764919
0.0085478 -0.0145993 0.765801
0.0100839 -0.0138717 0.766558
0.0116131 -0.0131047 0.767488
0.0131386 -0.012309 0.768541
0.0146803 -0.0115655 0.769357
0.0162033 -0.0107261 0.770594
0.0177943 -0.0101773 0.770534
0.019412 -0.00975591 0.76991
0.0210578 -0.0094825 0.768635
0.0226935 -0.0091791 0.767499
0.0243511 -0.00901305 0.765764
0.0259563 -0.0085881 0.765173
0.0275812 -0.00828916 0.764034
0.0292159 -0.00807269 0.762541
0.0308624 -0.00796266 0.760592
0.0325133 -0.00792579 0.758334
0.0341669 -0.00796136 0.755775
0.0357996 -0.0079054 0.753623
0.0374238 -0.00784026 0.75152
0.0390228 -0.00762412 0.750078
0.0406082 -0.00732911 0.74898
0.0421742 -0.006885 0.748526
0.0437312 -0.00636562 0.748394
0.0452726 -0.00567623 0.748986
0.0468282 -0.00513174 0.748961
0.0483821 -0.00456362 0.749035
0.0499392 -0.00403711 0.748932
0.0515056 -0.00366002 0.748201
0.0530808 -0.0034833 0.74663
0.0546475 -0.00323628 0.745362
0.0562124 -0.0030408 0.743885
0.0577746 -0.00290701 0.742156
0.0593255 -0.00257462 0.741263
0.0608715 -0.00213673 0.740811
0.0624153 -0.00164444 0.740588
0.0639585 -0.00115071 0.740371
0.0655011 -0.000551358 0.74059
0.0670442 7.44599e-06 0.740641
0.0685887 0.000646067 0.74102
0.0701355 0.00134118 0.741628
0.0716859 0.0020899 0.742452
0.0732365 0.00276076 0.742954
0.0747904 0.00347152 0.743616
0.0763453 0.00415587 0.744167
0.0779019 0.00483338 0.744689
0.0794588 0.00548607 0.745107
0.0810202 0.00618626 0.745714
0.0825847 0.00690127 0.746378
0.0841568 0.00768437 0.747312
0.0857435 0.00860489 0.748791
0.0873411 0.00959209 0.750529
0.0889564 0.0107048 0.752758
0.0905877 0.0119017 0.755311
0.0922286 0.0131131 0.757909
0.0938648 0.014211 0.760048
0.0955314 0.0155028 0.76294
0.0972189 0.016887 0.766183
0.0989084 0.0182122 0.769178
0.101324 0.0192139 0.777403
0.100597 0.0194545 0.771837
-0.043665 -0.0321993 0.761971
-0.0420479 -0.03173 0.761549
-0.0403956 -0.0313293 0.760795
-0.0387164 -0.0309847 0.759773
-0.0370028 -0.0307146 0.758396
-0.0352614 -0.0305085 0.756716
-0.0335168 -0.0303219 0.754953
-0.031806 -0.0300796 0.753466
-0.0300817 -0.0298767 0.751799
-0.0283647 -0.0296719 0.75015
-0.0266814 -0.0294068 0.748796
-0.025062 -0.029012 0.748065
-0.0234433 -0.0286216 0.747318
-0.0218479 -0.0281835 0.746799
-0.0202846 -0.0276744 0.746617
-0.018704 -0.0272081 0.746236
-0.0171089 -0.0267804 0.745674
-0.0155075 -0.0263734 0.74502
-0.0139139 -0.0259521 0.744435
-0.0123045 -0.0255774 0.743637
-0.0107143 -0.0251589 0.743046
-0.00912877 -0.0247331 0.742491
-0.0075692 -0.0242402 0.742248
-0.00601858 -0.0237235 0.742116
-0.0044975 -0.0231212 0.742376
-0.00301689 -0.0223938 0.743207
-0.00179421 -0.02086 0.74771
-0.000604612 -0.0191694 0.752902
0.000610476 -0.0175003 0.757969
0.00189519 -0.0160019 0.762237
0.00329874 -0.0148589 0.764879
0.00487672 -0.0142981 0.764888
0.00645687 -0.0137448 0.764862
0.00801618 -0.0131132 0.765187
0.00957657 -0.0124808 0.765513
0.0111234 -0.011789 0.766103
0.0126485 -0.0109986 0.767128
0.0141944 -0.0102807 0.767825
0.0157197 -0.00946089 0.768969
0.0172988 -0.00886684 0.769111
0.0189046 -0.00839583 0.768712
0.0205386 -0.00806906 0.767682
0.0221583 -0.00768743 0.766897
0.023798 -0.00742498 0.765596
0.0253949 -0.00695067 0.765223
0.0270078 -0.00657564 0.764421
0.0286356 -0.00630617 0.763166
0.0302718 -0.0061147 0.761579
0.0319148 -0.00600474 0.75965
0.033562 -0.00596816 0.757414
0.0351958 -0.00588891 0.755372
0.0368189 -0.00577939 0.753469
0.038423 -0.00556658 0.752016
0.0400129 -0.00527139 0.750921
0.0415787 -0.00478645 0.750636
0.0431257 -0.00412173 0.751115
0.0446659 -0.00336643 0.751973
0.0462189 -0.0027229 0.752356
0.0477735 -0.00208089 0.752731
0.049336 -0.00153231 0.752712
0.0509157 -0.0012442 0.751602
0.0525014 -0.00112674 0.749786
0.0540804 -0.000988269 0.748065
0.055656 -0.000902204 0.746135
0.0572265 -0.000847562 0.744084
0.0587828 -0.000540284 0.743087
0.0603326 -9.75408e-05 0.742654
0.0618808 0.00037289 0.742336
0.0634275 0.000883488 0.742184
0.0649738 0.00142815 0.742172
0.06652 0.00191383 0.741919
0.0680663 0.00248024 0.741996
0.0696147 0.00315196 0.742501
0.0711657 0.00385151 0.743116
0.0727187 0.00455279 0.743735
0.0742758 0.00530512 0.744557
0.0758355 0.00605718 0.745375
0.0773987 0.00681826 0.746224
0.0789615 0.00752656 0.746857
0.0805305 0.00829767 0.747739
0.0821041 0.00909406 0.748717
0.0836839 0.00992736 0.749838
0.085275 0.0108554 0.751329
0.0868801 0.0118875 0.753226
0.0885022 0.013035 0.75557
0.0901384 0.0142489 0.758165
0.0917857 0.0154876 0.760846
0.0934298 0.0166233 0.76311
0.0950981 0.0179011 0.76592
0.0967703 0.0191385 0.76856
0.0984428 0.0203114 0.770936
0.100114 0.0214299 0.773088
-0.0442013 -0.0306932 0.761482
-0.042596 -0.0302025 0.761167
-0.0409534 -0.0297836 0.760506
-0.0392908 -0.0294075 0.759643
-0.0375973 -0.0290972 0.758468
-0.0358648 -0.0288726 0.756889
-0.0341176 -0.0286893 0.755122
-0.0323936 -0.0284721 0.753525
-0.0306658 -0.0282752 0.751841
-0.0289459 -0.0280745 0.750183
-0.0272624 -0.0278084 0.748844
-0.0256338 -0.027432 0.748031
-0.0240219 -0.0270245 0.747368
-0.0224234 -0.0265913 0.746828
-0.0208525 -0.0260981 0.746572
-0.0192714 -0.0256312 0.746194
-0.0176758 -0.0252027 0.74564
-0.0160719 -0.0248 0.744969
-0.0144769 -0.0243802 0.74438
-0.0128672 -0.0240045 0.743591
-0.011268 -0.0236077 0.742903
-0.00968031 -0.0231864 0.742331
-0.00811096 -0.0227191 0.741972
-0.00655177 -0.0222257 0.741733
-0.00501619 -0.0216656 0.741799
-0.00351502 -0.0210008 0.74234
-0.00237117 -0.0192268 0.747896
-0.00124585 -0.0173297 0.753979
-4.43638e-05 -0.0156083 0.759238
0.00120787 -0.0139927 0.763996
0.00265034 -0.0129699 0.766074
0.0042795 -0.0125792 0.765318
0.00588318 -0.0121053 0.764937
0.00747638 -0.0115966 0.764711
0.00906289 -0.0110649 0.764588
0.0106279 -0.010449 0.764839
0.0121587 -0.00968806 0.765727
0.0137141 -0.00901774 0.766212
0.0152442 -0.00822886 0.767215
0.0168124 -0.00759569 0.76753
0.0183913 -0.00700695 0.767651
0.0199967 -0.00654436 0.767221
0.0215991 -0.00607378 0.766828
0.0232207 -0.00571111 0.765968
0.0248154 -0.00521572 0.765687
0.0264301 -0.00484026 0.76489
0.0280547 -0.00453886 0.763778
0.0296769 -0.00424591 0.762635
0.0313107 -0.00405376 0.761067
0.0329439 -0.00389373 0.759368
0.034576 -0.00376722 0.757536
0.0362011 -0.00363332 0.755744
0.0378057 -0.00338172 0.754459
0.039393 -0.00301866 0.753651
0.0409612 -0.00250373 0.753487
0.0425052 -0.0017573 0.754297
0.044046 -0.000945258 0.755378
0.0456022 -0.000265894 0.755899
0.0471608 0.000406703 0.756388
0.0487284 0.000981553 0.756468
0.0503168 0.0012498 0.755274
0.0519096 0.00138361 0.753528
0.0535004 0.00144465 0.751489
0.0550898 0.00139369 0.748997
0.0566714 0.00133198 0.746473
0.0582357 0.0015516 0.745116
0.0597918 0.00192142 0.744381
0.0613448 0.00232881 0.743802
0.0628946 0.00285991 0.743729
0.0644444 0.00338231 0.743622
0.0659938 0.00386396 0.74335
0.0675428 0.0043834 0.743232
0.0690944 0.00509947 0.743908
0.0706481 0.0058002 0.744519
0.0722053 0.00655795 0.745356
0.0737672 0.0073673 0.746396
0.0753339 0.00821036 0.747566
0.0769023 0.00900613 0.748542
0.078471 0.00974636 0.749291
0.0800487 0.0105958 0.750471
0.0816296 0.0114331 0.751597
0.0832169 0.0123084 0.752868
0.0848156 0.013275 0.754494
0.0864299 0.0143629 0.756589
0.0880552 0.0154984 0.758861
0.0896945 0.0167001 0.761382
0.091344 0.0179227 0.763974
0.0929925 0.0190618 0.766228
0.0946557 0.0202639 0.768717
0.0963133 0.0213573 0.770771
0.0979724 0.0224079 0.772651
0.0996336 0.0234358 0.774434
-0.0431453 -0.0286728 0.760794
-0.0415043 -0.0282509 0.760152
-0.0398508 -0.0278571 0.759379
-0.0381711 -0.0275198 0.758341
-0.0364588 -0.0272544 0.756968
-0.0347092 -0.0270747 0.755195
-0.0329834 -0.0268596 0.753599
-0.0312541 -0.0266641 0.75192
-0.029532 -0.0264666 0.750259
-0.0278388 -0.0262197 0.748837
-0.0262069 -0.0258488 0.748003
-0.0245843 -0.0254638 0.747239
-0.0229839 -0.0250337 0.746688
-0.0214125 -0.0245403 0.746434
-0.0198406 -0.0240498 0.746167
-0.0182354 -0.0236428 0.745516
-0.0166375 -0.0232231 0.744927
-0.0150409 -0.0228056 0.744331
-0.0134307 -0.0224292 0.74355
-0.0118239 -0.0220508 0.742782
-0.0102336 -0.0216345 0.74219
-0.00865391 -0.0211947 0.741708
-0.00708639 -0.0207242 0.741367
-0.00553481 -0.0202102 0.741224
-0.0040023 -0.0196402 0.741333
-0.00288444 -0.0177897 0.747192
-0.000713825 -0.0136699 0.76069
0.000543327 -0.0120599 0.765381
0.00202345 -0.0111559 0.76691
0.00367408 -0.0108319 0.765861
0.00530215 -0.0104395 0.765119
0.00692484 -0.0100363 0.764428
0.0085318 -0.00958158 0.763967
0.0101153 -0.00903979 0.76389
0.0116568 -0.00832676 0.764563
0.0132228 -0.00770695 0.764825
0.0147632 -0.00697022 0.765595
0.0163201 -0.00629556 0.766091
0.017871 -0.00558401 0.766745
0.0194461 -0.00497798 0.766939
0.0210164 -0.00434357 0.767254
0.0226113 -0.00383133 0.767042
0.0242047 -0.00331411 0.766852
0.0258242 -0.00294772 0.766017
0.027437 -0.00255811 0.765286
0.0290534 -0.00220562 0.7644
0.0306787 -0.00193038 0.763189
0.032302 -0.00166815 0.76193
0.033933 -0.00149167 0.760314
0.0355711 -0.00140933 0.758308
0.0371787 -0.00113693 0.757112
0.0387632 -0.000702262 0.756602
0.0403275 -9.95075e-05 0.756799
0.041873 0.000692804 0.757785
0.0434185 0.00152068 0.758915
0.0449841 0.00216754 0.759287
0.0465531 0.00279138 0.759561
0.0481314 0.003306 0.759382
0.0497258 0.00357866 0.758206
0.0513245 0.00372031 0.756496
0.0529244 0.00373737 0.754282
0.0545262 0.00356692 0.75131
0.0561197 0.00335701 0.748191
0.0576912 0.00349375 0.7465
0.0592489 0.00392905 0.746031
0.0608056 0.00434679 0.745493
0.0623592 0.00486271 0.745355
0.063912 0.00544871 0.7455
0.0654654 0.00593176 0.745229
0.0670183 0.00643228 0.74503
0.0685735 0.00717779 0.745814
0.0701315 0.00792678 0.746608
0.0716938 0.00873858 0.747649
0.0732604 0.00958042 0.748805
0.0748324 0.0104585 0.750099
0.0764039 0.011228 0.750957
0.0779818 0.0120657 0.75208
0.0795665 0.0129608 0.753424
0.0811556 0.0138513 0.754744
0.0827537 0.0148102 0.756327
0.0843636 0.0158577 0.758249
0.0859781 0.016884 0.76008
0.0876041 0.0179719 0.762142
0.0892435 0.0191316 0.764474
0.0908913 0.0203008 0.766833
0.0925398 0.0214005 0.768912
0.0941896 0.0224588 0.77082
0.095839 0.023464 0.772515
0.0974963 0.0244862 0.774268
0.0991536 0.025465 0.775846
-0.0436997 -0.0271334 0.760464
-0.042037 -0.0267521 0.759634
-0.0403776 -0.0263699 0.758812
-0.0386974 -0.0260345 0.757774
-0.037003 -0.0257347 0.756573
-0.035269 -0.0255237 0.754961
-0.0335539 -0.0252863 0.753482
-0.0318325 -0.0250734 0.751895
-0.0301284 -0.0248363 0.750429
-0.0284426 -0.0245715 0.749101
-0.0268106 -0.0241978 0.748284
-0.0251933 -0.0237977 0.747593
-0.0235995 -0.0233487 0.747131
-0.0220258 -0.0228565 0.74687
-0.0204452 -0.0223828 0.746525
-0.0188373 -0.021979 0.745863
-0.0172292 -0.0215811 0.745176
-0.0156293 -0.0211686 0.74456
-0.0140107 -0.0208107 0.743698
-0.0124026 -0.0204327 0.742932
-0.0108115 -0.0200156 0.742346
-0.00922863 -0.0195812 0.741842
-0.00764896 -0.0191422 0.741359
-0.00608107 -0.0186739 0.741011
-0.00341243 -0.0163076 0.746692
-0.00143601 -0.0115613 0.762866
-0.000147422 -0.0100417 0.767116
0.00139917 -0.00935136 0.767685
0.00305557 -0.00903931 0.766587
0.00470751 -0.00872488 0.765505
0.00635343 -0.00840208 0.764465
0.00798149 -0.00802441 0.763669
0.00958402 -0.00755644 0.76327
0.0111428 -0.00691539 0.763626
0.01272 -0.00634629 0.763667
0.0142705 -0.00565963 0.764216
0.0158149 -0.00493583 0.764923
0.017351 -0.00416151 0.765843
0.0189012 -0.00343906 0.766536
0.0204425 -0.0026586 0.767473
0.0220182 -0.00204001 0.767715
0.0236059 -0.00148062 0.767703
0.0252217 -0.0010794 0.767019
0.0268175 -0.000573228 0.766782
0.0284283 -0.000163608 0.766138
0.0300335 0.000268588 0.765594
0.0316395 0.000682975 0.764976
0.0332566 0.00100595 0.763977
0.0348994 0.0011103 0.762067
0.0365081 0.00143483 0.761087
0.0381025 0.0018521 0.760497
0.0396801 0.00240258 0.760464
0.041239 0.00313002 0.761164
0.0427983 0.00387942 0.761952
0.0443708 0.00451549 0.762268
0.0459461 0.0051317 0.7625
0.0475301 0.00564707 0.762318
0.0491305 0.00592251 0.761152
0.0507321 0.00612181 0.759681
0.0523417 0.00609548 0.757297
0.0539599 0.00574009 0.753585
0.0555705 0.00527721 0.749453
0.0571493 0.00531731 0.747378
0.0587097 0.00574445 0.746876
0.060268 0.00619518 0.746471
0.0618226 0.00679829 0.746681
0.0633777 0.00745355 0.747098
0.0649344 0.00801797 0.74715
0.0664916 0.00862227 0.747361
0.0680517 0.0094549 0.74848
0.0696162 0.0103153 0.749704
0.0711863 0.0112426 0.751187
