ply
format ascii 1.0
element vertex 1660
property float x
property float y
property float z
end_header
0.102023 -0.0463007 0.858759
0.103585 -0.0460174 0.857628
0.105133 -0.0457965 0.856181
0.106684 -0.04554 0.854923
0.108249 -0.0451849 0.854177
0.109836 -0.0447034 0.854078
0.111427 -0.0442034 0.854074
0.113052 -0.0435349 0.854924
0.114695 -0.0428031 0.856091
0.116352 -0.0420237 0.85749
0.11801 -0.0412602 0.858803
0.119679 -0.04047 0.860238
0.121311 -0.0398494 0.86082
0.122916 -0.0393477 0.860801
0.124505 -0.0389058 0.860481
0.126136 -0.0383108 0.860927
0.127735 -0.0378362 0.860772
0.129361 -0.0372632 0.861101
0.130991 -0.0366824 0.861469
0.132584 -0.0362329 0.861188
0.134104 -0.0360217 0.859736
0.135683 -0.0356081 0.859281
0.137262 -0.0351911 0.858845
0.138853 -0.0347387 0.858584
0.140472 -0.034199 0.858749
0.142075 -0.0337064 0.858681
0.143647 -0.033306 0.858168
0.145216 -0.0329122 0.857627
0.146764 -0.0325725 0.856824
0.148272 -0.0323366 0.855529
0.149819 -0.0319874 0.85478
0.159949 -0.0310776 0.842405
0.161747 -0.0300907 0.844691
0.163447 -0.0293439 0.845841
0.165159 -0.0285763 0.847081
0.16684 -0.0278888 0.847941
0.168478 -0.0272987 0.848344
0.170118 -0.0267105 0.848736
0.171804 -0.0260265 0.849567
0.173449 -0.0254345 0.84997
0.175067 -0.0249023 0.850095
0.176718 -0.0243022 0.850529
0.178406 -0.0236344 0.851272
0.180104 -0.0229496 0.852088
0.181842 -0.0221898 0.853239
0.183591 -0.0214197 0.854433
0.185299 -0.0207332 0.855242
0.18702 -0.0200263 0.856136
0.188781 -0.0192527 0.857329
0.19052 -0.0185244 0.858309
0.192258 -0.0178037 0.859251
0.193975 -0.0171269 0.85999
0.195779 -0.016301 0.861393
0.197637 -0.0153851 0.86319
0.199512 -0.0144477 0.865072
0.201388 -0.0135215 0.866897
0.204383 -0.0131468 0.873697
0.203172 -0.0127603 0.86798
0.0587326 -0.059521 0.851439
0.060315 -0.0591699 0.850648
0.0618987 -0.0588653 0.849604
0.0634824 -0.0586106 0.848291
0.0650628 -0.0583683 0.846917
0.0666391 -0.0581234 0.845565
0.0682106 -0.0578557 0.844343
0.069777 -0.057516 0.843517
0.0713406 -0.0571516 0.842828
0.0729022 -0.0567475 0.842356
0.0744629 -0.0563215 0.842004
0.0760229 -0.0558964 0.841647
0.077581 -0.055529 0.840984
0.0791368 -0.0551881 0.840182
0.0806909 -0.054835 0.839449
0.0822426 -0.0544946 0.838652
0.0837915 -0.0541675 0.837787
0.0853401 -0.0538069 0.837104
0.086888 -0.0534323 0.836496
0.0884355 -0.0530462 0.835952
0.0899811 -0.052665 0.835384
0.099971 -0.0449583 0.859898
0.101536 -0.0446839 0.858723
0.103097 -0.0444111 0.857546
0.104647 -0.0441891 0.856115
0.106195 -0.0439572 0.85474
0.107757 -0.0436253 0.85388
0.109341 -0.0431597 0.853701
0.11094 -0.0426153 0.853919
0.112583 -0.0418601 0.855198
0.114245 -0.041034 0.856825
0.115909 -0.0402216 0.858373
0.117578 -0.0394149 0.859885
0.119259 -0.0385736 0.861562
0.120904 -0.0379091 0.862346
0.122524 -0.0373557 0.862579
0.124148 -0.0367959 0.86284
0.125799 -0.0361338 0.863605
0.12741 -0.0356276 0.863594
0.129042 -0.0350549 0.863913
0.130687 -0.0344355 0.864455
0.132293 -0.0339586 0.864299
0.133841 -0.0336767 0.863195
0.135421 -0.03328 0.862653
0.137007 -0.0328595 0.862226
0.138596 -0.0324293 0.861848
0.140199 -0.0319534 0.861693
0.141779 -0.0315478 0.861199
0.143347 -0.0311727 0.860561
0.144904 -0.030822 0.859806
0.14644 -0.030531 0.858772
0.147982 -0.0302145 0.857863
0.149569 -0.0297683 0.857573
0.16363 -0.0262378 0.852743
0.165332 -0.0255151 0.853748
0.166944 -0.0249998 0.853787
0.168531 -0.024543 0.853555
0.170131 -0.0240571 0.853458
0.171784 -0.0234578 0.853882
0.173391 -0.0229585 0.853843
0.174989 -0.0224808 0.853708
0.176634 -0.0219055 0.854016
0.178282 -0.0213253 0.854342
0.179948 -0.0207131 0.854814
0.181652 -0.0200279 0.855612
0.183355 -0.01935 0.856372
0.185008 -0.0187741 0.856669
0.186704 -0.0181161 0.857332
0.18844 -0.0173909 0.858293
0.190166 -0.016686 0.859157
0.191895 -0.0159847 0.860002
0.193627 -0.0152822 0.860846
0.195443 -0.0144312 0.862345
0.197303 -0.0135117 0.86414
0.199178 -0.0125723 0.866012
0.20104 -0.0116685 0.86772
0.202798 -0.0109505 0.868601
0.058234 -0.0579152 0.851468
0.0598178 -0.0575689 0.850655
0.0614006 -0.0572393 0.849754
0.0629845 -0.0569652 0.848556
0.0645657 -0.0567067 0.847279
0.0661446 -0.0564811 0.845831
0.067717 -0.0561948 0.844716
0.0692849 -0.0558535 0.843904
0.0708497 -0.0554732 0.843303
0.072413 -0.0550689 0.842832
0.0739751 -0.0546249 0.842574
0.0755368 -0.0541985 0.842225
0.0770974 -0.053795 0.841754
0.0786555 -0.0534517 0.840968
0.0802119 -0.0530956 0.840252
0.0817658 -0.0527565 0.83945
0.0833178 -0.0524137 0.838672
0.0848678 -0.0520699 0.837902
0.0864179 -0.0516948 0.837298
0.0879677 -0.0513046 0.836774
0.0895157 -0.0509223 0.836213
0.101039 -0.0431305 0.858359
0.1026 -0.0428677 0.857139
0.104154 -0.0426276 0.855811
0.105705 -0.0423821 0.854515
0.107278 -0.0419892 0.853968
0.108868 -0.0414922 0.853945
0.110481 -0.0408816 0.85449
0.112142 -0.0400326 0.856222
0.113817 -0.0391471 0.858127
0.115482 -0.0383364 0.859648
0.117157 -0.0375048 0.861266
0.118836 -0.0366807 0.862835
0.120478 -0.0360359 0.863513
0.122112 -0.0354337 0.863977
0.123756 -0.0348013 0.864587
0.12541 -0.0341345 0.86536
0.127035 -0.0335917 0.865524
0.128671 -0.0330106 0.865871
0.130324 -0.0323757 0.86648
0.131946 -0.0318556 0.866527
0.133538 -0.0314414 0.866061
0.135132 -0.0310156 0.865654
0.136726 -0.030588 0.865256
0.138314 -0.0301745 0.864791
0.13991 -0.0297374 0.864441
0.141475 -0.0293916 0.863657
0.143047 -0.02902 0.862999
0.144607 -0.0286752 0.862215
0.146136 -0.028419 0.861017
0.147698 -0.0280571 0.86032
0.149292 -0.0276038 0.860059
0.162279 -0.0234001 0.860649
0.163832 -0.0230467 0.859924
0.165441 -0.0225596 0.859817
0.167005 -0.0221757 0.859237
0.168555 -0.0218215 0.858523
0.170124 -0.0214192 0.85803
0.171735 -0.0209266 0.857952
0.17331 -0.0205099 0.857527
0.17488 -0.0201023 0.857063
0.176479 -0.0196331 0.856879
0.178098 -0.019121 0.856888
0.179743 -0.0185578 0.857127
0.181407 -0.0179573 0.85753
0.183069 -0.0173675 0.857885
0.184711 -0.0168156 0.858066
0.186394 -0.0161879 0.858584
0.188108 -0.0155054 0.859342
0.189825 -0.0148201 0.86011
0.191556 -0.0141139 0.860964
0.193291 -0.0134071 0.861817
0.195084 -0.0125965 0.863122
0.196929 -0.0117015 0.864792
0.198815 -0.0107434 0.86673
0.200666 -0.00985565 0.86835
0.202442 -0.00910685 0.869355
0.0593166 -0.0559234 0.850895
0.0609001 -0.0555861 0.850041
0.0624851 -0.0553049 0.848888
0.0640666 -0.0550214 0.847754
0.0656475 -0.0547971 0.846308
0.0672212 -0.0544931 0.845295
0.0687907 -0.05415 0.844494
0.0703572 -0.0537488 0.844005
0.0719225 -0.0533618 0.843444
0.0734864 -0.0529364 0.843086
0.0750496 -0.0525126 0.842722
0.0766118 -0.0521093 0.842251
0.0781717 -0.0517665 0.841465
0.0797299 -0.0514092 0.840758
0.0812862 -0.0510522 0.840053
0.0828402 -0.0507093 0.839277
0.0843921 -0.0503672 0.838501
0.0859431 -0.0500071 0.837821
0.0874954 -0.049607 0.837349
0.0890442 -0.0492367 0.836727
0.100531 -0.0416556 0.857598
0.1021 -0.0413409 0.85665
0.103662 -0.0410533 0.85557
0.105224 -0.0407462 0.854591
0.106821 -0.0402179 0.854722
0.108428 -0.0396363 0.855116
0.110058 -0.0389399 0.856078
0.111735 -0.0380176 0.858152
0.113419 -0.0370992 0.860196
0.115084 -0.0362982 0.861649
0.116763 -0.0354585 0.863285
0.11844 -0.0346502 0.864757
0.120081 -0.034023 0.865337
0.12172 -0.0334125 0.865829
0.123367 -0.0327759 0.866448
0.12501 -0.0321683 0.866921
0.126639 -0.0316199 0.867103
0.128263 -0.0310936 0.867179
0.129905 -0.0305046 0.867555
0.131516 -0.03003 0.867379
0.133122 -0.0295734 0.867117
0.13472 -0.0291427 0.866728
0.136337 -0.028646 0.866659
0.137951 -0.0281634 0.866522
0.139573 -0.0276541 0.866511
0.141163 -0.0272427 0.866036
0.142754 -0.0268274 0.86558
0.144327 -0.0264595 0.864902
0.14586 -0.0262076 0.863684
0.147418 -0.0258721 0.862862
0.149006 -0.0254486 0.862455
0.15056 -0.0251183 0.861615
0.162475 -0.0201519 0.867987
0.163983 -0.0199349 0.866625
0.165486 -0.0197211 0.865254
0.166996 -0.0194831 0.863999
0.168487 -0.0192802 0.86259
0.169993 -0.0190336 0.861384
0.171534 -0.0187073 0.860545
0.173068 -0.0183902 0.859666
0.17459 -0.0180928 0.858702
0.176169 -0.0176719 0.858296
0.17779 -0.017161 0.858295
0.179447 -0.0165767 0.85862
0.181115 -0.0159725 0.859032
0.182769 -0.0154001 0.8593
0.184412 -0.0148535 0.859452
0.186072 -0.0142737 0.859748
0.187774 -0.0136155 0.86039
0.189483 -0.0129471 0.861071
0.191218 -0.0122347 0.861943
0.192968 -0.0115013 0.862902
0.194749 -0.010714 0.86409
0.196583 -0.00983736 0.865663
0.198469 -0.00887533 0.8676
0.200336 -0.00795753 0.869335
0.202131 -0.00717738 0.870464
0.0588199 -0.0543362 0.850812
0.0604047 -0.0540059 0.849927
0.0619888 -0.0537 0.848914
0.0635692 -0.053379 0.847986
0.0651493 -0.0531049 0.846814
0.0667241 -0.0527816 0.845908
0.068295 -0.0524212 0.845202
0.0698633 -0.052019 0.844718
0.0714307 -0.0516318 0.844157
0.0729965 -0.0512071 0.843796
0.0745616 -0.0507852 0.84342
0.0761257 -0.0503831 0.842943
0.0776876 -0.0500401 0.842161
0.0792479 -0.0496834 0.841453
0.0808056 -0.049348 0.840638
0.0823613 -0.0490081 0.839849
0.0839151 -0.0486672 0.83907
0.085468 -0.0483057 0.838399
0.0870215 -0.0479147 0.837881
0.0885733 -0.0475284 0.837342
0.104794 -0.0387819 0.85629
0.106415 -0.0381253 0.857047
0.108037 -0.037483 0.857731
0.109681 -0.0367282 0.858962
0.111354 -0.0358462 0.860811
0.113025 -0.0350078 0.862438
0.114688 -0.0342328 0.863745
0.116364 -0.0334168 0.865244
0.118035 -0.0326465 0.866511
0.119669 -0.0320608 0.866878
0.121315 -0.0314306 0.867457
0.12296 -0.0308136 0.867968
0.124589 -0.0302683 0.868131
0.126208 -0.0297694 0.868072
0.127821 -0.0292903 0.867915
0.129452 -0.0287483 0.868058
0.13106 -0.0282893 0.867805
0.13268 -0.0277874 0.867755
0.134293 -0.0273103 0.867589
0.135933 -0.0267456 0.867839
0.137564 -0.0262128 0.867933
0.139203 -0.025655 0.868144
0.140813 -0.0251936 0.8679
0.142432 -0.0247037 0.867792
0.144043 -0.0242386 0.867568
0.145602 -0.0239244 0.866639
0.147173 -0.0235697 0.865904
0.160483 -0.0187288 0.86925
0.16205 -0.018381 0.868486
0.163603 -0.0180614 0.867597
0.165138 -0.0177789 0.866544
0.166677 -0.017482 0.865559
0.168198 -0.0172201 0.86442
0.169738 -0.0169078 0.863512
0.171281 -0.0165858 0.862653
0.172808 -0.0162942 0.86166
0.174332 -0.0160035 0.860666
0.175902 -0.0156079 0.860145
0.177513 -0.0151259 0.860008
0.179152 -0.0145855 0.860131
0.180812 -0.0140011 0.860447
0.182446 -0.013473 0.860512
0.184079 -0.012949 0.860558
0.185739 -0.0123746 0.860825
0.18743 -0.0117382 0.86136
0.18913 -0.0110901 0.861944
0.190866 -0.0103751 0.862816
0.192616 -0.00964165 0.863764
0.194387 -0.00887374 0.864856
0.196221 -0.0079935 0.866428
0.198123 -0.0070007 0.868479
0.200007 -0.00605033 0.870338
0.201823 -0.00523414 0.871611
0.0599109 -0.0524485 0.849686
0.0614919 -0.0520894 0.848961
0.0630709 -0.051728 0.848253
0.0646509 -0.0514233 0.847248
0.0662259 -0.0510663 0.846523
0.0677975 -0.0506671 0.846022
0.0693673 -0.0502459 0.845637
0.0709371 -0.0498588 0.845077
0.0725052 -0.0494349 0.844708
0.0740724 -0.0490165 0.844313
0.0756388 -0.0486349 0.84373
0.0772026 -0.0483113 0.84285
0.0787649 -0.0479558 0.842138
0.0803246 -0.0476234 0.84131
0.0818822 -0.0472865 0.840509
0.083438 -0.0469463 0.839729
0.084994 -0.046567 0.83915
0.0865498 -0.0461703 0.838662
0.106048 -0.035769 0.860623
0.107671 -0.0351519 0.861165
0.109313 -0.0344348 0.862191
0.110969 -0.0336671 0.863459
0.112616 -0.0329693 0.864378
0.114262 -0.032291 0.8652
0.11593 -0.031523 0.866447
0.117592 -0.0308002 0.867471
0.119223 -0.0302372 0.867721
0.120873 -0.029591 0.868367
0.122514 -0.0289987 0.868753
0.124134 -0.0284971 0.868702
0.125749 -0.0280197 0.868536
0.127358 -0.0275601 0.868283
0.128979 -0.0270606 0.868223
0.130595 -0.0265768 0.868086
0.132223 -0.0260501 0.868152
0.133845 -0.0255436 0.868121
0.135501 -0.0249259 0.868611
0.137149 -0.0243451 0.868928
0.1388 -0.023755 0.869283
0.140435 -0.0232207 0.869377
0.142097 -0.022605 0.869847
0.143757 -0.0220013 0.87026
0.145366 -0.0215554 0.869938
0.14697 -0.0211204 0.869569
0.160038 -0.0169995 0.869546
0.161619 -0.0166203 0.868927
0.1632 -0.0162371 0.868327
0.164772 -0.0158716 0.86765
0.166336 -0.0155218 0.866905
0.167893 -0.0151854 0.866104
0.169468 -0.0148019 0.865514
0.171016 -0.0144776 0.864664
0.172548 -0.0141842 0.86368
0.174076 -0.0138961 0.862677
0.175638 -0.0135258 0.86204
0.177228 -0.0130951 0.861672
0.178857 -0.0125814 0.861669
0.180508 -0.0120194 0.861879
0.182123 -0.0115362 0.861741
0.183757 -0.0110156 0.861768
0.185405 -0.010466 0.861919
0.187087 -0.00985197 0.862349
0.188774 -0.00923104 0.862807
0.190499 -0.00853809 0.863573
0.192237 -0.00782655 0.864415
0.194007 -0.00706066 0.865487
0.195843 -0.00617504 0.867067
0.197747 -0.00517598 0.869127
0.199649 -0.00419046 0.871119
0.201483 -0.00333985 0.872525
0.0609939 -0.0504695 0.84905
0.0625717 -0.050074 0.848523
0.0641517 -0.0497408 0.847674
0.0657284 -0.0493864 0.846938
0.0673009 -0.0489707 0.846523
0.0688728 -0.048568 0.846042
0.0704444 -0.0481983 0.845393
0.0720138 -0.0477755 0.845019
0.0735824 -0.0473381 0.844722
0.0751501 -0.0469571 0.844136
0.0767159 -0.0466152 0.843354
0.0782799 -0.0462607 0.84264
0.0798414 -0.0459291 0.841811
0.0814007 -0.0455957 0.840996
0.0829582 -0.0452574 0.840209
0.0845164 -0.044869 0.839677
0.0860752 -0.0444514 0.839294
0.105763 -0.03285 0.866872
0.107345 -0.032543 0.865884
0.108956 -0.0320478 0.865815
0.110591 -0.031426 0.866356
0.11221 -0.0308935 0.866461
0.113836 -0.030335 0.866692
0.115483 -0.0296813 0.867377
0.117128 -0.0290449 0.867975
0.118744 -0.0285515 0.867886
0.120384 -0.0279548 0.868291
0.122015 -0.0274061 0.868463
0.123635 -0.0269039 0.868413
0.125255 -0.0264041 0.868353
0.126871 -0.0259223 0.868206
0.128498 -0.0253952 0.868272
0.130127 -0.0248684 0.868337
0.131764 -0.0243121 0.868538
0.133402 -0.0237576 0.868729
0.135068 -0.023105 0.869373
0.136726 -0.0224936 0.869824
0.138393 -0.0218565 0.870391
0.140053 -0.0212456 0.870832
0.141759 -0.0205005 0.871891
0.143446 -0.019821 0.87264
0.145119 -0.0191933 0.873148
0.146806 -0.0185336 0.8738
0.15963 -0.0151687 0.870285
0.161214 -0.0147876 0.869675
0.162808 -0.0143769 0.8692
0.164412 -0.0139403 0.868841
0.165981 -0.0135862 0.868116
0.167562 -0.0132001 0.867535
0.169161 -0.0127688 0.867157
0.170726 -0.0124142 0.866442
0.172276 -0.0120903 0.865592
0.173811 -0.011796 0.864618
0.175365 -0.0114515 0.863865
0.176945 -0.0110509 0.863363
0.178561 -0.010569 0.863216
0.180191 -0.0100584 0.863194
0.181807 -0.00957877 0.863037
0.183432 -0.00907907 0.862967
0.18507 -0.00855254 0.863012
0.186727 -0.00799038 0.863211
0.188403 -0.00739447 0.863554
0.190114 -0.00673095 0.864184
0.191852 -0.00601962 0.865016
0.193624 -0.00524898 0.866097
0.195462 -0.00435781 0.867686
0.197368 -0.00335247 0.869755
0.199271 -0.00236275 0.871746
0.201119 -0.00148424 0.873256
0.0619627 -0.0467317 0.857527
0.0636632 -0.0482597 0.847044
0.0652381 -0.0478729 0.84648
0.066809 -0.0474141 0.846289
0.0683803 -0.0469735 0.846005
0.0699518 -0.0465645 0.845561
0.0715221 -0.0461408 0.845192
0.0730915 -0.0456851 0.844987
0.0746606 -0.0453027 0.844411
0.076228 -0.044939 0.843743
0.0777941 -0.0445627 0.843141
0.0793578 -0.0442129 0.842408
0.0809186 -0.0438981 0.841502
0.0824785 -0.0435442 0.840796
0.0840396 -0.0431338 0.840375
0.0856002 -0.0427178 0.839983
0.105439 -0.0301262 0.872071
0.107005 -0.0299728 0.870337
0.108581 -0.0297282 0.869048
0.110191 -0.0292773 0.868756
0.111788 -0.0288887 0.868165
0.113399 -0.0284217 0.86795
0.11503 -0.0278553 0.86821
0.116662 -0.0272905 0.868459
0.118269 -0.0268456 0.868138
0.119899 -0.0262945 0.86832
0.12152 -0.0257904 0.86828
0.123136 -0.025311 0.868123
0.124762 -0.0247858 0.868179
0.126383 -0.0242811 0.868138
0.128012 -0.0237517 0.868213
0.129648 -0.0231972 0.868404
0.131292 -0.0226172 0.868711
0.132938 -0.0220326 0.869037
0.134613 -0.0213558 0.869787
0.136279 -0.0207153 0.870363
0.137961 -0.0200306 0.871142
0.139658 -0.0193026 0.872113
0.141406 -0.0184259 0.873759
0.143123 -0.0176617 0.874883
0.144834 -0.0169277 0.875863
0.146563 -0.0161527 0.877025
0.160824 -0.0129104 0.870605
0.162426 -0.0124841 0.870198
0.164043 -0.0120236 0.869944
0.165633 -0.0116238 0.869421
0.167207 -0.0112617 0.868734
0.16881 -0.0108276 0.868365
0.170389 -0.0104466 0.867766
0.171955 -0.0100948 0.867041
0.173506 -0.00977198 0.866192
0.175065 -0.00942547 0.865449
0.176635 -0.00905314 0.864821
0.178228 -0.00862563 0.864434
0.179835 -0.00816959 0.864171
0.18143 -0.00773822 0.863803
0.183056 -0.00724015 0.863723
0.184684 -0.00673723 0.863663
0.186341 -0.00617866 0.863842
0.188015 -0.00558572 0.864165
0.189714 -0.00494515 0.864689
0.191454 -0.00423186 0.865521
0.19324 -0.00343159 0.866716
0.195081 -0.00253723 0.868304
0.196975 -0.00154797 0.870286
0.198875 -0.000561286 0.872247
0.20072 0.000315957 0.873737
0.0646678 -0.0447468 0.854262
0.0663202 -0.0459364 0.845652
0.0678902 -0.0454703 0.8455
0.0694202 -0.0433666 0.853645
0.0819967 -0.041853 0.841258
0.0835581 -0.0414683 0.84071
0.0851176 -0.0410943 0.84011
0.103466 -0.0279665 0.876949
0.10505 -0.027772 0.875408
0.106617 -0.027656 0.8735
0.108186 -0.0274967 0.871805
0.109776 -0.0271866 0.870836
0.111353 -0.0269364 0.869586
0.112954 -0.0265402 0.869034
0.114574 -0.0260399 0.868974
0.116193 -0.0255436 0.868894
0.117794 -0.0251338 0.868409
0.11942 -0.0246084 0.868465
0.121036 -0.0241267 0.868318
0.122653 -0.0236424 0.868181
0.124285 -0.0230941 0.868343
0.125914 -0.0225664 0.868408
0.12755 -0.0220091 0.868609
0.129194 -0.0214284 0.868915
0.130845 -0.020822 0.869337
0.132499 -0.0202174 0.869749
0.134174 -0.0195383 0.870499
0.135842 -0.0188965 0.871075
0.137525 -0.0182093 0.871853
0.139225 -0.017475 0.872843
0.14097 -0.0166099 0.87442
0.142692 -0.0158302 0.875602
0.144414 -0.0150641 0.876716
0.160463 -0.0109505 0.871881
0.16207 -0.0105216 0.871482
0.163696 -0.0100426 0.871306
0.165306 -0.00960107 0.870965
0.166873 -0.00926288 0.870173
0.168477 -0.00883507 0.869775
0.170057 -0.00845825 0.869156
0.171616 -0.00813074 0.868326
0.173172 -0.00780371 0.867496
0.174735 -0.00745505 0.866762
0.176285 -0.0071339 0.865913
0.177856 -0.00676203 0.865286
0.179439 -0.00636146 0.864783
0.181022 -0.00595679 0.8643
0.182628 -0.0055031 0.864027
0.184258 -0.00499979 0.863966
0.185914 -0.00444239 0.864136
0.187588 -0.00385062 0.864449
0.189277 -0.00323134 0.864877
0.191019 -0.00251158 0.865727
0.192821 -0.00167916 0.867047
0.194663 -0.000779391 0.868644
0.196543 0.000186242 0.870509
0.198425 0.00114225 0.872325
0.200266 0.00201553 0.873787
0.203451 0.00280215 0.881976
0.202914 0.00436839 0.881409
0.101861 -0.0282869 0.87789
0.101404 -0.0263061 0.879387
0.103014 -0.0259756 0.878494
0.104605 -0.0257622 0.87705
0.106181 -0.0256193 0.875277
0.107749 -0.0254942 0.873428
0.109333 -0.02524 0.872198
0.110908 -0.0250192 0.870813
0.112504 -0.0246681 0.870048
0.114118 -0.0242103 0.869785
0.115733 -0.0237425 0.86957
0.11733 -0.0233634 0.86894
0.118951 -0.0228665 0.868861
0.120564 -0.0224052 0.868617
0.122183 -0.0219188 0.868489
0.123821 -0.0213486 0.868748
0.125457 -0.0207947 0.868928
0.12709 -0.0202532 0.869051
0.128742 -0.0196438 0.869483
0.1304 -0.0190171 0.869991
0.132054 -0.0184134 0.870394
0.13373 -0.0177322 0.871143
0.135406 -0.0170674 0.871814
0.137084 -0.0164018 0.872486
0.138791 -0.0156436 0.873571
0.140546 -0.0147429 0.875293
0.142255 -0.0140099 0.876252
0.143978 -0.0132412 0.877365
0.161775 -0.00838861 0.873487
0.163399 -0.00792385 0.873243
0.165024 -0.00745467 0.873017
0.166574 -0.00717195 0.871985
0.168157 -0.00679877 0.871346
0.169695 -0.00653313 0.870247
0.171231 -0.00626369 0.869167
0.172767 -0.00598851 0.868116
0.174332 -0.00564046 0.867382
0.175885 -0.00531762 0.866543
0.177467 -0.0049257 0.866002
0.17905 -0.00452964 0.86548
0.180623 -0.00415213 0.864881
0.182219 -0.00372284 0.864504
0.183837 -0.00324636 0.864327
0.185483 -0.00271064 0.864401
0.187147 -0.00214065 0.864618
0.188851 -0.00149042 0.86517
0.190608 -0.000741248 0.866135
0.192424 0.000121331 0.867568
0.194268 0.00102662 0.869174
0.196147 0.00199378 0.871029
0.198016 0.00292815 0.872739
0.199842 0.00377195 0.874065
0.201615 0.00451086 0.87495
0.0993079 -0.0248249 0.880943
0.100927 -0.0244598 0.880215
0.102543 -0.0241055 0.879437
0.104141 -0.023865 0.878129
0.105725 -0.0236888 0.876521
0.107297 -0.0235639 0.874682
0.108885 -0.0233101 0.873452
0.110462 -0.0230992 0.87203
0.11206 -0.0227503 0.871254
0.113672 -0.0223147 0.870885
0.115286 -0.0218688 0.870564
0.11688 -0.0215172 0.869808
0.118497 -0.0210469 0.869603
0.120108 -0.0206038 0.869272
0.121729 -0.0201146 0.869154
0.123374 -0.0195201 0.869518
0.125017 -0.0189419 0.869805
0.126658 -0.0183783 0.870024
0.128307 -0.0177843 0.870378
0.129966 -0.0171559 0.870886
0.131622 -0.0165527 0.871278
0.133294 -0.015893 0.87192
0.134958 -0.0152713 0.872389
0.136644 -0.0145801 0.873166
0.138345 -0.0138452 0.874136
0.140075 -0.0130274 0.87547
0.141751 -0.0124002 0.875948
0.161459 -0.00629642 0.875279
0.163093 -0.0058152 0.875101
0.164728 -0.0053296 0.874942
0.166288 -0.00502912 0.873987
0.167841 -0.00474281 0.872973
0.169335 -0.0045918 0.871384
0.170836 -0.00441533 0.869911
0.172337 -0.00422649 0.868495
0.173883 -0.00392853 0.867551
0.175438 -0.0036042 0.866721
0.177023 -0.00320813 0.866199
0.178606 -0.00281233 0.865677
0.180191 -0.00241244 0.865175
0.181787 -0.00198795 0.864778
0.183406 -0.00151104 0.864601
0.185053 -0.000974516 0.864675
0.186729 -0.000380743 0.864987
0.188436 0.000273262 0.865549
0.190207 0.00105462 0.866637
0.192038 0.0019454 0.868176
0.193896 0.00288443 0.869905
0.195765 0.00383206 0.871663
0.19762 0.00474197 0.873257
0.199447 0.00558879 0.874583
0.201207 0.0063018 0.875353
0.204229 0.00679752 0.882223
0.202971 0.00702045 0.876141
0.0972243 -0.0231555 0.883369
0.0988425 -0.0228473 0.88237
0.100455 -0.0225605 0.881273
0.102071 -0.0222292 0.88039
0.103672 -0.0219853 0.879101
0.105266 -0.0217697 0.877687
0.106842 -0.0216426 0.875868
0.108433 -0.0213856 0.874657
0.110013 -0.021178 0.873225
0.111606 -0.0208751 0.872237
0.113208 -0.0205084 0.871549
0.114819 -0.0200876 0.871112
0.116415 -0.0197362 0.870357
0.118034 -0.0192614 0.870171
0.119652 -0.0187948 0.869946
0.121284 -0.0182585 0.87004
0.122932 -0.0176626 0.870403
0.124587 -0.0170361 0.870902
0.126237 -0.0164436 0.871246
0.127888 -0.0158501 0.87159
0.12955 -0.0152199 0.872097
0.131208 -0.0146146 0.872489
0.13287 -0.0139983 0.872929
0.134524 -0.01342 0.873195
0.136197 -0.012779 0.87374
0.13787 -0.0121434 0.874256
0.139565 -0.0114401 0.87507
0.141218 -0.0108857 0.87522
0.142912 -0.0102024 0.875938
0.161155 -0.00416154 0.877222
0.162794 -0.00367473 0.877063
0.164424 -0.00321023 0.876808
0.165977 -0.00293919 0.875727
0.167523 -0.00268027 0.874599
0.168973 -0.00264553 0.87252
0.17044 -0.00256085 0.870663
0.171918 -0.00243456 0.868989
0.173453 -0.00216698 0.86792
0.175 -0.00186614 0.866995
0.176588 -0.0014657 0.866492
0.178175 -0.00106575 0.865989
0.179751 -0.00068897 0.865391
0.181348 -0.000264417 0.864994
0.182978 0.000235819 0.864913
0.184637 0.000793504 0.865072
0.186315 0.00139316 0.865404
0.188022 0.00204642 0.865955
0.189806 0.00285331 0.867139
0.19164 0.00375435 0.868705
0.193502 0.00470139 0.870453
0.195386 0.00568061 0.872325
0.197254 0.00661975 0.874024
0.199096 0.00749756 0.875463
0.200858 0.00821274 0.876232
0.202636 0.00895468 0.877106
0.0967264 -0.0214275 0.883596
0.0983511 -0.0210746 0.882809
0.0999671 -0.0207788 0.881761
0.101582 -0.0204691 0.880781
0.103188 -0.0202058 0.879589
0.10479 -0.0199457 0.878388
0.106374 -0.0197868 0.876723
0.107973 -0.019502 0.875648
0.10956 -0.0192703 0.874332
0.111155 -0.0189745 0.873316
0.11275 -0.0186605 0.872387
0.114358 -0.0182652 0.871834
0.115956 -0.0179122 0.871088
0.117578 -0.0174345 0.870911
0.119198 -0.0169632 0.870706
0.120843 -0.0163813 0.871002
0.122499 -0.0157515 0.871509
0.124163 -0.0150957 0.872133
0.125816 -0.0144969 0.872495
0.127469 -0.0139042 0.872829
0.129127 -0.0133003 0.873211
0.130774 -0.012743 0.873381
0.132431 -0.0121512 0.873704
0.134078 -0.0116022 0.873835
0.135738 -0.0110115 0.874149
0.137362 -0.0105512 0.873885
0.139025 -0.00995544 0.874218
0.14064 -0.00952802 0.873809
0.162524 -0.00144325 0.879378
0.164139 -0.00102966 0.878902
0.165688 -0.00078147 0.877726
0.167208 -0.000597568 0.87628
0.16863 -0.000646684 0.873857
0.170076 -0.000623144 0.871751
0.171533 -0.000555554 0.869837
0.173057 -0.000320853 0.868634
0.174595 -4.57748e-05 0.867603
0.176185 0.000354564 0.867101
0.177775 0.000754451 0.866598
0.179365 0.00115875 0.866114
0.180965 0.00158803 0.865737
0.182599 0.00209116 0.865665
0.184249 0.00262916 0.865738
0.185927 0.00322544 0.86605
0.187635 0.00387802 0.866591
0.189422 0.00469221 0.867794
0.191257 0.00559908 0.869369
0.193134 0.0065778 0.87123
0.195032 0.00758899 0.873216
0.196919 0.00856475 0.875047
0.198777 0.00947405 0.876601
0.200556 0.0102198 0.877484
0.202353 0.0109951 0.878482
0.0946034 -0.0200085 0.884802
0.0962283 -0.0196911 0.88385
0.097855 -0.0193349 0.883083
0.0994686 -0.0190732 0.881881
0.101081 -0.0187941 0.880766
0.102691 -0.0185134 0.879661
0.104298 -0.0182294 0.878576
0.105888 -0.0180414 0.877057
0.10749 -0.0177448 0.87604
0.109087 -0.0174679 0.874937
0.110682 -0.0171837 0.873872
0.112278 -0.016879 0.872904
0.113891 -0.0164644 0.872438
0.115496 -0.0160863 0.871808
0.117121 -0.015602 0.871661
0.118748 -0.0151087 0.871551
0.120399 -0.0144996 0.871962
0.122053 -0.0138855 0.872393
0.123722 -0.0132167 0.873064
0.125371 -0.0126405 0.87332
0.12702 -0.0120746 0.873528
0.128666 -0.0115211 0.873678
0.130312 -0.0109696 0.873819
0.131964 -0.0104026 0.874027
0.133605 -0.00988121 0.874032
0.135259 -0.00931364 0.87424
0.136874 -0.00888616 0.873831
0.138523 -0.00834244 0.873933
0.140123 -0.00796593 0.873304
0.163884 0.00124539 0.881359
0.165417 0.00143868 0.879952
0.16691 0.0015396 0.878162
0.168315 0.00143552 0.875518
0.169756 0.0014341 0.873317
0.171187 0.00142388 0.871087
0.172703 0.00163024 0.869769
0.17424 0.00189541 0.8687
0.175829 0.00228657 0.868159
0.177421 0.00268916 0.867665
0.179025 0.00311897 0.867287
0.180641 0.00357671 0.867024
0.182279 0.00408302 0.866962
0.183921 0.00459901 0.866939
0.185603 0.00519913 0.86726
0.187311 0.00585135 0.867791
0.189099 0.0066686 0.868993
0.190925 0.00755296 0.870461
0.192817 0.00856403 0.872437
0.194719 0.00958428 0.87444
0.196622 0.0105923 0.876386
0.198503 0.0115457 0.878101
0.200303 0.0123321 0.879137
0.202091 0.0130887 0.880047
0.0957345 -0.0179044 0.884327
0.0973614 -0.0175636 0.883492
0.0989734 -0.0173326 0.882155
0.100582 -0.0170987 0.880838
0.102193 -0.0168194 0.879733
0.103805 -0.0165135 0.878755
0.105404 -0.0162763 0.877468
0.107012 -0.0159511 0.876586
0.108615 -0.0156497 0.875598
0.110212 -0.0153706 0.874515
0.111809 -0.0150688 0.873537
0.113421 -0.0146735 0.872984
0.115028 -0.0142936 0.872364
0.116655 -0.0138087 0.872216
0.118287 -0.0132956 0.872193
0.119945 -0.0126592 0.87272
0.121601 -0.0120436 0.87315
0.123272 -0.0113663 0.873849
0.124928 -0.0107691 0.874192
0.126571 -0.0102326 0.874265
0.128205 -0.00973499 0.874164
0.129847 -0.00920904 0.874189
0.131487 -0.00869165 0.874175
0.133109 -0.00824209 0.873863
0.134759 -0.0076894 0.874003
0.136353 -0.00733962 0.873258
0.137962 -0.0069351 0.872754
0.139523 -0.00669097 0.871558
0.162002 0.00311667 0.8843
0.163606 0.00347714 0.883593
0.165119 0.0036033 0.881908
0.166586 0.0036246 0.879792
0.167995 0.00351513 0.877139
0.16943 0.00348372 0.874823
0.170854 0.00344571 0.872489
0.172363 0.00362564 0.871065
0.173889 0.00385522 0.869853
0.175469 0.00421869 0.869197
0.177051 0.00459349 0.868588
0.178658 0.00502361 0.86821
0.180288 0.00550747 0.868052
0.181941 0.00604536 0.868115
0.183596 0.00658566 0.868186
0.185303 0.00723448 0.868698
0.187015 0.00789349 0.869248
0.188796 0.00869014 0.870353
0.19061 0.00955207 0.871716
0.1925 0.0105602 0.873661
0.194391 0.0115586 0.875558
0.196302 0.0125828 0.877551
0.198214 0.0135995 0.879504
0.200035 0.0144248 0.880682
0.201814 0.0151602 0.881496
0.0936075 -0.0164707 0.88557
0.0952319 -0.0161952 0.884435
0.0968604 -0.0158507 0.88362
0.0984721 -0.0156385 0.882206
0.100082 -0.0154063 0.88089
0.101695 -0.0151241 0.879805
0.103313 -0.0147766 0.879019
0.104921 -0.0144939 0.877945
0.106532 -0.014165 0.877082
0.108137 -0.0138603 0.876114
0.109736 -0.0135823 0.875031
0.111331 -0.0133052 0.873948
0.112945 -0.0129077 0.873405
0.11456 -0.0124958 0.872929
0.116193 -0.0119843 0.872896
0.117831 -0.0114465 0.872979
0.119495 -0.0107907 0.873582
0.121147 -0.0101977 0.873906
0.122814 -0.00954691 0.874479
0.124464 -0.00897902 0.874687
0.126107 -0.0084461 0.87474
0.127736 -0.00797446 0.874524
0.129379 -0.00744787 0.874549
0.13102 -0.00692978 0.874535
0.132651 -0.00645374 0.874338
0.134292 -0.0059401 0.874305
0.135879 -0.00562446 0.873416
0.161676 0.00524377 0.886062
0.163278 0.0055884 0.885288
0.164771 0.00565098 0.883344
0.166225 0.0056236 0.881037
0.167643 0.00552248 0.878433
0.16909 0.00551175 0.876213
0.170519 0.00547104 0.873879
0.172051 0.00569874 0.872657
0.17358 0.00592541 0.871436
0.175152 0.00626329 0.870674
0.176727 0.00661001 0.869951
0.178337 0.0070431 0.869582
0.179969 0.00752783 0.869423
0.181636 0.00809043 0.869581
0.183307 0.00866049 0.869767
0.185019 0.00931603 0.870298
0.186736 0.00998197 0.870866
0.188506 0.0107532 0.871856
0.190308 0.011585 0.873083
0.192186 0.0125689 0.874913
0.194077 0.0135665 0.87679
0.196004 0.0146287 0.878915
0.197934 0.015681 0.880991
0.199773 0.0165406 0.882293
0.201552 0.0172738 0.883087
0.0930953 -0.0148475 0.885272
0.0947195 -0.0145841 0.88409
0.0963477 -0.0142471 0.883246
0.0979652 -0.0139898 0.882045
0.0995737 -0.0137807 0.880633
0.101187 -0.0134998 0.879548
0.102806 -0.0131532 0.878763
0.104417 -0.0128505 0.877785
0.10603 -0.0125181 0.876942
0.10764 -0.012189 0.87609
0.109247 -0.0118623 0.875228
0.110852 -0.0115408 0.874348
0.112472 -0.0111153 0.87393
0.114093 -0.0106772 0.87357
0.115733 -0.010139 0.873653
0.117374 -0.00959796 0.873745
0.119034 -0.00896437 0.874241
0.120682 -0.00839873 0.874439
0.122342 -0.00777958 0.874868
0.123988 -0.00723514 0.87497
0.125627 -0.00672558 0.874917
0.127258 -0.00624939 0.87472
0.128902 -0.00572232 0.874745
0.130545 -0.00519919 0.87475
0.132183 -0.00469816 0.874659
0.133832 -0.00415702 0.874741
0.135437 -0.00378158 0.874111
0.161305 0.00726014 0.887334
0.162915 0.00761834 0.886617
0.164419 0.00769745 0.88475
0.165882 0.00768394 0.882511
0.167302 0.00757272 0.879879
0.168742 0.00753153 0.877545
0.170165 0.00746248 0.875106
0.171701 0.00768922 0.873884
0.173244 0.00794314 0.872777
0.17483 0.00830439 0.872111
0.17642 0.00868185 0.871512
0.178045 0.00914169 0.871248
0.179691 0.0096511 0.871185
0.181351 0.0101915 0.871247
0.183028 0.0107679 0.871452
0.184746 0.0114327 0.872011
0.18648 0.0121295 0.872693
0.188229 0.0128535 0.873481
0.190029 0.013679 0.87467
0.191906 0.0146598 0.876469
0.193788 0.0156401 0.878259
0.195706 0.0166802 0.880278
0.197638 0.0177395 0.882362
0.199461 0.0185659 0.88352
0.201199 0.0192141 0.88397
0.0925948 -0.0130831 0.885612
0.0942178 -0.012853 0.884285
0.0958454 -0.0125381 0.883345
0.0974578 -0.0123427 0.881874
0.0990645 -0.0121612 0.880346
0.100676 -0.0119055 0.879156
0.102295 -0.0115602 0.878371
0.10391 -0.0112348 0.8775
0.105527 -0.0108775 0.876773
0.107142 -0.0105208 0.876046
0.108754 -0.0101689 0.8753
0.110363 -0.00982418 0.874526
0.111988 -0.00937713 0.874204
0.113616 -0.00891267 0.87396
0.115258 -0.00836235 0.87409
0.116905 -0.00779405 0.874298
0.118562 -0.00718583 0.874678
0.120201 -0.00666986 0.874655
0.121855 -0.00608051 0.874949
0.123507 -0.00551329 0.875146
0.125148 -0.00499661 0.875122
0.126788 -0.00448661 0.87507
0.128451 -0.00388266 0.875421
0.130102 -0.00333401 0.875531
0.131748 -0.00280565 0.875555
0.13341 -0.00221826 0.875829
0.135065 -0.00166676 0.875949
0.160872 0.00911396 0.887914
0.162511 0.00954647 0.887504
0.164016 0.00961883 0.885618
0.165483 0.00960258 0.883379
0.166925 0.00953726 0.880949
0.168369 0.00949326 0.878616
0.169787 0.00940009 0.876092
0.171336 0.00965171 0.874975
0.172893 0.00993089 0.873974
0.174485 0.0103018 0.873346
0.176102 0.0107338 0.872967
0.177731 0.0111968 0.872713
0.179392 0.011736 0.872764
0.181078 0.0123304 0.873036
0.182784 0.0129658 0.87347
0.184509 0.0136428 0.874066
0.186271 0.014395 0.874958
0.188021 0.0151145 0.875716
0.1898 0.0158929 0.876703
0.191654 0.0168224 0.878282
0.193515 0.0177536 0.87986
0.195395 0.0187158 0.881553
0.197285 0.0196894 0.883283
0.199079 0.0204577 0.884201
0.200788 0.0210465 0.884412
0.0937019 -0.011275 0.883785
0.0953268 -0.010992 0.88271
0.0969398 -0.0107965 0.88125
0.0985437 -0.0106456 0.879598
0.100154 -0.0103961 0.878389
0.101774 -0.0100496 0.877614
0.103392 -0.00969726 0.876868
0.105016 -0.0092882 0.876372
0.106635 -0.00890388 0.875771
0.108252 -0.00852661 0.875141
0.109866 -0.00815875 0.874473
0.1115 -0.0076609 0.874372
0.113133 -0.0071676 0.874253
0.114786 -0.00656542 0.874604
0.116435 -0.00599398 0.874821
0.118088 -0.00540869 0.875096
0.119722 -0.00492339 0.874937
0.121372 -0.00436226 0.875106
0.123025 -0.00378942 0.875322
0.124674 -0.00323871 0.875442
0.126333 -0.00264956 0.875726
0.128005 -0.00201014 0.876221
0.12967 -0.00141105 0.876542
0.131338 -0.000802148 0.876902
0.13304 -6.81799e-05 0.87779
0.134756 0.000710199 0.87886
0.16037 0.0107788 0.887708
0.162006 0.0112016 0.887259
0.16353 0.0113183 0.885566
0.165011 0.0113319 0.883462
0.166479 0.0113269 0.881291
0.167947 0.0113367 0.879188
0.169397 0.0113161 0.876971
0.170959 0.0115929 0.87596
0.172531 0.0119024 0.875083
0.174138 0.0123019 0.87457
0.175805 0.0128493 0.87465
0.177464 0.0133779 0.874653
0.179144 0.0139545 0.874848
0.180857 0.0146039 0.875329
0.182591 0.0152947 0.875972
0.184284 0.0158921 0.876243
0.186028 0.0165989 0.876943
0.187743 0.0172362 0.877366
0.189485 0.0179299 0.878009
0.191289 0.0187511 0.879147
0.193123 0.0196273 0.880496
0.194974 0.0205318 0.881949
0.196847 0.0214722 0.883535
0.198623 0.0222033 0.8843
0.200329 0.0227853 0.884482
0.0915546 -0.0100213 0.884178
0.0931755 -0.00982128 0.882737
0.0947992 -0.00954663 0.881633
0.0964137 -0.00933387 0.88026
0.098017 -0.00919006 0.878589
0.0996296 -0.00892057 0.877477
0.101252 -0.00854667 0.876827
0.102874 -0.00816457 0.876216
0.104501 -0.00773012 0.875837
0.106128 -0.00729574 0.875457
0.107749 -0.00689033 0.874952
0.109369 -0.00648975 0.874429
0.111008 -0.00596293 0.874453
0.112651 -0.00542016 0.874545
0.114309 -0.00479013 0.875012
0.115964 -0.00419074 0.875344
0.117617 -0.00360666 0.875608
0.119252 -0.00312533 0.87543
0.120902 -0.0025654 0.875589
0.122557 -0.00199162 0.875805
0.124215 -0.00140839 0.87606
0.125883 -0.000784065 0.876487
0.127575 -6.35629e-05 0.877317
0.129255 0.000594077 0.877879
0.130946 0.00128889 0.878593
0.132674 0.00212156 0.879884
0.134428 0.00303596 0.881509
0.159987 0.0127841 0.88888
0.161558 0.0130182 0.887666
0.163059 0.0130639 0.885695
0.164557 0.013115 0.883754
0.166041 0.0131429 0.881728
0.167524 0.0131832 0.87976
0.168998 0.0132147 0.877763
0.170572 0.0135172 0.876858
0.172159 0.0138573 0.876105
0.173771 0.0142617 0.875611
0.175485 0.0149234 0.87614
0.177185 0.0155423 0.876497
0.178899 0.0161909 0.876968
0.180631 0.0168812 0.877601
0.182391 0.0176256 0.878444
0.184028 0.0180841 0.87816
0.185744 0.0187253 0.878592
0.18741 0.0192474 0.878557
0.189114 0.0198527 0.878845
0.190864 0.0205566 0.879515
0.192664 0.021362 0.880577
0.194471 0.0221758 0.881666
0.196326 0.0230822 0.883109
0.19809 0.0237902 0.883777
0.199796 0.024375 0.883969
0.0926465 -0.008409 0.881515
0.0942674 -0.00815813 0.880316
0.0958829 -0.0079279 0.87903
0.0974826 -0.00781567 0.877235
0.0990945 -0.00754604 0.876133
0.100716 -0.00717131 0.875493
0.102343 -0.006735 0.875123
0.103977 -0.00624566 0.874984
0.10561 -0.00575823 0.874835
0.107235 -0.005327 0.874446
0.108863 -0.00487554 0.874144
0.110503 -0.00434143 0.874197
0.112151 -0.00376697 0.874423
0.113814 -0.00310646 0.875015
0.115474 -0.0024814 0.875452
0.117129 -0.00189413 0.875726
0.118773 -0.00136743 0.87574
0.12043 -0.000781754 0.876005
0.122091 -0.000179645 0.876336
0.123756 0.000431933 0.876705
0.125437 0.00111039 0.877353
0.127137 0.00186491 0.878317
0.128828 0.0025611 0.879031
0.130535 0.00331789 0.879995
0.132283 0.00422287 0.881572
0.134042 0.00515262 0.883245
0.135757 0.00589017 0.884111
0.159636 0.0148967 0.890463
0.161155 0.0149682 0.888598
0.16264 0.0149568 0.886408
0.16414 0.0150056 0.884468
0.165631 0.015043 0.88249
0.167109 0.0150594 0.880436
0.168615 0.0151654 0.878746
0.170206 0.0155035 0.877984
0.171799 0.0158506 0.87726
0.173403 0.016231 0.87667
0.175151 0.0169697 0.877495
0.176857 0.0176002 0.877889
0.178571 0.0182456 0.878341
0.180311 0.0189478 0.879012
0.182057 0.0196606 0.87972
0.183641 0.0199901 0.87893
0.185303 0.0205028 0.878856
0.186926 0.0209272 0.878438
0.188574 0.021408 0.87824
0.19029 0.022039 0.878623
0.192056 0.0227769 0.879417
0.193831 0.0235257 0.880249
0.195659 0.024382 0.88149
0.197423 0.0250981 0.882188
0.199117 0.0256607 0.882294
0.0921092 -0.00711602 0.879784
0.0937291 -0.00685865 0.878623
0.0953431 -0.00663093 0.877338
0.0969444 -0.00649297 0.875669
0.0985577 -0.00619877 0.874683
0.10018 -0.0057987 0.874159
0.10181 -0.00533198 0.873924
0.103449 -0.00478926 0.874016
0.105089 -0.0042485 0.874098
0.106718 -0.00379072 0.873825
0.108353 -0.00328569 0.873753
0.109997 -0.00272652 0.873912
0.111649 -0.00212411 0.874253
0.113317 -0.00143993 0.874941
0.114978 -0.000804588 0.875416
0.116638 -0.000186759 0.875815
0.11829 0.000374606 0.875973
0.119948 0.000965867 0.876256
0.121611 0.00157133 0.876596
0.123291 0.00225759 0.877273
0.12498 0.00296523 0.878035
0.126694 0.0037797 0.879239
0.1284 0.00453563 0.880192
0.130123 0.00535261 0.881395
0.131871 0.00625432 0.882942
0.133626 0.00716481 0.884518
0.135332 0.00786059 0.885202
0.137502 0.00673054 0.885399
0.137056 0.00861561 0.886124
0.157745 0.0169159 0.893794
0.159289 0.0170302 0.892101
0.160775 0.0169921 0.889806
0.162231 0.0168845 0.887244
0.16371 0.0168637 0.885036
0.165192 0.0168673 0.882935
0.166671 0.0168787 0.880872
0.16819 0.0170116 0.879297
0.169775 0.0173274 0.878449
0.17136 0.0176497 0.87763
0.172933 0.0179447 0.876706
0.174697 0.0187266 0.877692
0.176414 0.0193851 0.878191
0.178135 0.0200442 0.87869
0.1799 0.0208094 0.879599
0.181633 0.0214873 0.880165
0.183149 0.0216536 0.878744
0.184754 0.0220334 0.878155
0.186343 0.0223805 0.877441
0.18793 0.0227272 0.876728
0.189615 0.0232941 0.876864
0.191348 0.0239657 0.8774
0.193089 0.0246505 0.877984
0.194889 0.0254558 0.879025
0.196653 0.0261775 0.879741
0.198346 0.0267471 0.879876
0.0915432 -0.00621762 0.876359
0.0931652 -0.00588565 0.875537
0.0947888 -0.00551172 0.874897
0.0963974 -0.00527686 0.873662
0.0980137 -0.00493329 0.872898
0.0996377 -0.0045054 0.872499
0.101271 -0.00398985 0.872476
0.102912 -0.00341801 0.872693
0.104554 -0.00284589 0.87291
0.106186 -0.0023592 0.872761
0.10783 -0.0017843 0.872988
0.109478 -0.00119748 0.873262
0.111138 -0.000539813 0.873834
0.112814 0.000200603 0.874751
0.114484 0.000887145 0.875438
0.11615 0.00153574 0.875961
0.117809 0.00213238 0.876263
0.119469 0.00273176 0.876574
0.121138 0.00336582 0.877029
0.122825 0.00407918 0.877811
0.124521 0.00482136 0.878707
0.126249 0.00569641 0.88015
0.127969 0.00651046 0.881333
0.1297 0.00735363 0.88263
0.131445 0.00824034 0.8841
0.133189 0.00910298 0.885464
0.134884 0.0097493 0.885936
0.136589 0.0104269 0.886533
0.15622 0.0168691 0.895765
0.155765 0.0187153 0.896215
0.1573 0.0187788 0.894321
0.158851 0.0189079 0.892695
0.160327 0.0188282 0.890248
0.161787 0.0187221 0.887706
0.163281 0.0187323 0.885633
0.164752 0.0186968 0.883389
0.166222 0.0186716 0.881193
0.167742 0.0188 0.879609
0.169304 0.0190516 0.878512
0.17087 0.0193193 0.877483
0.172418 0.019547 0.876302
0.174145 0.0202376 0.876925
0.175846 0.0208576 0.877271
0.177551 0.0214831 0.877636
0.179294 0.0221978 0.878344
0.180998 0.0228146 0.878671
0.182495 0.0229362 0.877089
0.184054 0.0232129 0.876109
0.185617 0.0235036 0.875186
0.187188 0.0238161 0.87435
0.188862 0.0243676 0.874428
0.190577 0.0250068 0.874841
0.192312 0.0256867 0.875405
0.194092 0.0264577 0.876313
0.195837 0.0271493 0.876915
0.197523 0.027713 0.877031
0.0909876 -0.00523074 0.873361
0.0926098 -0.00484957 0.87276
0.0942329 -0.00444169 0.872275
0.0958466 -0.00412195 0.871415
0.0974633 -0.00375119 0.870777
0.0990899 -0.00327472 0.87059
0.100727 -0.00270772 0.870788
0.102372 -0.00208384 0.871226
0.104019 -0.00145946 0.871664
0.10566 -0.000891165 0.871862
0.107308 -0.000283913 0.872222
0.108955 0.000305612 0.872506
0.110618 0.000989495 0.873183
0.112293 0.00173367 0.87411
0.113968 0.00245154 0.874921
0.115643 0.00315892 0.875684
0.117311 0.00380467 0.876187
0.118977 0.00443734 0.876633
0.120656 0.00512143 0.877289
0.122351 0.00586922 0.878204
0.124059 0.00667151 0.87934
0.125803 0.00761504 0.88105
0.127531 0.00846218 0.882357
0.129256 0.00928047 0.883539
0.130988 0.010107 0.884749
0.132712 0.0108832 0.885748
0.134393 0.0114697 0.88597
0.136085 0.0120967 0.886356
0.15531 0.0205643 0.896664
0.156849 0.0206301 0.89479
0.158404 0.0207622 0.893184
0.15988 0.020672 0.890709
0.161338 0.0205503 0.88812
0.162827 0.0205358 0.885961
0.164279 0.0204364 0.883479
0.165729 0.0203493 0.881054
0.167228 0.020412 0.879223
0.168765 0.0205957 0.877869
0.170304 0.0207906 0.876563
0.171826 0.0209498 0.875125
0.173496 0.0214979 0.875194
0.175155 0.0220191 0.875158
0.176831 0.0225801 0.875276
0.178544 0.0232308 0.875736
0.180222 0.0237925 0.875853
0.181742 0.023973 0.87451
0.183309 0.0242722 0.873626
0.184884 0.0245957 0.872838
0.186469 0.0249462 0.872154
0.188144 0.0255047 0.872261
0.189842 0.0261163 0.872569
0.191544 0.0267308 0.872886
0.193275 0.0274066 0.873431
0.194986 0.0280323 0.873786
0.196651 0.0285597 0.873769
0.0904059 -0.00465701 0.868633
0.0920347 -0.00410507 0.868774
0.0936614 -0.003589 0.868761
0.0952827 -0.00313837 0.868469
0.0969038 -0.00268335 0.868196
0.0985356 -0.00212379 0.868366
0.100178 -0.00148443 0.868871
0.101829 -0.000785066 0.869626
0.103478 -0.000125943 0.870208
0.105124 0.000497194 0.870636
0.106775 0.00113956 0.871141
0.108429 0.0017823 0.871645
0.110091 0.00247197 0.872341
0.111769 0.00324312 0.873373
0.113447 0.00399012 0.874299
0.115127 0.0047267 0.875176
0.116799 0.00540132 0.875795
0.11847 0.00605824 0.876336
0.120154 0.00677179 0.877107
0.121859 0.00757744 0.878252
0.123586 0.00847117 0.879751
0.125332 0.00942743 0.881499
0.127067 0.0103105 0.882939
0.128793 0.0111265 0.884101
0.130512 0.0118992 0.885081
0.132223 0.0126184 0.88584
0.133908 0.0132224 0.886129
0.135616 0.01391 0.886753
0.159373 0.0223403 0.890471
0.160847 0.0222563 0.888045
0.162336 0.0222364 0.885878
0.163791 0.0221357 0.883406
0.165232 0.0220156 0.880868
0.166708 0.0220115 0.878789
0.168222 0.0221241 0.877168
0.169735 0.0222477 0.875596
0.171245 0.0223748 0.874043
0.172857 0.0227788 0.87356
0.174477 0.0232025 0.873152
0.176096 0.0236259 0.872745
0.177768 0.0241841 0.872853
0.1794 0.0246424 0.872579
0.180943 0.0248872 0.871495
0.182504 0.0251814 0.870602
0.184104 0.0255681 0.870062
0.185711 0.0259771 0.869607
0.187395 0.0265654 0.869829
0.189078 0.0271488 0.870032
0.190772 0.027753 0.870311
0.192455 0.0283322 0.870495
0.194141 0.0289117 0.870678
0.195801 0.0294356 0.870652
0.198991 0.0305101 0.879084
0.197484 0.0300104 0.870817
0.0898359 -0.00399065 0.864361
0.0914659 -0.0033381 0.864935
0.0930926 -0.0027529 0.86522
0.0947185 -0.00219492 0.86539
0.0963458 -0.00163177 0.865579
0.0979824 -0.000988231 0.866104
0.0996246 -0.000314248 0.866754
0.101279 0.00044319 0.867749
0.102932 0.00115589 0.868551
0.104587 0.00186235 0.869325
0.10624 0.00253756 0.869964
0.107903 0.00325975 0.870794
0.109568 0.00397142 0.871576
0.111245 0.00474674 0.872617
0.112922 0.00549771 0.873552
0.114605 0.00626132 0.874535
0.116277 0.0069418 0.875172
0.117956 0.00765129 0.875924
0.119656 0.00845103 0.87704
0.121372 0.00931536 0.878414
0.123112 0.0102757 0.880171
0.124864 0.0112663 0.882042
0.126601 0.0121546 0.883492
0.128315 0.0129165 0.884423
0.130022 0.0136343 0.885172
0.131726 0.014322 0.885797
0.133413 0.0149316 0.886105
0.135371 0.0166443 0.890826
0.158777 0.0237412 0.889193
0.16028 0.0237418 0.887112
0.161794 0.0237874 0.885213
0.163261 0.0237175 0.882875
0.164692 0.0235613 0.880214
0.166137 0.0234646 0.877792
0.167609 0.0234627 0.875743
0.169098 0.0235211 0.873933
0.170606 0.0236428 0.872372
0.172174 0.0239332 0.871459
0.173768 0.0242955 0.870823
0.175375 0.0246975 0.87034
0.177015 0.0251847 0.870181
0.178632 0.0256114 0.869793
0.180212 0.0259495 0.869072
0.181811 0.0263401 0.868551
0.183435 0.0267913 0.868259
0.185065 0.02726 0.868034
0.186732 0.0278127 0.868122
0.188398 0.0283629 0.868202
0.190062 0.0289059 0.868252
0.191713 0.0294183 0.868188
0.193379 0.0299641 0.868248
0.195049 0.0305152 0.868327
0.196747 0.0311283 0.868635
0.199848 0.0320198 0.876309
0.198447 0.0317396 0.868932
0.0752847 -0.00805448 0.866888
0.0736659 -0.00847742 0.867296
0.0731601 -0.00698319 0.866552
0.0747783 -0.00661882 0.865895
0.0763945 -0.00630657 0.865017
0.083331 -0.00682053 0.861092
0.0812175 -0.00572144 0.860902
0.0828182 -0.00550309 0.85964
0.0844225 -0.00512269 0.85907
0.0876549 -0.0038924 0.859922
0.0892816 -0.00316145 0.860832
0.0909064 -0.0025022 0.861435
0.0925295 -0.00189734 0.861807
0.0941592 -0.00123473 0.862419
0.0957904 -0.000582659 0.862983
0.0974295 0.000125418 0.863777
0.0990765 0.000878191 0.864753
0.100734 0.00168988 0.865968
0.102387 0.00243114 0.866886
0.104047 0.00319905 0.867909
0.105705 0.00392612 0.868758
0.107374 0.00470542 0.869819
0.109041 0.00544655 0.870716
0.110717 0.0062235 0.871756
0.112396 0.00699466 0.872768
0.114078 0.00776234 0.87376
0.11575 0.00845114 0.874425
0.117434 0.00919242 0.875301
0.119144 0.0100556 0.876666
0.120865 0.0109557 0.878174
0.122616 0.0119785 0.880169
0.124374 0.0130012 0.882155
0.126115 0.0139139 0.883689
0.127829 0.014673 0.884601
0.12953 0.0153614 0.885225
0.131226 0.0160194 0.885725
0.133105 0.0174444 0.889277
0.135306 0.0201587 0.897937
0.159676 0.025109 0.88573
0.161229 0.0252731 0.884299
0.162713 0.0252442 0.882134
0.164141 0.0250762 0.879446
0.165566 0.0249158 0.876796
0.167027 0.0248805 0.874633
0.168507 0.0249108 0.872729
0.170025 0.02506 0.871282
0.171552 0.0252406 0.86996
0.173119 0.0255385 0.869086
0.174687 0.0258409 0.868232
0.176277 0.0262057 0.867616
0.177876 0.0265979 0.867105
0.179487 0.0270204 0.866708
0.181098 0.0274451 0.866321
0.182733 0.0279282 0.866153
0.184393 0.0284727 0.866214
0.186057 0.029025 0.866302
0.187721 0.029575 0.866382
0.189381 0.0301124 0.866413
0.191029 0.0306242 0.86635
0.192692 0.0311672 0.866401
0.194374 0.0317517 0.866603
0.1961 0.0324296 0.867148
0.197828 0.0331105 0.867702
0.0710152 -0.00436898 0.872836
0.0726552 -0.00556632 0.865482
0.0742725 -0.00524831 0.864632
0.0758874 -0.00496915 0.86362
0.0780072 -0.00605557 0.863878
0.0774987 -0.00473825 0.862406
0.0796151 -0.00586866 0.862472
0.0791057 -0.00454258 0.861047
0.0807075 -0.00438676 0.859526
0.0823079 -0.00414805 0.858361
0.0839105 -0.00377801 0.857754
0.0860362 -0.00453856 0.859366
0.0855168 -0.00330554 0.857579
0.087126 -0.00278028 0.857625
0.0887431 -0.00214246 0.858141
0.0903594 -0.00154526 0.858485
0.0919769 -0.000954751 0.8588
0.0936024 -0.000285119 0.85944
0.0952338 0.000420002 0.860225
0.0968737 0.00118168 0.86124
0.0985247 0.00201422 0.862542
0.100187 0.00290649 0.864083
0.101846 0.00372816 0.865327
0.10351 0.00455115 0.86657
0.105174 0.00533552 0.86765
0.106846 0.00614951 0.868844
0.108511 0.00689175 0.869741
0.110186 0.00767044 0.870781
0.111863 0.00844086 0.871782
0.113542 0.00920783 0.872764
0.115217 0.00992356 0.873535
0.116906 0.0107021 0.874554
0.118625 0.011627 0.876158
0.120358 0.0125942 0.877923
0.122124 0.0137018 0.880243
0.123887 0.0147569 0.882343
0.125634 0.0156966 0.883972
0.127347 0.0164554 0.884874
0.129048 0.0171405 0.885479
0.130904 0.0185046 0.888771
0.132986 0.0208007 0.895736
0.157514 0.0263031 0.88575
0.159084 0.0265056 0.884472
0.160628 0.0266446 0.882957
0.162115 0.026622 0.880831
0.163551 0.0264721 0.878229
0.164974 0.0263047 0.875571
0.166435 0.0262632 0.8734
0.167925 0.0263205 0.871611
0.169453 0.0264951 0.87027
0.17098 0.0266761 0.868958
0.172537 0.0269446 0.86798
0.17408 0.0271845 0.866897
0.175643 0.0274844 0.866043
0.177228 0.0278399 0.865399
0.178825 0.0282331 0.864898
0.180434 0.0286594 0.864521
0.182067 0.0291444 0.864363
0.183725 0.0296884 0.864423
0.185374 0.0302096 0.864398
0.187024 0.0307309 0.864373
0.188683 0.0312755 0.864433
