ply
format ascii 1.0
element vertex 1710
property float x
property float y
property float z
end_header
0.0850853 0.281517 0.703626
0.0866039 0.2822 0.703646
0.0881901 0.283107 0.704351
0.0897988 0.284079 0.705251
0.0914136 0.285061 0.706177
0.0930408 0.286072 0.707186
0.094673 0.287088 0.708205
0.0962988 0.288073 0.709122
0.0979841 0.289231 0.71056
0.0996799 0.290407 0.712044
0.101398 0.291634 0.713674
0.103159 0.292975 0.715637
0.104937 0.294348 0.717687
-0.0360531 0.24067 0.743568
-0.0344961 0.241099 0.742635
-0.0329408 0.241525 0.741691
-0.0313693 0.241789 0.740157
-0.0298024 0.242055 0.738635
-0.0282306 0.242232 0.736795
-0.0266661 0.24243 0.735038
-0.0251064 0.242624 0.733274
-0.0235549 0.242853 0.731647
-0.0220107 0.243117 0.730156
-0.0204769 0.243464 0.728968
-0.0189463 0.243812 0.727791
-0.0174191 0.244162 0.726627
-0.0158949 0.244513 0.725471
-0.0143764 0.244916 0.724508
-0.0128604 0.24532 0.72355
-0.01135 0.245811 0.722908
-0.00983861 0.246225 0.721993
-0.00833072 0.246684 0.721241
-0.00682481 0.247159 0.720552
-0.00532062 0.247643 0.719894
-0.00381793 0.248139 0.719278
-0.00231686 0.248746 0.719058
-0.00081588 0.249353 0.718839
0.000685191 0.249961 0.718619
0.00218617 0.250568 0.7184
0.00368715 0.251176 0.71818
0.00519363 0.252009 0.718746
0.00671016 0.253093 0.720174
0.00824148 0.254449 0.722536
0.00979017 0.256031 0.725666
0.0113552 0.257737 0.729204
0.0129243 0.259296 0.732216
0.0144984 0.260758 0.734885
0.0160778 0.262163 0.737343
0.0176547 0.263405 0.739232
0.0192383 0.264649 0.741117
0.0208229 0.265822 0.742755
0.0223981 0.266814 0.743767
0.0239569 0.267576 0.744
0.02551 0.268261 0.743975
0.0270203 0.268513 0.742492
0.0285078 0.268583 0.740407
0.0299761 0.26853 0.737918
0.03143 0.268413 0.735229
0.0328786 0.268314 0.732613
0.0343442 0.26841 0.730654
0.0358056 0.268515 0.72873
0.0372644 0.268639 0.726879
0.0387009 0.26864 0.724632
0.0401215 0.268573 0.722172
0.0415344 0.2685 0.719702
0.0429554 0.268524 0.717559
0.0443637 0.268504 0.715283
0.0458051 0.268724 0.713794
0.0472539 0.269008 0.712523
0.0487273 0.269452 0.711772
0.0501919 0.269855 0.710892
0.0516966 0.270486 0.71075
0.0531916 0.271065 0.71044
0.0546979 0.271704 0.710322
0.0561756 0.272196 0.709736
0.0576599 0.272727 0.709275
0.0591042 0.27307 0.708215
0.0605315 0.273345 0.706944
0.0619486 0.273587 0.705573
0.0633637 0.273836 0.704228
0.0647965 0.274176 0.703179
0.0662421 0.274583 0.702342
0.0677461 0.275244 0.702307
0.0692405 0.275863 0.702139
0.0707964 0.276732 0.702749
0.0723629 0.277633 0.70346
0.07395 0.278604 0.704382
0.0755173 0.279487 0.705025
0.0770933 0.280393 0.705736
0.0786273 0.281131 0.705926
0.0801252 0.281734 0.705696
0.0816116 0.282296 0.705339
0.0830811 0.282799 0.704801
0.0845875 0.283434 0.70467
0.0861167 0.284146 0.704775
0.0876947 0.285021 0.705373
0.0892872 0.285936 0.706092
0.0909215 0.28698 0.707195
0.0925524 0.288 0.708224
0.0941869 0.289021 0.709246
0.095836 0.290077 0.710368
0.0975424 0.291299 0.711986
0.0992307 0.29245 0.713381
0.100959 0.293706 0.715085
0.102754 0.295149 0.717337
0.104575 0.296648 0.719745
-0.0367178 0.242133 0.743121
-0.0351614 0.242571 0.742224
-0.0336113 0.243042 0.741452
-0.0320429 0.243343 0.740058
-0.030478 0.24364 0.738657
-0.0289071 0.243843 0.736919
-0.0273373 0.244007 0.735046
-0.0257728 0.244168 0.733172
-0.024217 0.244365 0.731436
-0.0226689 0.244598 0.729837
-0.0211318 0.244913 0.728541
-0.0195982 0.245229 0.727257
-0.0180666 0.24552 0.725886
-0.0165432 0.245889 0.724799
-0.0150259 0.246318 0.723935
-0.013511 0.246755 0.7231
-0.0120028 0.247306 0.722672
-0.0104923 0.247773 0.721947
-0.00898315 0.248231 0.721195
-0.00747555 0.24868 0.720412
-0.00596993 0.249135 0.719655
-0.00446611 0.2496 0.718935
-0.0029646 0.250179 0.718616
-0.0014634 0.25076 0.718304
3.76669e-05 0.251368 0.718084
0.00153865 0.251975 0.717865
0.00304005 0.252609 0.717737
0.00454743 0.253499 0.718494
0.00606482 0.254647 0.720133
0.00759812 0.256098 0.722805
0.00914736 0.257727 0.726071
0.0107114 0.259442 0.729617
0.0122785 0.260976 0.732526
0.0138484 0.262381 0.734981
0.0154199 0.26367 0.737029
0.016993 0.264876 0.738783
0.0185707 0.266058 0.740447
0.0201516 0.267204 0.741981
0.0217279 0.268223 0.743082
0.0232919 0.269055 0.743545
0.024857 0.269872 0.743959
0.0263793 0.27023 0.742834
0.0278799 0.270398 0.741086
0.0293613 0.270433 0.738898
0.0308298 0.270405 0.736515
0.032284 0.270312 0.733927
0.0337621 0.270474 0.732191
0.0352281 0.270578 0.730269
0.0366829 0.270637 0.72821
0.0381182 0.270594 0.725825
0.0395372 0.270483 0.723229
0.040945 0.270346 0.720557
0.0423643 0.270332 0.7183
0.0437743 0.270299 0.71599
0.0452175 0.27051 0.714476
0.0466682 0.27079 0.713193
0.0481493 0.271264 0.71254
0.04962 0.271687 0.711726
0.0511323 0.27235 0.711681
0.0526237 0.272896 0.711265
0.0541266 0.273507 0.711054
0.0556065 0.274 0.710469
0.0570947 0.27454 0.710032
0.0585372 0.27486 0.708904
0.0599738 0.275165 0.70773
0.0613947 0.27541 0.706372
0.0627986 0.275594 0.704826
0.0642323 0.275927 0.703756
0.0656788 0.276328 0.702901
0.0671839 0.276987 0.702856
0.068681 0.277611 0.702701
0.0702527 0.278542 0.703498
0.071813 0.279415 0.704112
0.0734009 0.280387 0.70503
0.0749705 0.281276 0.705684
0.076548 0.282185 0.706397
0.0780765 0.282898 0.706505
0.0795772 0.283505 0.706284
0.0810749 0.284101 0.70603
0.0825573 0.284643 0.705611
0.0840678 0.285286 0.7055
0.0855985 0.285998 0.7056
0.0871766 0.286869 0.70618
0.0887709 0.287788 0.706902
0.0904091 0.288844 0.708031
0.0920649 0.289944 0.709291
0.0937244 0.291043 0.710537
0.0954068 0.292202 0.711958
0.0971259 0.293461 0.713672
0.0988057 0.294582 0.714964
0.100545 0.295871 0.716751
0.102369 0.297399 0.719239
0.104237 0.299037 0.722043
-0.0373707 0.243509 0.742352
-0.0358185 0.243979 0.741577
-0.0342757 0.244509 0.741025
-0.0327131 0.244864 0.739837
-0.0311514 0.2452 0.738581
-0.0295812 0.245425 0.73693
-0.0280093 0.245584 0.73505
-0.0264428 0.245744 0.73318
-0.0248829 0.245916 0.731361
-0.0233332 0.246146 0.72976
-0.0217922 0.246429 0.728356
-0.0202547 0.246709 0.726945
-0.0187216 0.246993 0.725555
-0.0171986 0.247382 0.724546
-0.0156804 0.247812 0.723685
-0.0141649 0.248252 0.722864
-0.0126559 0.248803 0.722437
-0.0111446 0.249269 0.721712
-0.0096346 0.249728 0.720964
-0.00812558 0.250154 0.720105
-0.00661914 0.250608 0.719347
-0.00511459 0.251068 0.718612
-0.00361241 0.251615 0.718181
-0.00211093 0.252167 0.717769
-0.000609855 0.252775 0.71755
0.000891124 0.253382 0.71733
0.00239288 0.254045 0.717302
0.00390091 0.254998 0.718268
0.00542059 0.256272 0.72033
0.00695701 0.257861 0.723453
0.00850816 0.259566 0.726958
0.010072 0.26129 0.730506
0.0116373 0.262789 0.733274
0.0132022 0.264097 0.735384
0.0147649 0.265238 0.736915
0.0163316 0.266355 0.738358
0.0179015 0.26744 0.739688
0.0194758 0.268519 0.740988
0.0210477 0.269507 0.741976
0.0226159 0.270405 0.742659
0.0241915 0.271352 0.743503
0.0257242 0.271809 0.742713
0.027236 0.272073 0.741287
0.0287298 0.272198 0.739408
0.0302124 0.272268 0.737356
0.0316718 0.272184 0.734806
0.0331655 0.272447 0.733406
0.0346395 0.272582 0.731593
0.0360981 0.272635 0.729518
0.0375329 0.272553 0.727015
0.0389555 0.272433 0.724399
0.0403586 0.27223 0.721521
0.0417807 0.272207 0.719242
0.0431893 0.272138 0.716823
0.0446349 0.272343 0.715296
0.0460791 0.272564 0.713826
0.0475582 0.273013 0.713094
0.0490362 0.273466 0.712375
0.0505608 0.274188 0.712515
0.0520538 0.274732 0.712089
0.053566 0.275381 0.711995
0.0550638 0.275953 0.711659
0.0565496 0.276467 0.711139
0.0579896 0.276758 0.709917
0.0594305 0.277068 0.708763
0.0608597 0.277336 0.707479
0.0622606 0.277488 0.705836
0.0636966 0.277818 0.704757
0.0651456 0.278216 0.703893
0.0666472 0.278852 0.703771
0.0681394 0.279446 0.703519
0.0696964 0.280312 0.704108
0.0712413 0.281117 0.704507
0.0728202 0.282053 0.705306
0.0743825 0.282912 0.70586
0.0759609 0.283824 0.706577
0.0774911 0.284542 0.706694
0.0790079 0.285205 0.706645
0.0805087 0.285808 0.706409
0.0820194 0.286447 0.706284
0.0835341 0.287099 0.706198
0.0850835 0.287872 0.706477
0.0866642 0.288749 0.707067
0.0882779 0.28973 0.707968
0.0899222 0.290804 0.709141
0.0916015 0.29198 0.710617
0.0932776 0.29313 0.712006
0.0949952 0.2944 0.713744
0.0967111 0.295646 0.715403
0.0983856 0.296745 0.716619
0.100157 0.298133 0.718682
0.102031 0.299813 0.721601
0.103934 0.301556 0.724692
-0.0364791 0.245415 0.741033
-0.0349406 0.245979 0.740605
-0.0333834 0.246384 0.739605
-0.0318244 0.246752 0.738471
-0.0302556 0.247002 0.73692
-0.0286843 0.247186 0.735137
-0.0271162 0.24735 0.73329
-0.0255519 0.247495 0.73138
-0.0240002 0.247722 0.729775
-0.0224549 0.247971 0.728257
-0.02091 0.248169 0.726562
-0.0193716 0.248389 0.724951
-0.0178497 0.248802 0.72403
-0.0163298 0.249208 0.72309
-0.0148142 0.249655 0.722296
-0.0133062 0.250227 0.721945
-0.0117964 0.250742 0.721394
-0.0102858 0.251203 0.720654
-0.00877614 0.251634 0.719818
-0.00726898 0.252088 0.71906
-0.00576341 0.252539 0.718296
-0.00426036 0.253052 0.717749
-0.00275845 0.253574 0.717234
-0.00125738 0.254182 0.717015
0.0002436 0.254789 0.716795
0.00174557 0.255483 0.716871
0.00325265 0.256421 0.71778
0.0047749 0.257883 0.720469
0.00631386 0.259616 0.724061
0.00786695 0.261405 0.727825
0.00943049 0.263138 0.731381
0.010996 0.264643 0.734149
0.0125509 0.265738 0.735523
0.0141046 0.266717 0.736502
0.0156643 0.267736 0.737608
0.0172262 0.268722 0.738597
0.018794 0.269738 0.73968
0.0203655 0.27075 0.740744
0.0219347 0.271681 0.741534
0.0235147 0.272703 0.742617
0.0250538 0.273231 0.742066
0.0265754 0.273588 0.740951
0.0280771 0.273774 0.739282
0.0295723 0.273941 0.737557
0.0310429 0.273928 0.735251
0.0325505 0.27429 0.734177
0.0340386 0.274512 0.732652
0.0355056 0.274598 0.730693
0.036948 0.274539 0.728271
0.0383754 0.274418 0.725661
0.0397827 0.274207 0.722772
0.0412049 0.274154 0.720399
0.0426212 0.274105 0.718053
0.0440712 0.274313 0.716539
0.045525 0.27457 0.715186
0.0470177 0.275081 0.714648
0.0485109 0.275601 0.714141
0.050046 0.276366 0.714409
0.0515461 0.276927 0.714034
0.0530604 0.277568 0.713909
0.0545609 0.278135 0.713551
0.0560374 0.27858 0.71281
0.0574691 0.278807 0.711391
0.0589065 0.279081 0.710123
0.0603317 0.279311 0.708722
0.0617292 0.279428 0.706974
0.0631689 0.279759 0.705897
0.0646294 0.280195 0.705152
0.0661281 0.280807 0.704951
0.0676143 0.281364 0.704582
0.0691496 0.282131 0.704859
0.0706848 0.282892 0.705115
0.0722409 0.283732 0.705611
0.0737945 0.284554 0.70605
0.0753728 0.285466 0.706758
0.0769115 0.286214 0.706963
0.0784473 0.286946 0.707119
0.0799742 0.287641 0.707161
0.0815059 0.28835 0.707245
0.0830331 0.28904 0.707269
0.0845956 0.289854 0.707665
0.0861692 0.2907 0.708155
0.0877768 0.291657 0.708972
0.089432 0.292766 0.71024
0.0911162 0.293957 0.711749
0.0928244 0.295212 0.713437
0.0945787 0.2966 0.715511
0.0963223 0.297931 0.71741
0.0980348 0.299145 0.71895
0.0998541 0.300678 0.721426
0.101757 0.302444 0.724573
0.103647 0.304146 0.727519
-0.0356058 0.24745 0.740192
-0.034054 0.247905 0.739372
-0.0324974 0.2483 0.738345
-0.0309303 0.248579 0.736899
-0.0293602 0.248791 0.735225
-0.0277904 0.248956 0.733388
-0.0262237 0.249097 0.731476
-0.0246697 0.249319 0.72986
-0.0231198 0.249534 0.728225
-0.0215708 0.249699 0.726422
-0.0200306 0.249916 0.724808
-0.018508 0.250334 0.72391
-0.0169871 0.250742 0.722979
-0.0154705 0.251189 0.722185
-0.0139616 0.251759 0.721829
-0.0124508 0.25227 0.721265
-0.0109392 0.252731 0.720529
-0.00942845 0.253166 0.719703
-0.00792025 0.253619 0.718945
-0.00641305 0.254038 0.718074
-0.00490889 0.254518 0.717414
-0.0034062 0.255008 0.716792
-0.0019049 0.255589 0.71648
-0.000403922 0.256196 0.71626
0.00109782 0.256892 0.716343
0.00260367 0.257805 0.717159
0.004128 0.259481 0.720554
0.00566974 0.261392 0.724727
0.0072255 0.263307 0.728888
0.00879021 0.26508 0.732553
0.0103579 0.266625 0.735435
0.0119051 0.267519 0.736125
0.0134513 0.268338 0.736561
0.0150039 0.269232 0.737241
0.0165571 0.270091 0.737798
0.0181163 0.271001 0.738526
0.0196812 0.27195 0.739374
0.0212441 0.272829 0.739987
0.0228203 0.273835 0.741015
0.0243662 0.274455 0.74077
0.0258962 0.274906 0.739971
0.0274052 0.27516 0.738534
0.0289145 0.275455 0.737233
0.0304008 0.275567 0.735347
0.031921 0.276024 0.734582
0.0334197 0.276313 0.73328
0.0349016 0.276494 0.731632
0.0363611 0.276534 0.729537
0.037802 0.276477 0.727141
0.039223 0.276325 0.724451
0.0406538 0.276295 0.72216
0.0420803 0.276277 0.719919
0.0435311 0.276459 0.718324
0.0449944 0.276746 0.717067
0.0464866 0.27723 0.71644
0.0479941 0.277814 0.716128
0.0495402 0.278621 0.716525
0.0510541 0.279238 0.716317
0.0525738 0.279886 0.716207
0.0540835 0.280478 0.715924
0.0555555 0.280874 0.715026
0.0569737 0.281006 0.713309
0.0584061 0.281231 0.711889
0.0598211 0.281389 0.710263
0.0612148 0.281465 0.708394
0.0626597 0.281803 0.70734
0.0641326 0.28228 0.706719
0.0656204 0.282829 0.706319
0.067108 0.28338 0.705926
0.0686275 0.284069 0.705959
0.070135 0.284705 0.705827
0.0716682 0.285446 0.706015
0.0732208 0.286261 0.706426
0.0747928 0.287146 0.707047
0.0763411 0.287929 0.707354
0.0779046 0.288764 0.707817
0.0794608 0.289565 0.708172
0.0810164 0.290356 0.708498
0.0825646 0.291114 0.708722
0.0841313 0.291935 0.709131
0.0857052 0.292775 0.709595
0.0873067 0.293704 0.710321
0.0889628 0.294813 0.711576
0.0906488 0.296008 0.713083
0.0923886 0.297368 0.715067
0.0941681 0.298837 0.717365
0.0959604 0.300324 0.719706
0.0977138 0.301663 0.721599
0.0995529 0.303254 0.724224
0.101438 0.304966 0.727188
0.103308 0.3066 0.729911
0.106377 0.308351 0.737782
0.105151 0.308125 0.732305
-0.0362616 0.248849 0.739513
-0.0347172 0.249363 0.738911
-0.0331631 0.249785 0.737982
-0.0316027 0.250131 0.736787
-0.0300351 0.250378 0.735243
-0.0284629 0.250539 0.733401
-0.0268938 0.250674 0.731476
-0.0253372 0.250885 0.729825
-0.0237808 0.251042 0.727997
-0.02223 0.251203 0.726187
-0.0206903 0.251445 0.724669
-0.0191665 0.251862 0.723766
-0.0176446 0.252272 0.722847
-0.0161286 0.252746 0.722153
-0.0146187 0.253316 0.721793
-0.0131068 0.253829 0.721234
-0.0115942 0.254289 0.7205
-0.0100823 0.254723 0.719674
-0.00857281 0.255175 0.718915
-0.00706381 0.255566 0.717948
-0.00555817 0.256015 0.717185
-0.00405433 0.256474 0.716457
-0.0025526 0.257022 0.716037
-0.00105145 0.257603 0.715726
0.000450129 0.258297 0.715801
0.00195462 0.259158 0.716437
0.00348046 0.261093 0.720684
0.00502527 0.263236 0.725607
0.00658563 0.265349 0.730405
0.00815449 0.267234 0.734416
0.0097184 0.268645 0.736827
0.0112567 0.269281 0.73665
0.0127946 0.269908 0.736439
0.0143382 0.270638 0.736572
0.015883 0.27137 0.736707
0.0174341 0.27218 0.7371
0.0189963 0.273121 0.73792
0.0205545 0.273965 0.738418
0.0221258 0.274945 0.739354
0.0236752 0.275625 0.739308
0.0252103 0.276142 0.73873
0.026726 0.276468 0.737533
0.0282461 0.276867 0.736577
0.0297473 0.277108 0.735116
0.0312757 0.27763 0.734565
0.0327879 0.278021 0.733593
0.0342808 0.278272 0.732177
0.0357574 0.278421 0.730438
0.0372151 0.278462 0.728363
0.0386542 0.278406 0.725989
0.0400946 0.278408 0.723806
0.0415349 0.278449 0.721759
0.0429901 0.278628 0.720154
0.0444581 0.278915 0.7189
0.0459628 0.279453 0.718438
0.0475057 0.280228 0.718723
0.0490704 0.281122 0.719379
0.0506122 0.281868 0.71957
0.0521548 0.282613 0.719752
0.053676 0.283234 0.71955
0.0551329 0.283513 0.718282
0.0565433 0.283568 0.716324
0.0579542 0.28365 0.714461
0.0593462 0.283664 0.712394
0.0607243 0.283637 0.710209
0.0621667 0.283943 0.709054
0.0636448 0.284426 0.708449
0.0651298 0.284946 0.707957
0.0666257 0.285519 0.707627
0.0681316 0.286136 0.707434
0.0696196 0.286676 0.707005
0.0711321 0.287322 0.706899
0.0726784 0.288106 0.707209
0.0742355 0.288926 0.707627
0.0757948 0.289748 0.708048
0.0773731 0.290637 0.708666
0.0789537 0.291526 0.70928
0.08054 0.292426 0.709924
0.08211 0.293257 0.710358
0.0837044 0.294169 0.711033
0.0853104 0.295115 0.711802
0.0869331 0.296109 0.712709
0.0885942 0.297226 0.713976
0.0902992 0.298479 0.715637
0.092054 0.299883 0.717732
0.0938412 0.301372 0.72007
0.0956454 0.302893 0.722491
0.0974157 0.30428 0.724505
0.0992501 0.305851 0.727049
0.101076 0.307369 0.729426
0.102882 0.308802 0.731546
0.104671 0.310164 0.733448
-0.0369221 0.250284 0.738968
-0.0353811 0.250827 0.738472
-0.0338296 0.251274 0.737634
-0.0322734 0.251663 0.736597
-0.0307103 0.251964 0.735252
-0.0291391 0.252151 0.73351
-0.0275676 0.252283 0.731581
-0.0260061 0.252461 0.729822
-0.0244473 0.252611 0.727976
-0.0228943 0.252768 0.726158
-0.0213532 0.253012 0.724654
-0.0198265 0.253404 0.72367
-0.0183049 0.253837 0.722834
-0.0167873 0.254306 0.72212
-0.0152755 0.254854 0.721685
-0.0137628 0.255367 0.721131
-0.0122491 0.255829 0.720403
-0.0107359 0.256257 0.719561
-0.00922529 0.256708 0.718799
-0.00771523 0.2571 0.71784
-0.00620798 0.257521 0.716982
-0.00470324 0.257974 0.716237
-0.00320062 0.258489 0.715702
-0.00169895 0.259038 0.715287
-0.000197706 0.259676 0.71517
0.00130519 0.260454 0.715521
0.00283189 0.262705 0.720804
0.0043795 0.265119 0.726601
0.00594038 0.267298 0.731588
0.00751346 0.269336 0.73608
0.00907315 0.270586 0.737936
0.0106047 0.270996 0.737007
0.0121391 0.271517 0.736447
0.0136748 0.272085 0.73604
0.0152117 0.272682 0.735733
0.0167554 0.273392 0.735794
0.0183129 0.274293 0.73648
0.0198645 0.275074 0.736769
0.0214299 0.276013 0.737567
0.0229814 0.276744 0.737691
0.0245289 0.277417 0.737622
0.0260614 0.277924 0.737014
0.0275937 0.27844 0.736443
0.0291102 0.278815 0.735414
0.0306432 0.279365 0.734952
0.0321576 0.279756 0.733985
0.0336582 0.28005 0.73271
0.0351543 0.280333 0.731405
0.03663 0.280484 0.729684
0.0380955 0.280592 0.727836
0.0395501 0.280657 0.725858
0.0410007 0.280731 0.723919
0.0424689 0.280961 0.722478
0.0439558 0.281338 0.721503
0.0454718 0.281915 0.721159
0.0470364 0.282797 0.721768
0.0486181 0.283765 0.722641
0.0501731 0.284558 0.722965
0.0517282 0.285342 0.723259
0.0532617 0.285997 0.723153
0.0547209 0.28625 0.721801
0.0561435 0.286327 0.719912
0.0575424 0.286308 0.717737
0.0589065 0.286143 0.715121
0.0602605 0.285964 0.712474
0.0616842 0.286155 0.710967
0.063146 0.286543 0.710067
0.0646164 0.28698 0.70932
0.0661213 0.287579 0.709067
0.0676235 0.288167 0.708781
0.0691132 0.288702 0.708333
0.0706139 0.289286 0.708036
0.072176 0.290127 0.708513
0.0737352 0.290949 0.708926
0.0753148 0.291844 0.709559
0.0769139 0.292807 0.710389
0.0785273 0.293814 0.711345
0.080128 0.294758 0.712112
0.0817122 0.29563 0.712658
0.0833371 0.296645 0.713624
0.0849611 0.297643 0.714535
0.0866022 0.298691 0.715588
0.0882805 0.299857 0.716985
0.090009 0.301181 0.718838
0.0917613 0.302567 0.720862
0.0935456 0.304039 0.723127
0.0953452 0.305537 0.72546
0.0971187 0.306927 0.727464
0.098924 0.308397 0.729695
0.100692 0.309726 0.731503
0.102448 0.310999 0.733141
0.104199 0.312241 0.734684
-0.0360457 0.252294 0.738041
-0.0344941 0.252745 0.737222
-0.0329401 0.253159 0.736274
-0.0313802 0.253497 0.735065
-0.0298133 0.253739 0.733525
-0.0282397 0.253867 0.731591
-0.0266762 0.254043 0.729832
-0.0251155 0.254192 0.727992
-0.0235604 0.254345 0.72617
-0.0220157 0.254564 0.724585
-0.0204873 0.254949 0.72358
-0.0189627 0.255354 0.722645
-0.017444 0.255818 0.72192
-0.0159315 0.256367 0.721487
-0.0144195 0.256912 0.721042
-0.0129035 0.257345 0.720219
-0.0113902 0.257796 0.719456
-0.00987846 0.258244 0.718688
-0.00836725 0.258638 0.717737
-0.00685841 0.259034 0.716799
-0.00535259 0.259481 0.716035
-0.0038489 0.259959 0.71538
-0.00234673 0.260478 0.714863
-0.000845386 0.261055 0.714541
0.00065609 0.261706 0.714467
0.00217926 0.264056 0.720047
0.00529399 0.269307 0.73295
0.00686641 0.271334 0.737375
0.00842197 0.272425 0.738692
0.00995268 0.272748 0.737475
0.0114842 0.273161 0.73656
0.0130143 0.273589 0.735696
0.014546 0.274085 0.735058
0.0160833 0.274696 0.734796
0.0176353 0.275534 0.735271
0.0191807 0.276248 0.735342
0.0207388 0.277117 0.735912
0.0222927 0.277903 0.736213
0.0238523 0.278738 0.736667
0.0254016 0.279434 0.736671
0.0269551 0.280167 0.736794
0.0284936 0.280739 0.736399
0.0300322 0.281318 0.736027
0.0315485 0.281698 0.735023
0.0330659 0.282108 0.73412
0.0345753 0.28247 0.733066
0.0360695 0.28273 0.731696
0.0375581 0.282974 0.730277
0.0390277 0.283105 0.72851
0.0404755 0.283113 0.726362
0.0419534 0.28337 0.725007
0.0434597 0.283842 0.724324
0.0449985 0.284534 0.724331
0.0465776 0.285475 0.725111
0.0481672 0.286462 0.726031
0.0497204 0.287212 0.726209
0.0512697 0.287931 0.726292
0.0527943 0.288507 0.725932
0.0542609 0.288766 0.724598
0.0556921 0.288853 0.722743
0.0570872 0.288778 0.720397
0.058428 0.288458 0.717312
0.0597499 0.288086 0.714084
0.0611559 0.288169 0.712251
0.0626391 0.288642 0.71161
0.0641161 0.289093 0.710902
0.0656199 0.289672 0.710585
0.0671437 0.290343 0.710544
0.0686374 0.29088 0.710097
0.0701358 0.291439 0.70972
0.0717094 0.292318 0.710302
0.0732864 0.293202 0.710893
0.0748858 0.294167 0.711724
0.076498 0.295171 0.712667
0.0781257 0.296223 0.713743
0.0797206 0.297132 0.714395
0.0813413 0.298131 0.715304
0.0829851 0.299204 0.716428
0.0846313 0.30027 0.717528
0.0863058 0.301426 0.718883
0.0880169 0.302696 0.720567
0.0897257 0.303939 0.722162
0.0914629 0.305261 0.723981
0.0932331 0.306676 0.726062
0.0950134 0.308103 0.728168
0.0967739 0.30944 0.730001
0.0985228 0.310722 0.731667
0.100256 0.311935 0.733125
0.102 0.313169 0.734639
0.103732 0.314347 0.735983
-0.0367119 0.253774 0.737653
-0.0351531 0.254171 0.736648
-0.0335969 0.254569 0.735652
-0.0320365 0.254906 0.734442
-0.0304741 0.255195 0.733072
-0.0289036 0.255365 0.731297
-0.0273417 0.255572 0.729654
-0.0257817 0.255746 0.727905
-0.0242295 0.255952 0.726276
-0.022685 0.256196 0.724783
-0.0211552 0.256585 0.723795
-0.0196302 0.25701 0.722931
-0.0181114 0.257499 0.722293
-0.0165972 0.258046 0.721854
-0.0150824 0.258569 0.721332
-0.0135646 0.258999 0.720498
-0.0120484 0.259421 0.719639
-0.0105349 0.259863 0.71885
-0.0090214 0.260232 0.71782
-0.00751102 0.260628 0.716885
-0.00600395 0.261076 0.716126
-0.00449883 0.261548 0.715448
-0.00299519 0.262025 0.714792
-0.0014931 0.262541 0.714269
0.00152743 0.265467 0.719492
0.00464938 0.271539 0.735024
0.00621929 0.273443 0.739015
0.0077685 0.274251 0.739388
0.00930138 0.274558 0.738123
0.0108311 0.274869 0.736874
0.012358 0.27519 0.735666
0.0138856 0.275585 0.734699
0.0154177 0.276099 0.734123
0.0169629 0.276841 0.734285
0.018503 0.277488 0.73414
0.0200544 0.278291 0.734494
0.0216116 0.279142 0.735001
0.0231765 0.280059 0.735717
0.0247383 0.280908 0.73621
0.0263095 0.281833 0.736942
0.0278628 0.282545 0.736992
0.0294091 0.283179 0.736794
0.030933 0.283605 0.735937
0.0324705 0.284169 0.735519
0.0339925 0.284606 0.734702
0.0355164 0.285074 0.733982
0.0370358 0.285517 0.733191
0.0385376 0.285841 0.732028
0.0399973 0.285878 0.729973
0.0414924 0.286205 0.728829
0.0430024 0.286653 0.728066
0.0445372 0.287276 0.727848
0.0461081 0.288131 0.728347
0.0476858 0.289014 0.728932
0.0492414 0.289749 0.729055
0.0507937 0.290458 0.729096
0.0523237 0.291035 0.728732
0.0537971 0.291298 0.727408
0.055249 0.291461 0.725786
0.0566411 0.29133 0.723273
0.0579434 0.290769 0.719464
0.0592073 0.290068 0.715248
0.0605923 0.290025 0.71304
0.0620757 0.290488 0.712367
0.0635643 0.290982 0.711789
0.0650947 0.291675 0.71181
0.0666409 0.292436 0.712034
0.0681616 0.293079 0.711902
0.0696946 0.293773 0.711924
0.0712977 0.294765 0.712831
0.0729127 0.295793 0.71384
0.0745524 0.296908 0.715102
0.0761973 0.298026 0.716366
0.0778291 0.299076 0.717421
0.079436 0.300012 0.718137
0.0810616 0.30101 0.719029
0.0827066 0.302069 0.720097
0.084355 0.303127 0.721155
0.0860384 0.304299 0.722542
0.0877462 0.305543 0.72413
0.0894506 0.306756 0.725621
0.0911631 0.307979 0.727136
0.0929073 0.309297 0.728913
0.0946533 0.310598 0.730636
0.0963722 0.311791 0.732038
0.0980589 0.312861 0.733081
0.0997717 0.314002 0.734321
0.101519 0.315244 0.735843
0.10326 0.316448 0.737251
0.106287 0.318072 0.744617
0.10504 0.317761 0.73896
-0.0342507 0.255955 0.734944
-0.0326943 0.256329 0.73387
-0.0311371 0.256671 0.732691
-0.0295721 0.256905 0.731143
-0.028012 0.257144 0.729621
-0.026453 0.257348 0.727981
-0.0248995 0.25756 0.726377
-0.0233528 0.2578 0.724878
-0.0218216 0.25819 0.723896
-0.020295 0.258613 0.723029
-0.0187753 0.259107 0.722406
-0.0172598 0.259653 0.721965
-0.0157452 0.260204 0.721536
-0.0142257 0.260633 0.720703
-0.0127077 0.261051 0.719832
-0.0111927 0.26149 0.719036
-0.00967824 0.261885 0.718095
-0.0081654 0.262257 0.717078
-0.00665678 0.262705 0.716323
-0.00515017 0.263176 0.715642
-0.00364488 0.26363 0.714911
-0.0021413 0.264098 0.714228
0.00556819 0.275512 0.740497
0.00710831 0.275908 0.739523
0.00864191 0.276182 0.738151
0.0101731 0.276487 0.736888
0.0116974 0.276713 0.735376
0.0132224 0.277036 0.734181
0.0147528 0.277511 0.733482
0.0162953 0.278216 0.733523
0.0178345 0.278857 0.733358
0.0193875 0.279693 0.733814
0.0209491 0.280614 0.734541
0.0225197 0.281611 0.735505
0.0240909 0.282571 0.736346
0.0256719 0.283603 0.737412
0.0272366 0.284418 0.737785
0.0287869 0.285075 0.737654
0.0303201 0.285562 0.73699
0.0318749 0.286261 0.736992
0.0334131 0.286805 0.736509
0.0349641 0.287464 0.736387
0.0365137 0.288111 0.736227
0.0380402 0.288579 0.735507
0.0395164 0.28868 0.733652
0.0410325 0.289105 0.732808
0.0425546 0.289585 0.732136
0.0441003 0.290234 0.731987
0.0456716 0.291049 0.73235
0.0472423 0.291849 0.732664
0.0487901 0.292498 0.732512
0.0503356 0.293131 0.732313
0.0518554 0.293614 0.731653
0.0533328 0.293864 0.730287
0.0548116 0.294141 0.729009
0.0562154 0.294029 0.726558
0.0600496 0.292001 0.714173
0.0630038 0.292844 0.712577
0.0646446 0.294049 0.714125
0.0662806 0.295206 0.715522
0.0678643 0.296106 0.716147
0.069459 0.297044 0.71688
0.0711118 0.298222 0.718318
0.0727079 0.299137 0.718974
0.0743194 0.300105 0.719784
0.0759532 0.301153 0.720821
0.0775663 0.302102 0.721565
0.0791516 0.302929 0.721947
0.0807633 0.303853 0.722608
0.0824051 0.304882 0.723572
0.0840623 0.305956 0.724662
0.0857451 0.307111 0.725981
0.0874446 0.30831 0.727423
0.0891309 0.309446 0.728673
0.0908087 0.310536 0.729784
0.0925233 0.311738 0.731214
0.0942195 0.312864 0.732417
0.0958972 0.31391 0.733385
0.0975537 0.314875 0.734116
0.0992606 0.315996 0.73529
0.101016 0.317262 0.736867
0.102785 0.318556 0.738518
0.104567 0.319875 0.740234
-0.0333522 0.257754 0.733304
-0.0318005 0.258149 0.732314
-0.0302413 0.258447 0.730994
-0.0286801 0.258689 0.729488
-0.0271224 0.258922 0.727956
-0.0255696 0.259162 0.726452
-0.0240214 0.259405 0.72497
-0.0224889 0.259797 0.723997
-0.0209612 0.260223 0.723143
-0.0194398 0.260714 0.722512
-0.0179219 0.261239 0.721996
-0.0164077 0.261817 0.721661
-0.0148882 0.262276 0.720927
-0.0133685 0.262693 0.720054
-0.0118519 0.263133 0.719264
-0.0103363 0.263549 0.718394
-0.00882177 0.263922 0.717386
-0.00731137 0.264371 0.716634
-0.00580313 0.264847 0.715972
-0.00429647 0.265339 0.715364
-0.00279092 0.265793 0.714635
0.00490194 0.277012 0.740108
0.00644278 0.277403 0.739122
0.00797837 0.277705 0.737848
0.00951155 0.278033 0.736664
0.0110375 0.278263 0.735169
0.0125622 0.278549 0.733861
0.0140914 0.27899 0.733054
0.0156302 0.279629 0.732884
0.0171709 0.280298 0.732805
0.0187298 0.281229 0.733565
0.020299 0.28226 0.734634
0.021878 0.283365 0.735932
0.0234599 0.284445 0.737145
0.0250494 0.285566 0.738477
0.02662 0.286422 0.738973
0.0281745 0.287091 0.738879
0.0297195 0.287668 0.738491
0.0312901 0.288483 0.738853
0.0328415 0.289111 0.738626
0.0344103 0.289891 0.738873
0.0359824 0.290684 0.739159
0.0375305 0.291273 0.738808
0.0390291 0.291489 0.73731
0.0405663 0.292022 0.736789
0.042104 0.292559 0.736288
0.0436487 0.293153 0.735957
0.0452138 0.293881 0.736043
0.0467677 0.294537 0.735901
0.0482997 0.295049 0.735324
0.0498292 0.295551 0.734719
0.0513425 0.295969 0.733858
0.052827 0.296226 0.732515
0.0543385 0.296659 0.731706
0.0643763 0.297318 0.719072
0.0660752 0.29874 0.721234
0.0677001 0.29979 0.722285
0.0693359 0.300872 0.723424
0.0709476 0.30183 0.724191
0.0725273 0.302637 0.72451
0.0741078 0.303441 0.724818
0.0757255 0.304393 0.725557
0.0773113 0.305202 0.725876
0.0788756 0.305919 0.725923
0.0804673 0.306741 0.726273
0.0820875 0.307667 0.726924
0.0837172 0.308619 0.727646
0.0853797 0.309686 0.728697
0.087051 0.31077 0.729789
0.0886908 0.311724 0.730503
0.090341 0.312709 0.731302
0.0920247 0.313797 0.732392
0.0936905 0.314815 0.733274
0.0953567 0.31582 0.734118
0.0970062 0.316758 0.734765
0.0987269 0.317926 0.736059
0.100494 0.319231 0.737738
0.102276 0.320569 0.7395
0.104059 0.321889 0.741205
0.107031 0.323315 0.747943
0.105766 0.322955 0.742187
-0.0340015 0.259106 0.732489
-0.0324544 0.25954 0.731637
-0.0309014 0.259901 0.730537
-0.0293434 0.260183 0.729173
-0.0277874 0.260445 0.72775
-0.0262359 0.260713 0.726348
-0.0246913 0.261016 0.725074
-0.0231592 0.261433 0.724189
-0.0216321 0.26189 0.723439
-0.0201111 0.262409 0.722903
-0.0185931 0.262963 0.722483
-0.0170758 0.263515 0.72206
-0.0155546 0.263977 0.721336
-0.0140331 0.264397 0.720475
-0.0125145 0.264836 0.719683
-0.010997 0.265256 0.718826
-0.00948106 0.265654 0.717905
-0.00796866 0.266106 0.717161
-0.00645839 0.266579 0.716492
-0.00494972 0.267071 0.715885
-0.00344235 0.267556 0.715254
0.0057782 0.278946 0.738873
0.00731539 0.27926 0.737646
0.00884932 0.279573 0.736416
0.0103769 0.279806 0.734938
0.0119012 0.280055 0.733515
0.0134295 0.28046 0.732597
0.014967 0.281074 0.732347
0.0165117 0.281812 0.732486
0.0180789 0.282878 0.733666
0.0196583 0.284054 0.735187
0.0212414 0.285209 0.73663
0.0228292 0.286354 0.738038
0.0244268 0.287553 0.739607
0.0260048 0.288476 0.740301
0.0275698 0.289226 0.740453
0.0291369 0.289986 0.740634
0.030722 0.290905 0.741309
0.0322828 0.291581 0.741223
0.0338565 0.292361 0.74146
0.0354396 0.293213 0.741915
0.0369978 0.293843 0.741687
0.0385176 0.294171 0.74053
0.0400581 0.294677 0.739924
0.0416021 0.29522 0.739431
0.0431475 0.295778 0.738985
0.0447029 0.296407 0.738758
0.0462418 0.296928 0.738199
0.0477722 0.297401 0.737498
0.0492946 0.297836 0.736684
0.0508004 0.298179 0.735596
0.0523106 0.298561 0.734631
0.0538531 0.299145 0.734272
0.0675596 0.303649 0.72887
0.0691895 0.30466 0.729778
0.07075 0.30535 0.72974
0.0722909 0.30595 0.729438
0.0738424 0.306595 0.729269
0.0754355 0.307415 0.729608
0.0769921 0.308081 0.729494
0.0785422 0.308713 0.729287
0.0801292 0.309496 0.729512
0.081719 0.310286 0.729757
0.0833237 0.311125 0.730142
0.0849595 0.312076 0.730847
0.0865942 0.313016 0.731514
0.0881897 0.313799 0.731728
0.0898205 0.314708 0.7323
0.0914831 0.31572 0.733163
0.0931395 0.3167 0.733932
0.0947981 0.317675 0.734681
0.0964595 0.318652 0.73543
0.0981902 0.319856 0.736817
0.0999585 0.321165 0.738495
0.10174 0.322503 0.740246
0.103511 0.323787 0.741837
0.105198 0.324786 0.742621
-0.0346744 0.260656 0.732352
-0.0331254 0.261083 0.731479
-0.0315758 0.261484 0.730521
-0.0300195 0.261798 0.72927
-0.0284644 0.262087 0.727941
-0.0269083 0.262325 0.726445
-0.0253647 0.262659 0.725277
-0.0238311 0.263079 0.724405
-0.0223044 0.263561 0.723742
-0.0207818 0.264081 0.723206
-0.0192642 0.264663 0.72288
-0.0177453 0.265217 0.722464
-0.0162251 0.265736 0.721929
-0.0147016 0.26616 0.721083
-0.0131809 0.266605 0.720307
-0.0116612 0.267023 0.719447
-0.0101437 0.267447 0.71861
-0.00862818 0.267872 0.717781
-0.00711571 0.268347 0.717116
-0.00560508 0.268846 0.716529
-0.00409554 0.269332 0.715905
0.00664931 0.280716 0.737121
0.00818351 0.281014 0.73585
0.00971309 0.281276 0.734472
0.0112394 0.281548 0.733127
0.012773 0.282049 0.732516
0.0143137 0.282712 0.732419
0.0158651 0.283552 0.732879
0.0174416 0.284762 0.734503
0.0190279 0.286029 0.736296
0.020612 0.287179 0.737713
0.022204 0.288362 0.739224
0.0238001 0.289532 0.740687
0.0253775 0.290423 0.741276
0.0269514 0.291248 0.741655
0.0285316 0.29212 0.742177
0.0301197 0.293045 0.74286
0.03169 0.293778 0.742944
0.0332678 0.29457 0.743209
0.0348572 0.295445 0.74373
0.036427 0.296142 0.7437
0.037977 0.296675 0.743168
0.0395285 0.297226 0.742694
0.0410795 0.29778 0.742229
0.0426266 0.298312 0.741697
0.0441785 0.298881 0.74128
0.0457086 0.299309 0.740436
0.0472429 0.299777 0.739716
0.048769 0.300203 0.738873
0.0502713 0.300493 0.737624
0.0517974 0.300946 0.736867
0.0533465 0.30154 0.736536
0.0659121 0.307184 0.736509
0.0674293 0.307624 0.735724
0.0689894 0.30827 0.735544
0.0705152 0.308758 0.734901
0.0720293 0.3092 0.734127
0.0735581 0.309716 0.73357
0.0751195 0.310371 0.733417
0.0766523 0.310909 0.732926
0.078182 0.311433 0.732398
0.0797335 0.312052 0.732142
0.0813012 0.312737 0.732075
0.0828902 0.3135 0.732233
0.0844941 0.31432 0.732551
0.0860964 0.315124 0.732822
0.0876836 0.31587 0.732923
0.0893037 0.316731 0.733353
0.0909486 0.317677 0.734018
0.0925978 0.318626 0.734692
0.094258 0.319607 0.73545
0.0959218 0.320589 0.736207
0.0976342 0.32173 0.737405
0.0993898 0.322999 0.738959
0.101179 0.324365 0.740775
0.102942 0.325622 0.74228
0.104643 0.326667 0.743185
-0.0338049 0.262695 0.731551
-0.0322553 0.263109 0.730638
-0.0306986 0.263435 0.729432
-0.0291457 0.263765 0.728244
-0.0275874 0.264002 0.72675
-0.0260443 0.264364 0.725681
-0.0245092 0.264788 0.724822
-0.0229831 0.265303 0.724268
-0.0214566 0.265796 0.723644
-0.0199354 0.266349 0.723219
-0.0184147 0.266899 0.722788
-0.016893 0.267418 0.722253
-0.0153676 0.267842 0.721408
-0.0138452 0.268288 0.720641
-0.0123248 0.268735 0.719875
-0.0108052 0.26916 0.719041
-0.00928774 0.269583 0.718206
-0.00777292 0.270035 0.717466
-0.00626074 0.270549 0.71693
-0.00474914 0.271017 0.716246
0.00598009 0.28205 0.736207
0.00751694 0.282429 0.735203
0.00904988 0.282767 0.734069
0.010581 0.283135 0.733035
0.0121251 0.283846 0.733088
0.0136741 0.284641 0.733401
0.0152345 0.285613 0.734269
0.0168194 0.286935 0.736227
0.0184109 0.288251 0.738157
0.0199962 0.289384 0.739506
0.0215912 0.290576 0.741034
0.0231875 0.29172 0.742401
0.0247655 0.292583 0.742894
0.0263432 0.29342 0.743301
0.0279268 0.294298 0.743831
0.0295084 0.29513 0.744219
0.0310822 0.295871 0.744322
0.0326535 0.296577 0.744321
0.0342366 0.297381 0.744613
0.0358005 0.298007 0.744365
0.0373607 0.298606 0.744032
0.0389151 0.299164 0.743576
0.0404828 0.299825 0.743433
0.042048 0.300464 0.743223
0.0436187 0.301144 0.743136
0.0451677 0.301673 0.742595
0.0467167 0.302208 0.742073
0.0482534 0.302671 0.741334
0.0497603 0.302955 0.740066
0.0512852 0.303367 0.739186
0.052831 0.303916 0.738712
0.0543512 0.304321 0.737813
0.0657695 0.311232 0.743514
0.0672553 0.311463 0.742106
0.0687366 0.31169 0.74069
0.0702222 0.311953 0.739387
0.0716929 0.312164 0.737933
0.0731747 0.312441 0.736678
0.0746825 0.31284 0.735782
0.0761845 0.313226 0.734848
0.0776768 0.313582 0.733829
0.0792131 0.314126 0.733357
0.080783 0.314809 0.73328
0.0823819 0.315604 0.733522
0.0839896 0.316429 0.733849
0.0855862 0.317206 0.734034
0.087174 0.317943 0.734107
0.0887757 0.31873 0.73432
0.0904124 0.319637 0.734871
0.0920539 0.32056 0.735459
0.0937183 0.321549 0.736235
0.095394 0.322571 0.737095
0.0970963 0.323674 0.738179
0.0988425 0.324914 0.739638
0.100633 0.326283 0.741452
0.102408 0.327585 0.743069
0.104124 0.328676 0.744094
-0.0344741 0.264215 0.731305
-0.0329225 0.264619 0.730361
-0.0313691 0.264984 0.729292
-0.029821 0.265373 0.728307
-0.0282685 0.26569 0.727083
-0.0267262 0.266083 0.72612
-0.0251915 0.266534 0.725353
-0.0236636 0.267051 0.724804
-0.022135 0.267544 0.72418
-0.0206118 0.268096 0.723752
-0.0190891 0.268644 0.72331
-0.0175653 0.269161 0.722768
-0.0160378 0.269585 0.721927
-0.0145134 0.270032 0.721159
-0.0129894 0.270445 0.720286
-0.0114678 0.270865 0.719439
-0.00994825 0.271288 0.718601
-0.00843167 0.271742 0.71787
-0.00691747 0.272242 0.717288
-0.00540445 0.272735 0.716686
0.00994099 0.28523 0.734533
0.0114965 0.286139 0.735201
0.0130538 0.287026 0.735797
0.0146227 0.288087 0.736928
0.0162072 0.289345 0.738666
0.0177939 0.290534 0.740186
0.0193793 0.291625 0.741391
0.0209739 0.29278 0.742785
0.0225679 0.293863 0.743951
0.0241432 0.294661 0.744234
0.025726 0.295528 0.744726
0.0273092 0.296374 0.745151
0.0288838 0.297109 0.745235
0.0304523 0.297773 0.745101
0.0320178 0.298407 0.744872
0.0335939 0.299137 0.744936
0.0351562 0.299739 0.744612
0.0367258 0.300407 0.744487
0.0382913 0.301038 0.744249
0.0398747 0.301803 0.744417
0.0414522 0.302519 0.744434
0.0430355 0.303273 0.744564
0.0445988 0.303879 0.744249
0.0461687 0.304529 0.744067
0.047733 0.305141 0.743772
0.0492601 0.305521 0.742787
0.0507955 0.305963 0.741991
0.0636214 0.312573 0.744655
0.0651529 0.313005 0.743831
0.0666736 0.313394 0.742885
0.0681809 0.313727 0.74178
0.0696896 0.314082 0.740741
0.0711841 0.314383 0.739551
0.0726928 0.314761 0.738588
0.0742038 0.315155 0.737672
0.0757009 0.315502 0.736625
0.0771954 0.315848 0.735578
0.0787263 0.316354 0.734993
0.0802884 0.316992 0.734783
0.0818732 0.31772 0.734828
0.0834749 0.318514 0.735059
0.0850563 0.319222 0.735047
0.086637 0.319924 0.735016
0.0882386 0.320703 0.7352
0.0898666 0.321576 0.735647
0.0915012 0.322467 0.736141
0.093166 0.323459 0.736916
0.0948424 0.32448 0.737765
0.0965365 0.325552 0.738755
0.0982825 0.326795 0.740212
0.100085 0.328209 0.742138
0.101874 0.329558 0.743875
0.103608 0.330703 0.745039
-0.0335857 0.266092 0.72996
-0.0320408 0.266541 0.729174
-0.0304981 0.266994 0.728405
-0.0289487 0.267359 0.727345
-0.0274096 0.267805 0.726559
-0.0258781 0.268318 0.725994
-0.0243505 0.268864 0.725542
-0.0228196 0.269357 0.724919
-0.021294 0.269908 0.724483
-0.0197687 0.27045 0.724023
-0.0182407 0.270936 0.723377
-0.0167094 0.271331 0.722439
-0.0151828 0.271776 0.721667
-0.0136565 0.272185 0.720782
-0.0121327 0.272601 0.719923
-0.0106111 0.273023 0.719084
-0.00909313 0.273505 0.718442
-0.00757717 0.274014 0.717891
0.0108798 0.288833 0.738538
0.0124409 0.28968 0.738995
0.0140118 0.290681 0.739925
0.0155907 0.29176 0.741092
0.0171673 0.292731 0.741917
0.0187457 0.293672 0.742647
0.0203363 0.29475 0.743793
0.0219263 0.295759 0.744721
0.0235005 0.296521 0.74489
0.0250866 0.297412 0.745448
0.0266679 0.298219 0.745749
0.0282378 0.298887 0.745624
0.0298044 0.299518 0.745385
0.0313677 0.300121 0.745061
0.0329381 0.300786 0.744927
0.0345054 0.301426 0.744717
0.0360808 0.302133 0.744705
0.0376528 0.302808 0.744599
0.0392468 0.303654 0.745003
0.040836 0.304443 0.745236
0.0424277 0.305246 0.745507
0.0440094 0.305964 0.745523
0.0456098 0.306806 0.745907
0.0472093 0.30763 0.746235
0.0487732 0.308212 0.745844
0.0503344 0.308777 0.745407
0.0629891 0.314281 0.744773
0.0645315 0.314762 0.744091
0.0660738 0.315248 0.743427
0.0676095 0.315708 0.742689
0.0691388 0.316144 0.741885
0.0706618 0.31656 0.741025
0.072198 0.317047 0.740372
0.0737137 0.317444 0.739466
0.0752165 0.317795 0.738428
0.0767153 0.318137 0.737372
0.0782404 0.318605 0.736673
0.0797872 0.319165 0.736238
0.0813639 0.319851 0.736159
0.0829593 0.320611 0.736287
0.0845258 0.32125 0.736077
0.0861075 0.321947 0.736026
0.0877004 0.322687 0.736098
0.0893202 0.323526 0.736441
0.0909453 0.324374 0.736812
0.092601 0.325332 0.737483
0.0942677 0.326318 0.738228
0.0959607 0.327386 0.739198
0.0977087 0.328636 0.740663
0.0995125 0.330057 0.742597
0.101316 0.331458 0.744463
0.103064 0.332653 0.745758
-0.0327145 0.268112 0.729097
-0.0311764 0.268619 0.728506
-0.0296299 0.269028 0.727598
-0.0280888 0.269471 0.726801
-0.026558 0.270009 0.726321
-0.0250265 0.270527 0.725776
-0.023492 0.270994 0.725064
-0.021965 0.271543 0.724624
-0.0204403 0.272115 0.724259
-0.0189109 0.272599 0.723611
-0.0173793 0.273023 0.72277
-0.0158509 0.273467 0.721995
-0.0143228 0.273876 0.721109
-0.0127969 0.274287 0.720236
-0.0112735 0.274706 0.719391
-0.0097542 0.275203 0.718796
-0.00823731 0.275745 0.718347
0.0102895 0.292385 0.744494
0.0118399 0.292754 0.74345
0.0134018 0.293412 0.743307
0.0149741 0.294265 0.743761
0.0165404 0.294981 0.743789
0.0181102 0.295736 0.743939
0.0196911 0.296638 0.744535
0.0212725 0.297513 0.745045
0.0228394 0.298168 0.744882
0.0244197 0.298982 0.745202
0.0259951 0.299722 0.745295
0.0275649 0.30039 0.74517
0.0291351 0.301056 0.745035
0.0307024 0.301693 0.744815
0.0322771 0.3024 0.744804
0.0338529 0.303106 0.744792
0.0354341 0.303857 0.744912
0.0370161 0.304606 0.745023
0.0386176 0.305504 0.745577
0.0402136 0.30634 0.745943
0.0418168 0.307214 0.746421
0.0434162 0.308048 0.746776
0.0450471 0.309087 0.747735
0.0466664 0.310026 0.748392
0.0482767 0.310885 0.748812
0.0498968 0.311794 0.749374
0.0623834 0.316142 0.745323
0.0639288 0.316625 0.74465
0.0654823 0.317154 0.744109
0.0670423 0.317722 0.743681
0.0685757 0.318165 0.742896
0.0701177 0.318657 0.742252
0.0716735 0.319217 0.741806
0.0732033 0.319661 0.741031
0.0747203 0.320058 0.740125
0.0762259 0.320411 0.739097
0.0777455 0.32084 0.738285
0.079285 0.321354 0.737718
0.080853 0.321992 0.737498
0.0824315 0.322673 0.7374
0.0839992 0.323307 0.737171
0.0855742 0.323971 0.737026
0.0871598 0.324676 0.736993
0.0887607 0.325435 0.737111
0.0903763 0.326246 0.737369
0.0920211 0.327158 0.737908
0.0936878 0.328143 0.738643
0.0953825 0.329217 0.739621
0.0971317 0.330473 0.741095
0.0989367 0.331902 0.743036
0.10074 0.333306 0.744901
0.1025 0.334542 0.746297
-0.0321334 0.272854 0.737182
-0.0302803 0.270384 0.726814
-0.0287442 0.270878 0.726188
-0.0272193 0.271483 0.725927
-0.0256922 0.272059 0.725574
-0.0241618 0.272587 0.725065
-0.022634 0.273138 0.724629
-0.0211102 0.273738 0.724355
-0.0195795 0.274225 0.723716
-0.0180486 0.274684 0.722987
-0.0165203 0.275162 0.722322
-0.0149917 0.275599 0.72153
-0.0134625 0.275982 0.720568
-0.0119382 0.276426 0.719802
-0.0104182 0.276956 0.719316
-0.00889936 0.277496 0.718858
0.00967831 0.295625 0.749419
0.0112289 0.295759 0.747644
0.0127807 0.296032 0.746305
0.014345 0.296623 0.745943
0.0159034 0.297117 0.745288
0.0174677 0.297732 0.745002
0.0190418 0.298499 0.74518
0.020617 0.299264 0.745349
0.0221797 0.299845 0.744959
0.0237547 0.300588 0.745061
0.0253249 0.301259 0.744945
0.0268922 0.301893 0.744716
0.0284656 0.302597 0.744694
0.0300368 0.303269 0.744578
0.0316124 0.303979 0.744576
0.0331928 0.304728 0.744687
0.0347783 0.305515 0.744911
0.0363662 0.306309 0.745153
0.0379728 0.307243 0.745811
0.0395746 0.308122 0.746299
0.0411881 0.309068 0.746984
0.0428128 0.31008 0.747858
0.0444726 0.311318 0.749391
0.0461134 0.312385 0.750414
0.0477508 0.313405 0.751295
0.0494017 0.314488 0.752355
0.0633371 0.318555 0.745387
0.0648969 0.319107 0.744912
0.0664674 0.319712 0.744587
0.0680177 0.320224 0.743999
0.0695554 0.32068 0.743252
0.071114 0.321244 0.742815
0.0726555 0.321729 0.742153
0.0741858 0.322169 0.741368
0.0757044 0.322565 0.740462
0.077229 0.322998 0.73966
0.0787614 0.323469 0.73897
0.0803118 0.324024 0.738515
0.0818724 0.324622 0.738183
0.0834242 0.325183 0.737747
0.0850003 0.325845 0.737592
0.0865777 0.326514 0.737456
0.0881788 0.327268 0.737555
0.0897935 0.328073 0.737793
0.0914288 0.32895 0.738228
0.0930966 0.329936 0.738963
0.0948028 0.331054 0.740052
0.0965537 0.332313 0.741525
0.0983486 0.333715 0.74338
0.10015 0.335113 0.745216
0.101907 0.336346 0.746592
-0.029641 0.27477 0.733662
-0.0278696 0.272834 0.725136
-0.0263463 0.273451 0.724913
-0.025027 0.276588 0.732834
-0.0126027 0.278109 0.72009
-0.0110799 0.278601 0.71948
-0.00955798 0.279076 0.718818
0.00747551 0.298091 0.754103
0.00903986 0.298289 0.752517
0.0105954 0.298367 0.750571
0.0121481 0.298511 0.748835
0.0137071 0.298886 0.74781
0.0152588 0.29917 0.74651
0.0168199 0.299676 0.745893
0.0183896 0.300342 0.745758
0.0199591 0.301001 0.745604
0.0215196 0.301529 0.745053
0.0230923 0.302233 0.745032
0.0246605 0.30287 0.744812
0.0262287 0.303511 0.744602
0.0278061 0.30425 0.744684
0.0293815 0.304957 0.744672
0.0309621 0.305709 0.744792
0.0325474 0.306497 0.745016
0.0341382 0.307324 0.745352
0.0357309 0.308148 0.745679
0.0373384 0.309084 0.746336
0.0389417 0.309965 0.746823
0.040556 0.310914 0.747508
0.0421829 0.311934 0.748399
0.0438405 0.313153 0.749865
0.0454846 0.314242 0.750944
0.0471298 0.315309 0.751956
0.0627661 0.320607 0.746461
0.0643296 0.321164 0.745995
0.0659076 0.321796 0.745745
0.0674741 0.322372 0.745335
0.0690072 0.322791 0.744484
0.0705677 0.323346 0.744019
0.0721106 0.323825 0.743338
0.0736362 0.324229 0.74245
0.075159 0.324632 0.741563
0.0766871 0.325067 0.74077
0.0782048 0.325462 0.739864
0.0797387 0.325933 0.739175
0.0812812 0.326448 0.738608
0.0828241 0.326969 0.738059
0.0843848 0.327564 0.737717
0.0859638 0.328233 0.737581
0.0875642 0.328984 0.737669
0.0891788 0.329787 0.737898
0.0908059 0.330631 0.738239
0.0924761 0.331626 0.738992
0.0941939 0.332791 0.740202
0.0959457 0.334057 0.741683
0.097729 0.335422 0.743424
0.0995151 0.336771 0.745118
0.101269 0.337996 0.746466
0.104389 0.340003 0.75455
0.103682 0.341446 0.75382
0.00590233 0.297702 0.755102
0.00523327 0.299788 0.756396
0.00681028 0.300194 0.755445
0.00837968 0.300421 0.753954
0.00994119 0.300541 0.752141
0.0114965 0.300635 0.750254
0.0130556 0.300925 0.748973
0.0146085 0.301165 0.747541
0.0161687 0.301603 0.746715
0.0177366 0.302204 0.746382
0.0193053 0.30282 0.746095
0.0208642 0.303301 0.745402
0.0224351 0.303961 0.745248
0.024002 0.304567 0.744934
0.0255719 0.305212 0.744733
0.0271529 0.305983 0.744909
0.0287329 0.30673 0.74501
0.0303121 0.307458 0.745054
0.0319025 0.308288 0.7454
0.0334977 0.309145 0.745821
0.0350915 0.309967 0.746138
0.0366998 0.310906 0.746794
0.0383082 0.311821 0.747375
0.0399195 0.312736 0.747955
0.0415513 0.313791 0.74894
0.0432157 0.315062 0.750546
0.0448508 0.316079 0.751407
0.0464967 0.317149 0.752418
0.0638076 0.323474 0.74778
0.0653848 0.324084 0.747464
0.0669625 0.324702 0.747167
0.0684839 0.325038 0.746081
0.0700298 0.325511 0.74538
0.0715412 0.325822 0.74423
0.07305 0.326139 0.743099
0.0745583 0.326464 0.741996
0.076089 0.3269 0.741203
0.0776095 0.327297 0.740307
0.0791518 0.327799 0.739702
0.0806948 0.328307 0.739116
0.0822304 0.328787 0.738455
0.083783 0.329345 0.738009
0.0853537 0.329975 0.737761
0.0869459 0.330693 0.737755
0.0885528 0.331462 0.73789
0.0901919 0.332352 0.738352
0.0918731 0.333391 0.739216
0.0936029 0.334599 0.740537
0.095356 0.335872 0.742026
0.0971384 0.337237 0.743758
0.0989133 0.338552 0.745347
0.100655 0.339731 0.746563
0.102354 0.340753 0.747348
0.00297483 0.301207 0.757826
0.00455748 0.301666 0.757035
0.00613795 0.302109 0.756197
0.00771171 0.302379 0.754839
0.00927836 0.302551 0.753188
0.0108377 0.302645 0.751311
0.0123999 0.302936 0.75003
0.013956 0.303162 0.748561
0.015519 0.303597 0.747725
0.0170875 0.304164 0.747287
0.0186563 0.304747 0.746897
0.0202152 0.305186 0.746081
0.0217852 0.305806 0.745804
0.0233517 0.306385 0.745404
0.0249233 0.307033 0.745212
0.0265088 0.307841 0.745492
0.0280936 0.308624 0.745696
0.0296779 0.309385 0.745834
0.0312675 0.310192 0.746104
0.0328643 0.31105 0.746524
0.0344594 0.311871 0.746831
0.0360651 0.312777 0.747383
0.037667 0.313625 0.747765
0.0392833 0.314578 0.748448
0.040911 0.315597 0.749319
0.042559 0.316741 0.750547
0.0441717 0.317597 0.750936
0.0632679 0.325718 0.749356
0.0648532 0.326353 0.749105
0.0664397 0.326995 0.748873
0.0679702 0.327359 0.747863
0.0694941 0.327702 0.746796
0.0709728 0.327841 0.745167
0.0724557 0.328019 0.743652
0.0739383 0.328215 0.742193
0.0754541 0.328576 0.741194
0.0769765 0.328976 0.740308
0.0785218 0.329485 0.739722
0.0800657 0.329992 0.739136
0.0816104 0.330507 0.738568
0.0831635 0.331058 0.738104
0.0847349 0.331687 0.737855
0.0863277 0.332406 0.73785
0.0879442 0.333211 0.738078
0.0895855 0.334106 0.738549
0.0912785 0.335192 0.739533
0.0930199 0.336441 0.740956
0.0947841 0.337762 0.742565
0.0965578 0.339096 0.744202
0.0983222 0.340373 0.745678
0.100064 0.341556 0.746893
0.101752 0.342538 0.747565
0.104739 0.344095 0.75436
0.103445 0.343528 0.748256
0.000710033 0.302909 0.760106
0.00229728 0.303282 0.75905
0.00388136 0.303623 0.7579
0.00546385 0.304031 0.756957
0.00704056 0.304307 0.755619
0.00861251 0.30454 0.754157
0.0101758 0.304639 0.752299
0.0117416 0.304935 0.751038
0.0133008 0.305157 0.749559
0.0148632 0.305523 0.748516
0.0164284 0.305986 0.747766
0.0179969 0.306531 0.747262
0.0195574 0.306971 0.746447
0.0211294 0.307597 0.746188
0.0227003 0.308211 0.745892
0.024279 0.308931 0.745907
0.0258664 0.30974 0.746187
0.027459 0.310595 0.746598
0.0290494 0.3114 0.746858
0.0306411 0.312205 0.747117
0.0322401 0.313066 0.747537
0.0338368 0.313889 0.747843
0.0354375 0.314728 0.748197
0.0370331 0.31551 0.74838
0.0386417 0.316387 0.748836
0.0402509 0.317255 0.749264
0.0418756 0.318225 0.749983
